# .PCD v0.7 - Point Cloud Data file format
VERSION 0.7
FIELDS x y z
SIZE 4 4 4
TYPE F F F
COUNT 1 1 1
WIDTH 1192
HEIGHT 1
VIEWPOINT 0 0 0 1 0 0 0
POINTS 1192
DATA ascii
0.0008798393 0.0150931422 -0.0024104700
0.0276563037 0.0067774765 -0.0031367005
-0.0234851129 0.0097395256 0.0019171624
-0.0182065479 0.0153747257 -0.0022855313
-0.0170561001 0.0153619368 -0.0006534890
0.0288497861 0.0113416985 0.0038599982
-0.0011710746 0.0141609702 -0.0023120851
0.0059141628 0.0104533583 -0.0019341470
-0.0292255394 0.0138168875 0.0111107025
0.0282063317 0.0105581880 -0.0029617758
0.0361811444 0.0175637212 0.0344392806
0.0365692601 0.0176156443 0.0344809294
0.0379290804 0.0175813641 0.0346214771
0.0088099306 0.0127219018 -0.0023364709
0.0109423893 0.0127389673 -0.0023854733
0.0118941441 0.0127344634 -0.0024358393
0.0128398035 0.0127319563 -0.0024463818
-0.0283940658 0.0142788868 0.0130743850
0.0159902479 0.0126175303 -0.0025432245
-0.0421666130 0.0176935103 0.0366023183
-0.0411676243 0.0176118072 0.0365788937
-0.0401787087 0.0177756604 0.0365101844
-0.0391296372 0.0177633855 0.0365164280
-0.0101167820 0.0155112986 -0.0021871389
-0.0383456573 0.0180548597 0.0365320295
-0.0291255787 0.0120844226 0.0017047613
-0.0191142820 0.0127787609 -0.0024364949
-0.0011715794 0.0154279601 -0.0023433180
-0.0000910403 0.0154181104 -0.0023808093
0.0008796512 0.0154092703 -0.0024182857
-0.0359537378 0.0161957126 0.0231008995
-0.0182059295 0.0155893583 -0.0022933395
0.0276076887 0.0113268904 0.0033914610
0.0268755388 0.0076871421 -0.0030430094
0.0029222521 0.0153909307 -0.0025057481
0.0277694482 0.0126530211 0.0096111763
0.0169189181 0.0146992486 -0.0035583735
0.0018486234 0.0147689227 -0.0024432600
0.0152255613 0.0140752438 -0.0008721412
0.0361823812 0.0179952886 0.0344392806
0.0367635265 0.0180007350 0.0344913304
0.0379276872 0.0180118289 0.0345954448
-0.0101188682 0.0157248285 -0.0021871389
-0.0101127699 0.0067472495 0.0007602884
-0.0050832387 0.0139807295 -0.0021913038
0.0048257224 0.0137022231 -0.0024295137
0.0058843028 0.0136979278 -0.0024282695
0.0069428664 0.0136933681 -0.0024370090
0.0038669931 0.0077084992 -0.0006691054
0.0069674402 0.0154664945 -0.0026306943
0.0128484387 0.0147153940 -0.0025719390
-0.0041051637 0.0154561978 -0.0022438900
0.0099078966 0.0138874818 -0.0025390447
0.0109563889 0.0136759561 -0.0025169686
0.0278478209 0.0137022119 0.0096732173
-0.0060663167 0.0147314128 -0.0021879212
-0.0050817356 0.0147223901 -0.0022152574
0.0259805471 0.0127952229 0.0095350463
0.0405368134 0.0178308319 0.0280672926
0.0049276426 0.0076906625 -0.0007003383
0.0051360708 0.0034099948 0.0042285710
-0.0011694243 0.0151106287 -0.0023433105
-0.0300292186 0.0146961305 0.0111846719
-0.0030796768 0.0059563182 0.0008475422
-0.0101146884 0.0159369539 -0.0022058845
-0.0288708918 0.0117832143 0.0043285205
-0.0130723305 0.0098662507 -0.0011658878
-0.0131656863 0.0093557257 -0.0009606392
-0.0111440159 0.0139272977 -0.0020395578
-0.0030986217 0.0107818320 -0.0017698021
-0.0060868748 0.0067186896 0.0003512516
0.0037419947 0.0033261180 0.0040786429
-0.0021218711 0.0147556271 -0.0022950755
0.0078794006 0.0155815054 -0.0026585520
-0.0041142553 0.0158823784 -0.0022230656
0.0179344546 0.0065692347 -0.0005462454
0.0179210845 0.0146463048 -0.0034815208
0.0365129113 0.0179632958 0.0263805855
0.0018463808 0.0156116802 -0.0024557472
0.0058837645 0.0034673531 0.0042920872
0.0118703628 0.0086565819 -0.0012525977
-0.0121908113 0.0048129465 0.0024496107
-0.0179629959 0.0114077348 -0.0019653724
-0.0100304559 0.0048225373 0.0024817451
0.0401205309 0.0180214327 0.0269740541
-0.0101147667 0.0161500331 -0.0022121356
0.0168865062 0.0155789983 -0.0035162182
0.0099141793 0.0147220623 -0.0026056827
0.0109622125 0.0147197787 -0.0025881813
-0.0111238696 0.0147773456 -0.0021195994
-0.0031268110 0.0156587567 -0.0022746013
0.0119236019 0.0098136887 -0.0017295540
0.0205263719 0.0104899500 -0.0040425197
-0.0150278062 0.0127283912 -0.0018136711
0.0268664490 0.0086715873 -0.0030239881
-0.0041160025 0.0160947833 -0.0022230656
0.0178712383 0.0039142296 0.0035125031
0.0375877805 0.0176903475 0.0193214286
0.0275106523 0.0144471247 0.0097009782
-0.0272819586 0.0114376340 0.0006115302
0.0368733890 0.0179106649 0.0221950728
0.0365211293 0.0180379096 0.0238505322
0.0368774980 0.0179914478 0.0255476553
-0.0120631680 0.0139626246 -0.0020200373
0.0400259793 0.0176451933 0.0255580712
0.0402206853 0.0178066548 0.0277549345
0.0161780473 0.0107950475 -0.0032967762
0.0088501042 0.0136834923 -0.0024944828
-0.0239910334 0.0075282063 0.0007521003
0.0138301346 0.0146323461 -0.0024527893
-0.0021736471 0.0156965163 -0.0023054839
0.0184119772 0.0067425091 -0.0007315786
-0.0050883740 0.0156781618 -0.0022183792
0.0048519205 0.0082413517 -0.0009502308
0.0403979644 0.0180249382 0.0270052869
-0.0091025271 0.0137082133 -0.0020712228
-0.0070592593 0.0137856547 -0.0021196739
0.0297503490 0.0145345684 -0.0187386852
-0.0031242219 0.0137537736 -0.0022346214
0.0366870612 0.0174204316 0.0158855561
0.0038706681 0.0137065593 -0.0024260790
0.0352913551 0.0183999036 0.0341113061
0.0359236449 0.0185271595 0.0343455672
0.0367611758 0.0183579158 0.0344548970
-0.0121175721 0.0163880903 -0.0021684007
-0.0060670562 0.0163234267 -0.0022308738
0.0262181684 0.0144420248 0.0096306968
0.0185340215 0.0117530767 -0.0032616318
0.0119066406 0.0147168953 -0.0025884942
0.0268296376 0.0096825827 -0.0030554892
-0.0177218504 0.0060811099 0.0008614152
-0.0041177850 0.0163072329 -0.0022230656
0.0369804054 0.0177003574 0.0162603799
0.0373402499 0.0177764054 0.0171974320
0.0369451381 0.0178520475 0.0181657244
0.0370962173 0.0178313088 0.0195088405
0.0169852506 0.0161023866 -0.0034568519
-0.0141019002 0.0150165427 -0.0021652789
0.0008723328 0.0162547659 -0.0024104775
0.0128484275 0.0157614183 -0.0025994317
0.0143893603 0.0154468957 -0.0010751695
0.0162688103 0.0144374948 -0.0035427422
-0.0050937757 0.0163158718 -0.0022183792
-0.0300985277 0.0129741188 0.0110926796
0.0297865923 0.0148772802 -0.0188480075
0.0351430327 0.0176240373 0.0153857935
0.0119037209 0.0136722643 -0.0025385232
0.0128472019 0.0136701148 -0.0025357069
0.0139003936 0.0137702394 -0.0024774508
0.0144815166 0.0140072759 -0.0020746947
0.0159264281 0.0134498756 -0.0026369304
-0.0426132753 0.0187266301 0.0367506742
-0.0421899781 0.0187154915 0.0366725922
-0.0412430540 0.0186956543 0.0365710855
-0.0402154326 0.0187988635 0.0364837795
-0.0391017571 0.0187867414 0.0365206897
-0.0200788788 0.0135974679 -0.0025193156
-0.0191124827 0.0137311835 -0.0025565908
-0.0121199936 0.0166022610 -0.0021684007
-0.0293355174 0.0124603938 0.0005959137
-0.0041196048 0.0165197197 -0.0022230656
-0.0111168809 0.0157360043 -0.0021668361
0.0383820310 0.0180529151 0.0174473170
0.0128678884 0.0023558736 0.0073458492
-0.0031326858 0.0164012332 -0.0022746013
0.0108356867 0.0104963873 -0.0019159229
0.0109616909 0.0157665629 -0.0026119263
-0.0131142437 0.0067990310 0.0006345673
0.0169853624 0.0163095053 -0.0034646601
-0.0121311247 0.0146818515 -0.0020809383
-0.0168214776 0.0136339497 -0.0015936778
0.0405698195 0.0184540357 0.0272551794
0.0079149771 0.0147295203 -0.0026041255
0.0142643470 0.0113842282 -0.0019497559
0.0357799605 0.0178729799 0.0217577759
0.0302071739 0.0145817529 -0.0157244857
0.0029221552 0.0151806977 -0.0024994970
0.0377571546 0.0177153070 0.0230384190
-0.0357656479 0.0160829555 0.0211955402
-0.0348148569 0.0157934558 0.0210081283
0.0297846626 0.0150501486 -0.0188792478
0.0368521735 0.0178576987 0.0151359085
0.0088649821 0.0157717522 -0.0026494027
0.0099145854 0.0157685298 -0.0026369155
-0.0041214563 0.0167322550 -0.0022230656
-0.0031353382 0.0167196076 -0.0022746013
0.0385377333 0.0179006513 0.0186967272
0.0038797206 0.0147546064 -0.0024979101
0.0279121008 0.0120057706 0.0095330942
-0.0203677043 0.0060885828 0.0005282327
0.0367966443 0.0184377562 0.0191027839
0.0169849824 0.0165172946 -0.0034646601
-0.0140938386 0.0157637652 -0.0022083805
-0.0169018134 0.0137725938 -0.0005044253
-0.0050956961 0.0166346375 -0.0022215010
0.0361962058 0.0180534665 0.0207270179
0.0366471708 0.0180052798 0.0201023091
0.0119471429 0.0104414001 -0.0019435124
0.0128949676 0.0104402080 -0.0019341395
0.0368387923 0.0180946421 0.0150109697
0.0380930454 0.0181103293 0.0151359085
0.0362394862 0.0183459874 0.0211330745
-0.0327667072 0.0128925163 0.0104506258
0.0185374580 0.0127865430 -0.0033490942
0.0367895365 0.0183041040 0.0145736728
0.0250071473 0.0112216864 -0.0001381100
-0.0197006613 0.0142897684 -0.0027306364
0.0358565263 0.0181472916 0.0127932671
-0.0051030833 0.0169551056 -0.0022058845
0.0358405076 0.0185341444 0.0172911379
0.0161545966 0.0130993556 -0.0033709616
0.0156618021 0.0125954840 -0.0014447928
0.0366650708 0.0182759818 0.0202584881
0.0058984645 0.0147425625 -0.0025344626
-0.0131187253 0.0150099602 -0.0021176473
0.0403867662 0.0182902049 0.0269115884
-0.0091274232 0.0149697643 -0.0021762089
-0.0081425793 0.0147488248 -0.0021699653
-0.0070492532 0.0147397239 -0.0021762089
0.0291875396 0.0154182073 -0.0186606031
-0.0031214857 0.0147051942 -0.0022683502
-0.0131255239 0.0172569174 -0.0021684007
-0.0131190158 0.0167206954 -0.0021684007
-0.0181092471 0.0147111397 -0.0022751228
0.0370409079 0.0178041626 0.0115438569
0.0411058515 0.0159240905 0.0319092125
0.0119054262 0.0157638695 -0.0026056827
0.0029197803 0.0158124026 -0.0025057332
0.0099108126 0.0167129654 -0.0026369155
-0.0141001865 0.0167278480 -0.0022215010
-0.0001088006 0.0108093116 -0.0018590377
0.0360717289 0.0184704345 0.0195244569
-0.0181724876 0.0067895409 0.0004155873
-0.0101219825 0.0148731526 -0.0021538273
0.0292120818 0.0156244915 -0.0183170121
-0.0000904666 0.0151015576 -0.0023745508
0.0048353970 0.0147493165 -0.0025069774
0.0069629792 0.0148395132 -0.0025869370
0.0088635990 0.0147254001 -0.0026119263
0.0368440673 0.0182178821 0.0195400734
0.0388716757 0.0180784557 0.0193058122
0.0144776385 0.0145352613 -0.0020434619
-0.0152756907 0.0091466624 -0.0010283128
-0.0422234610 0.0197640341 0.0365736932
-0.0410850942 0.0197450574 0.0365424603
-0.0399623662 0.0197284501 0.0365355164
-0.0131310634 0.0174722243 -0.0021605925
0.0109601887 0.0167095531 -0.0026275502
0.0409244224 0.0161490683 0.0321434885
0.0185372643 0.0137192216 -0.0033631460
-0.0184807964 0.0110853780 -0.0020747022
0.0312632993 0.0168975573 -0.0062445984
-0.0001218056 0.0065876786 0.0002718433
-0.0060795341 0.0173886772 -0.0022230656
0.0079116030 0.0167218167 -0.0026388750
0.0148393512 0.0139437113 -0.0013285265
-0.0081468523 0.0174085107 -0.0022371174
0.0059035029 0.0157896634 -0.0025919364
-0.0287537910 0.0144755337 0.0144643504
0.0291372184 0.0158178937 -0.0181296002
-0.0390028581 0.0197144058 0.0365285724
-0.0190144740 0.0146870371 -0.0026681484
-0.0131338201 0.0176868755 -0.0021605925
-0.0181202218 0.0159762520 -0.0023387731
-0.0031484978 0.0174652133 -0.0022496120
0.0346355140 0.0180194285 0.0035788803
0.0128676500 0.0167283993 -0.0026205541
0.0327418000 0.0176776629 -0.0000444041
0.0099081127 0.0173430648 -0.0026369379
0.0109569328 0.0173400547 -0.0026213215
0.0249151941 0.0113584660 0.0008457988
0.0315765254 0.0169094596 -0.0061248601
-0.0002715101 0.0114216581 -0.0019809888
0.0134513061 0.0060918909 -0.0000444041
0.0134178307 0.0058699474 0.0002991795
0.0008769205 0.0158316363 -0.0024182708
-0.0081491806 0.0176219363 -0.0022371174
-0.0248552226 0.0106154140 0.0004428565
0.0322075784 0.0173468199 -0.0036052228
0.0411293656 0.0205189381 0.0303474683
0.0099058310 0.0176588651 -0.0026306794
0.0305924956 0.0168585759 -0.0109142642
0.0109536676 0.0176566709 -0.0026056976
-0.0031530873 0.0177846011 -0.0022433684
0.0348868370 0.0182672907 0.0038287579
0.0186141040 0.0147307832 -0.0033670650
0.0128163490 0.0174522791 -0.0026302324
0.0029091241 0.0166580956 -0.0024794922
0.0337774754 0.0182717387 0.0039224639
0.0336106345 0.0183271859 0.0045159324
0.0351694822 0.0183186214 0.0043597608
-0.0198145509 0.0170115698 -0.0029414729
0.0313928723 0.0173335429 -0.0059166313
-0.0141152479 0.0175875258 -0.0022105710
0.0078994846 0.0174626056 -0.0025848658
0.0146950986 0.0148376431 -0.0013778941
-0.0167293921 0.0165782999 -0.0017935769
-0.0010785440 0.0107758008 -0.0018196241
0.0129164290 0.0096791126 -0.0016714917
0.0297210980 0.0135840867 0.0097759385
0.0408830121 0.0208214056 0.0305973459
0.0099015022 0.0178715046 -0.0026056976
0.0305314716 0.0170931127 -0.0104769748
0.0109527875 0.0178668592 -0.0026056976
-0.0121159591 0.0087159835 -0.0006363899
0.0348606333 0.0184668805 0.0035788803
0.0128449406 0.0178570952 -0.0026306794
-0.0111183487 0.0086933728 -0.0006636889
-0.0170163661 0.0118250754 -0.0005285577
-0.0149943046 0.0130148325 -0.0021879212
0.0365852192 0.0181519445 0.0219451878
0.0179172810 0.0156869721 -0.0034390450
-0.0420103818 0.0204628129 0.0365528464
0.0381970704 0.0178300869 0.0245377142
-0.0141242482 0.0181250479 -0.0022058845
0.0008646103 0.0167847406 -0.0023928941
0.0078895399 0.0178882759 -0.0025354163
0.0088509405 0.0175608229 -0.0026088045
0.0058924276 0.0167391915 -0.0025572688
0.0289191436 0.0137053635 0.0097131506
-0.0191434547 0.0045292191 0.0046165898
-0.0254914053 0.0118771698 0.0008614152
0.0354085863 0.0182174649 0.0108566824
-0.0121173076 0.0157472547 -0.0021496625
0.0403434634 0.0196197201 0.0265367646
-0.0091246367 0.0157141108 -0.0022058771
-0.0081372932 0.0157045443 -0.0022133873
-0.0070452634 0.0156947058 -0.0022158832
-0.0060697347 0.0156873669 -0.0022027628
-0.0011709665 0.0158501063 -0.0023578913
-0.0000924000 0.0158404280 -0.0023870380
0.0018423630 0.0160341728 -0.0024495185
0.0335905030 0.0185311753 0.0042972877
0.0351393148 0.0185163189 0.0040786429
0.0109518906 0.0180770960 -0.0026056976
0.0186126363 0.0156660546 -0.0033592419
-0.0399700701 0.0206300523 0.0365216285
-0.0359567702 0.0161432084 0.0221950728
-0.0169115625 0.0127059650 -0.0005504177
0.0357521847 0.0180351194 0.0189153720
0.0369954221 0.0181418154 0.0186030213
0.0028898979 0.0177192334 -0.0024207742
-0.0141272545 0.0183399934 -0.0022058845
-0.0280091427 0.0129415635 0.0107109118
0.0018325041 0.0166698527 -0.0024232701
0.0260776952 0.0136599746 0.0095675383
0.0078860037 0.0181004610 -0.0025197999
0.0362456664 0.0180296991 0.0237568337
0.0049168877 0.0177017022 -0.0024635554
-0.0256725550 0.0113883875 -0.0007315860
-0.0173984133 0.0185525771 -0.0027150200
0.0038774258 0.0157011095 -0.0025119768
0.0048344396 0.0157997888 -0.0025307075
0.0069361767 0.0160061140 -0.0026391582
0.0079191467 0.0160892364 -0.0026681707
0.0134778023 0.0157591123 -0.0026056902
0.0153578911 0.0153399985 -0.0025432245
-0.0410483554 0.0205903817 0.0365726501
-0.0390169024 0.0205716398 0.0364422500
0.0039594863 0.0177089777 -0.0024520070
-0.0131342039 0.0107495952 -0.0013738708
-0.0201157704 0.0177720841 -0.0031712339
-0.0197450034 0.0172754880 -0.0029805214
-0.0141303129 0.0185549874 -0.0022058845
0.0019235092 0.0177294593 -0.0023854733
0.0078811832 0.0183135550 -0.0024963678
0.0149271451 0.0155460928 -0.0011571632
0.0146937203 0.0158834737 -0.0009189905
-0.0150670484 0.0137119461 -0.0021081627
0.0406125113 0.0200759154 0.0285670478
-0.0330827646 0.0070882533 0.0014705001
-0.0020856203 0.0167354662 -0.0023137094
-0.0121210217 0.0069604907 0.0005586832
0.0186248943 0.0166869070 -0.0033414573
0.0179117508 0.0177697297 -0.0033978210
-0.0131114647 0.0157568511 -0.0021590278
-0.0174467377 0.0187790114 -0.0026056902
-0.0189456381 0.0157855283 -0.0026884512
0.0332274288 0.0181664098 0.0028292327
0.0365270078 0.0184262451 0.0189778451
0.0028776082 0.0184626263 -0.0023870454
0.0039484128 0.0184513871 -0.0024214000
0.0179142691 0.0167280417 -0.0034128116
0.0069112740 0.0063990466 0.0001777201
-0.0070468355 0.0167573448 -0.0022433684
0.0009581784 0.0177385863 -0.0023658038
0.0078788009 0.0185251813 -0.0024885596
0.0147999860 0.0163086336 -0.0009293989
-0.0150700584 0.0147246290 -0.0022045658
-0.0020625328 0.0177703556 -0.0022920952
0.0049058665 0.0184439365 -0.0024299906
0.0058618467 0.0184366945 -0.0024401383
-0.0110824034 0.0068608224 0.0006445288
-0.0173605047 0.0189704429 -0.0028243423
0.0019106402 0.0185790639 -0.0023558051
0.0028700384 0.0187827032 -0.0023620636
0.0039406717 0.0187714864 -0.0023933039
-0.0203526132 0.0185520705 -0.0042924047
-0.0201519616 0.0186015088 -0.0031344728
-0.0198906809 0.0189111661 -0.0029680193
-0.0060720518 0.0168555807 -0.0022308738
0.0009434915 0.0185894165 -0.0023308159
0.0152410120 0.0167087335 -0.0036989287
-0.0383556411 0.0188051146 0.0365320295
0.0289127883 0.0116025228 0.0050781681
-0.0300891213 0.0138310734 0.0110544953
0.0287987199 0.0114435442 0.0073271035
0.0287492853 0.0119805485 0.0096385200
0.0049015284 0.0187621098 -0.0024182857
0.0058559850 0.0187557470 -0.0024182857
-0.0173833519 0.0191903282 -0.0027774856
0.0162745081 0.0137087349 -0.0036052228
0.0088595022 0.0167172831 -0.0026400373
-0.0196681917 0.0184300300 -0.0064788596
-0.0204580538 0.0190642457 -0.0044954256
-0.0203515254 0.0191854890 -0.0033032806
-0.0070614275 0.0177179668 -0.0022277520
0.0009328763 0.0190168526 -0.0022995905
-0.0163040347 0.0156265888 -0.0044798092
-0.0011304931 0.0058610756 0.0007651239
-0.0150666386 0.0157686416 -0.0022886530
0.0038928336 0.0105638392 -0.0019372688
-0.0020829847 0.0187310558 -0.0022464902
0.0287482943 0.0127695668 0.0096719936
-0.0190970413 0.0067775063 0.0005615815
0.0119035747 0.0167069416 -0.0026174025
0.0318519399 0.0167826656 -0.0052815140
0.0291568320 0.0148317050 -0.0193985235
0.0322387069 0.0170671660 -0.0032460154
-0.0121237263 0.0169236083 -0.0021684007
-0.0111245774 0.0166979488 -0.0021742568
-0.0101055130 0.0167736504 -0.0022048489
-0.0091297887 0.0167797450 -0.0022230656
-0.0081401616 0.0167685654 -0.0022371248
-0.0051068868 0.0171684939 -0.0021996410
-0.0041264761 0.0170518365 -0.0022152574
-0.0031414141 0.0170392040 -0.0022621066
-0.0011176949 0.0166673828 -0.0023614899
-0.0000987833 0.0166865718 -0.0023857937
0.0038937873 0.0166706797 -0.0024956153
0.0048486684 0.0167319831 -0.0025152625
0.0069568837 0.0167295691 -0.0026041255
-0.0202836506 0.0191795658 -0.0053856284
-0.0202417374 0.0194068607 -0.0032199831
-0.0383358747 0.0196997952 0.0364591479
-0.0351110026 0.0159795117 0.0293166954
0.0350540355 0.0179791134 0.0043441369
0.0135374796 0.0168947484 -0.0026369379
0.0364489928 0.0187745672 0.0231321324
-0.0121111833 0.0107431449 -0.0014297054
-0.0190083869 0.0167620238 -0.0027815909
0.0028611741 0.0194202159 -0.0023433180
0.0039323010 0.0194084104 -0.0023745582
0.0179079827 0.0187110659 -0.0033600465
-0.0202666521 0.0193845537 -0.0054324851
-0.0202496499 0.0194182005 -0.0043236301
-0.0201212205 0.0196166430 -0.0032460229
0.0009265917 0.0193369072 -0.0022839666
-0.0150470138 0.0116742384 -0.0015382008
-0.0151470937 0.0167478304 -0.0023393692
-0.0328717232 0.0084466822 0.0015329733
-0.0021003985 0.0193740223 -0.0022027628
-0.0194484256 0.0040783118 0.0046971007
-0.0170910209 0.0159791317 -0.0006795139
-0.0091448463 0.0177422184 -0.0022094012
0.0332282409 0.0183880161 0.0028292327
0.0337691419 0.0184866022 0.0038287579
0.0099005243 0.0180818196 -0.0026056976
0.0351610444 0.0187593196 0.0042660548
0.0358165354 0.0184378754 0.0064056753
-0.0202530138 0.0196987297 -0.0044798092
0.0205167141 0.0107038543 -0.0037145452
-0.0001579875 0.0194584820 -0.0022329600
-0.0349638984 0.0156798568 0.0189466048
-0.0348022804 0.0156919118 0.0191964898
-0.0160637833 0.0167691465 -0.0023848102
-0.0021124107 0.0196973588 -0.0021684007
0.0118996557 0.0176522043 -0.0026134909
-0.0261526518 0.0119673889 0.0035398318
0.0170742813 0.0194457453 -0.0033345209
0.0109412409 0.0195537563 -0.0025744424
-0.0051022712 0.0077360198 -0.0004044385
0.0340543315 0.0183348898 0.0022461801
0.0208254457 0.0211442392 0.0095838476
0.0179035459 0.0194473211 -0.0033053816
0.0317386985 0.0174819585 -0.0054402933
-0.0071146544 0.0196512695 -0.0021262378
0.0069365315 0.0176851805 -0.0025119693
-0.0100815110 0.0187016260 -0.0021490664
-0.0030855925 0.0196020287 -0.0021586404
0.0118954731 0.0187032241 -0.0026134909
0.0185964704 0.0187865850 -0.0032928721
0.0319920592 0.0173317846 -0.0048702494
-0.0131423436 0.0180101041 -0.0021488802
-0.0121431239 0.0176766049 -0.0021396638
-0.0111443438 0.0176637229 -0.0021496625
-0.0101639479 0.0177310202 -0.0021802993
-0.0031197218 0.0187199023 -0.0022221939
-0.0081547387 0.0179427918 -0.0022308738
-0.0060885195 0.0178163666 -0.0022074492
-0.0051120874 0.0177008379 -0.0021996410
-0.0041204635 0.0177753549 -0.0021996410
-0.0031560974 0.0181035455 -0.0022433684
0.0199376941 0.0213970933 0.0117625091
0.0185933132 0.0194870364 -0.0032512159
-0.0181220919 0.0166899431 -0.0023617581
-0.0208082162 0.0188818891 -0.0031991662
-0.0199797153 0.0192156527 -0.0029492811
0.0109384153 0.0199759547 -0.0025682137
0.0118909618 0.0196506809 -0.0026095943
0.0128378291 0.0196446013 -0.0026275502
-0.0170069151 0.0147099923 -0.0002422468
0.0098935356 0.0187162142 -0.0025769458
0.0208253041 0.0213803258 0.0095838476
0.0178999770 0.0198708605 -0.0032553882
-0.0081038065 0.0197718684 -0.0021153078
-0.0071314126 0.0201902557 -0.0020934404
-0.0061087646 0.0197666418 -0.0021252693
0.0143762659 0.0158826467 -0.0009398223
-0.0171959810 0.0136893634 -0.0023558126
-0.0100893416 0.0196936931 -0.0020864145
0.0303547364 0.0168017391 -0.0115077328
0.0088432822 0.0180900600 -0.0025744573
-0.0010856797 0.0177584980 -0.0023292587
-0.0001153273 0.0177484695 -0.0023508132
0.0361711904 0.0213727038 0.0155732054
0.0058735404 0.0176942516 -0.0024807365
-0.0206302144 0.0214832481 0.0053592869
-0.0195469297 0.0214317273 0.0050781681
0.0128441919 0.0180671532 -0.0026306794
0.0135170314 0.0176862497 -0.0026369304
0.0222134702 0.0216090661 0.0115282405
-0.0121390782 0.0135753658 -0.0019685016
0.0185127612 0.0201041978 -0.0030429871
-0.0121150725 0.0116816536 -0.0016731159
0.0366539434 0.0178815667 0.0083110128
0.0208244752 0.0216202270 0.0096150804
0.0178982336 0.0200828966 -0.0032303990
0.0069175772 0.0187474769 -0.0024345131
0.0409814939 0.0201396290 0.0292542297
-0.0021287554 0.0203413125 -0.0021309243
0.0048935153 0.0190826226 -0.0023870454
0.0355687067 0.0188072976 0.0058902814
0.0222141035 0.0218418259 0.0114657748
-0.0070845224 0.0186825674 -0.0021871463
-0.0000738834 0.0203158949 -0.0021684007
0.0018760937 0.0202865396 -0.0022621066
-0.0031032579 0.0201404784 -0.0021137432
0.0259784032 0.0120894760 0.0094550047
-0.0210991204 0.0217530821 0.0056013628
-0.0188434273 0.0217293408 0.0057341098
-0.0192792639 0.0202977229 -0.0064476267
-0.0174002163 0.0167420413 -0.0025536329
-0.0198262893 0.0197573584 -0.0028907196
-0.0201401561 0.0199515801 -0.0035472126
-0.0200816467 0.0199434217 -0.0047921599
-0.0201559514 0.0198451113 -0.0053700120
-0.0120807216 0.0127660651 -0.0018654303
-0.0168666132 0.0156537574 -0.0011376427
0.0109349769 0.0201890524 -0.0025494681
0.0178941190 0.0203004349 -0.0031616748
-0.0101169795 0.0204515662 -0.0020356537
0.0039352924 0.0190905500 -0.0023776726
0.0287247282 0.0118570924 0.0131680910
-0.0021390540 0.0205585007 -0.0020996914
-0.0010503547 0.0204359088 -0.0021371678
-0.0181984343 0.0084343366 -0.0006205128
-0.0181230083 0.0137471873 -0.0022292272
-0.0189605653 0.0176765006 -0.0028370977
0.0134690888 0.0197448600 -0.0026494251
0.0156471469 0.0186485332 -0.0049639554
0.0205585118 0.0100580510 -0.0051357509
0.0412396118 0.0208762269 0.0311595816
-0.0227685086 0.0219698753 0.0052031069
-0.0219992101 0.0219797064 0.0054061427
-0.0230757743 0.0228607077 0.0125642065
-0.0181055441 0.0177249219 -0.0024821595
-0.0174108781 0.0176997613 -0.0026525469
-0.0199785829 0.0206280556 -0.0028399588
-0.0167761259 0.0196888614 -0.0040112794
0.0154858883 0.0166677963 -0.0041674585
0.0369476900 0.0185215157 0.0216484535
-0.0281697027 0.0137977544 0.0113321561
-0.0060565416 0.0206095111 -0.0020559565
-0.0050800089 0.0205989908 -0.0020434619
0.0170353409 0.0178045165 -0.0034343586
0.0171961151 0.0204485673 -0.0031054527
0.0222145747 0.0223164577 0.0114189181
0.0398594737 0.0184036884 0.0249437708
-0.0230973214 0.0231146123 0.0126058627
-0.0201879553 0.0205673520 -0.0033943863
-0.0198764242 0.0204199906 -0.0046047480
-0.0196886696 0.0206822436 -0.0050420449
0.0186959989 0.0201675799 -0.0025119917
-0.0171629600 0.0163420420 -0.0007003457
0.0109265363 0.0206172597 -0.0024994821
-0.0170752108 0.0108365212 -0.0005486370
0.0143733528 0.0163105149 -0.0009189905
-0.0011876056 0.0070812572 -0.0001113401
-0.0111108311 0.0078537297 -0.0002198131
-0.0212239772 0.0186335836 -0.0025119917
-0.0190074220 0.0188102666 -0.0028229640
0.0205593593 0.0102606993 -0.0051669837
-0.0011125335 0.0187212359 -0.0022542984
-0.0001373661 0.0187086929 -0.0022917748
0.0089164386 0.0197936911 -0.0024151490
0.0178952701 0.0210608337 -0.0013016299
0.0177860167 0.0206297990 -0.0024807588
0.0184692517 0.0204205606 -0.0021684007
-0.0011311506 0.0114250183 -0.0019809888
0.0098564709 0.0207433570 -0.0023823516
-0.0079373978 0.0212831628 -0.0020122291
-0.0070563629 0.0212690774 -0.0020278455
-0.0061869156 0.0212594513 -0.0020122291
-0.0168925710 0.0108273979 -0.0034698681
0.0068960954 0.0206565987 -0.0023795427
-0.0166576914 0.0160100367 -0.0036208392
-0.0174003504 0.0156967547 -0.0025432245
-0.0191364363 0.0204149988 -0.0026806653
-0.0197179355 0.0198367704 -0.0069161565
-0.0191845782 0.0200543758 -0.0076267556
0.0365641862 0.0185341444 0.0065774559
0.0365572162 0.0183880124 0.0074832751
0.0367125720 0.0176565964 0.0097946841
0.0058533326 0.0190730486 -0.0024151490
0.0078702979 0.0189512502 -0.0024495036
0.0088313818 0.0187281091 -0.0025157169
0.0109484587 0.0187086966 -0.0026006834
0.0128418561 0.0186976735 -0.0026306645
0.0134741925 0.0186920371 -0.0026619122
-0.0382937193 0.0202903878 0.0363446176
0.0312500596 0.0170839038 -0.0064163939
0.0347092487 0.0177144613 0.0134804416
-0.0010903326 0.0197145436 -0.0021840245
-0.0000643858 0.0199933890 -0.0021957294
-0.0174566582 0.0117155127 -0.0023245797
-0.0181284733 0.0204046350 -0.0025085197
-0.0191599242 0.0200934913 -0.0081655663
-0.0157512128 0.0150708351 -0.0021371678
-0.0162369758 0.0151659530 -0.0018560500
0.0361417234 0.0178866033 0.0253810603
-0.0171684735 0.0068441909 -0.0005246536
-0.0194816217 0.0179052930 -0.0030898512
-0.0231840163 0.0235791039 0.0126147810
-0.0181125887 0.0187730622 -0.0025640414
0.0236473083 0.0232988354 0.0115750972
-0.0193986520 0.0199359860 -0.0069005401
0.0178628359 0.0214174334 -0.0026369304
0.0407457799 0.0197068546 0.0275050569
-0.0051312987 0.0186632331 -0.0021671490
0.0289765578 0.0156624708 -0.0178797152
-0.0201902166 0.0219558608 0.0081184004
0.0294125061 0.0153730642 -0.0191915985
-0.0110786557 0.0187560897 -0.0021137432
-0.0051401723 0.0197184961 -0.0021137432
0.0228403471 0.0219404120 0.0115360636
0.0235272180 0.0220956113 0.0115750972
0.0219766069 0.0232705604 0.0113642607
-0.0194634944 0.0184079390 -0.0030638115
0.0128281098 0.0207040180 -0.0025775717
-0.0234396532 0.0241363514 0.0127620343
0.0236474872 0.0235417802 0.0115907136
0.0098429052 0.0214929599 -0.0023141638
0.0170476530 0.0186854359 -0.0033913986
-0.0141428923 0.0189869832 -0.0021892325
-0.0176515691 0.0220997054 0.0032665222
-0.0208743140 0.0219804812 0.0075561567
0.0079402821 0.0215040613 -0.0023224936
0.0406952500 0.0188036729 0.0281922389
-0.0190968998 0.0197604019 -0.0027446733
0.0088999234 0.0207542162 -0.0023401887
0.0237672925 0.0237863641 0.0116167460
0.0171108264 0.0199539792 -0.0032741339
0.0222145915 0.0220762957 0.0114189181
0.0128872413 0.0215435009 -0.0024697171
0.0229303557 0.0235327724 0.0115256552
-0.0141246617 0.0197219756 -0.0021354319
0.0049363170 0.0216564778 -0.0022719712
-0.0120855123 0.0187319946 -0.0021029622
-0.0031109357 0.0207669120 -0.0020467476
-0.0172538832 0.0224920567 0.0028292327
0.0339700058 0.0184728336 0.0014132424
-0.0172459260 0.0218377765 0.0024335920
0.0156798363 0.0139115546 -0.0012469650
-0.0121282488 0.0078233369 -0.0001671300
0.0058459695 0.0197093617 -0.0023979680
0.0069055632 0.0197022278 -0.0023979680
0.0079640634 0.0196952093 -0.0024010898
0.0185670257 0.0226834137 0.0083838943
-0.0132009313 0.0205269139 -0.0020288886
-0.0241035819 0.0237818342 0.0128128100
0.0237674695 0.0240288917 0.0116271544
-0.0189455524 0.0203797128 -0.0074471519
0.0129069556 0.0221019443 -0.0023870529
0.0135205481 0.0216937717 -0.0024534226
-0.0163057558 0.0157068428 -0.0018404336
-0.0251563787 0.0237880852 0.0128973965
0.0213846806 0.0239519309 0.0110753346
0.0219759680 0.0237571802 0.0114059094
0.0229304619 0.0240147915 0.0115282405
-0.0168728866 0.0190314371 -0.0031991662
0.0172907319 0.0211016592 -0.0018248097
0.0187144130 0.0209254380 -0.0006691129
0.0186056122 0.0206719842 -0.0014999718
0.0236071553 0.0227739494 0.0115490723
-0.0041039512 0.0206945594 -0.0020419047
-0.0120872930 0.0197239015 -0.0020629824
0.0201179013 0.0218641739 0.0096749533
0.0201321002 0.0214146655 0.0105443392
-0.0028199905 0.0214317571 -0.0020122291
-0.0021588707 0.0219368692 -0.0019770921
0.0294912215 0.0147863310 -0.0191802438
-0.0158085302 0.0158332158 -0.0022516907
0.0098750340 0.0197808240 -0.0024807365
0.0118863238 0.0201795977 -0.0025900737
0.0128333606 0.0201735590 -0.0026056976
-0.0213475190 0.0228258315 0.0095291901
-0.0202692635 0.0231440421 0.0093261618
-0.0152506381 0.0137934443 -0.0018560500
-0.0283332802 0.0145857539 0.0114412252
-0.0232412964 0.0244259592 0.0124705005
-0.0181456469 0.0197608117 -0.0025900663
-0.0174185224 0.0197813157 -0.0028805644
-0.0252013281 0.0231232177 0.0123559702
-0.0239307992 0.0231079143 0.0124262590
0.0213966351 0.0231453199 0.0104193930
-0.0011081619 0.0077312104 -0.0006066398
0.0129026677 0.0223180708 -0.0023558126
0.0135345440 0.0223151501 -0.0023558126
-0.0165010877 0.0163596477 -0.0017935769
-0.0257936642 0.0248472597 0.0130509604
-0.0253900848 0.0248356294 0.0130275358
0.0199510176 0.0242150482 0.0112315062
0.0213834681 0.0242007505 0.0111378003
0.0369847044 0.0175761785 0.0106295217
-0.0151695721 0.0176939312 -0.0023745433
-0.0020487381 0.0215398613 -0.0020261095
0.0009126368 0.0198725332 -0.0022433684
-0.0061251614 0.0225604419 -0.0019122870
-0.0250169635 0.0246564467 0.0129494388
-0.0241341442 0.0247013997 0.0128653590
-0.0241189972 0.0229767095 0.0113252122
0.0119514987 0.0224314574 -0.0023370669
0.0128983688 0.0225343984 -0.0023245797
0.0135305095 0.0225314368 -0.0023245797
-0.0256806761 0.0252241809 0.0130743850
0.0200704262 0.0244531017 0.0112158824
0.0213816985 0.0244543832 0.0112315062
0.0219751261 0.0243667942 0.0114618707
0.0370123833 0.0191216338 0.0102632139
-0.0168913454 0.0196006391 -0.0035427571
-0.0226776861 0.0189218279 0.0002054735
0.0178559292 0.0215055477 -0.0015671239
-0.0151477903 0.0187402312 -0.0023693875
-0.0130694136 0.0187814813 -0.0021241517
-0.0250186175 0.0252079647 0.0130587686
-0.0243968144 0.0252057668 0.0131368581
0.0170981251 0.0208536219 -0.0026681633
0.0411119908 0.0167367961 0.0324749351
0.0176561363 0.0235775616 0.0050781681
0.0088868979 0.0217139143 -0.0022917748
-0.0146767125 0.0223202650 -0.0015124665
-0.0100207068 0.0208829436 -0.0020122291
-0.0090942085 0.0207038950 -0.0020250888
-0.0090620555 0.0217373725 -0.0019513206
-0.0001008955 0.0224490371 -0.0020235837
-0.0204914473 0.0236906316 0.0079622213
0.0200960226 0.0231399965 0.0103725363
-0.0217524320 0.0228375960 0.0105443317
-0.0215439796 0.0230115522 0.0100133363
0.0108905723 0.0225493181 -0.0022954256
0.0119448099 0.0227557998 -0.0022933469
0.0128940567 0.0227509197 -0.0022933469
0.0135264639 0.0227479246 -0.0022933469
-0.0256241970 0.0244584996 0.0129806791
0.0200622398 0.0247321781 0.0114813913
0.0213810392 0.0246994030 0.0112627391
0.0219747182 0.0247321781 0.0114891995
-0.0230056383 0.0248041358 0.0113408286
-0.0164659321 0.0194490310 -0.0042195157
0.0178081784 0.0217423011 -0.0024182857
-0.0159946755 0.0187160429 -0.0026780129
-0.0258774236 0.0254015159 0.0131160263
-0.0250438787 0.0254657548 0.0131056178
-0.0244152658 0.0254611988 0.0131680910
-0.0240763798 0.0254276711 0.0129806791
0.0350438245 0.0177897308 0.0143862609
0.0238552950 0.0245467480 0.0117199142
0.0300966296 0.0146571603 -0.0171300750
-0.0219412036 0.0221025217 0.0064369007
-0.0081105158 0.0077044498 -0.0002942965
-0.0139398798 0.0226787124 -0.0017760308
-0.0131051317 0.0226817895 -0.0018420056
-0.0168421604 0.0207922440 0.0009395047
-0.0173314288 0.0208762530 0.0015954389
-0.0081129782 0.0218181517 -0.0019669370
-0.0176000036 0.0110742263 -0.0022933469
0.0008597209 0.0225477200 -0.0020253793
0.0200926773 0.0236707572 0.0104766432
0.0202348027 0.0237528998 0.0096385125
0.0212767255 0.0237528291 0.0105052833
-0.0228503495 0.0240187887 0.0119499136
-0.0051170550 0.0084529314 -0.0008650334
-0.0219592229 0.0236340296 0.0103881527
-0.0010578928 0.0082504861 -0.0009127469
-0.0240431800 0.0256638806 0.0128869731
-0.0235462114 0.0253241267 0.0123247374
-0.0230129138 0.0253739934 0.0110128615
-0.0257320479 0.0257405061 0.0131680910
0.0238889549 0.0250302386 0.0118718315
-0.0311425589 0.0147497486 0.0112483371
0.0128905773 0.0229664985 -0.0022699148
0.0135224052 0.0229646135 -0.0022621066
-0.0205921791 0.0218447726 0.0064525171
0.0156961121 0.0151322614 -0.0014916421
0.0186374150 0.0237148050 0.0085062329
0.0109204194 0.0210436340 -0.0024682567
0.0118800066 0.0207109358 -0.0025568740
-0.0217151754 0.0239534806 0.0097634513
0.0135639925 0.0206998494 -0.0025861696
-0.0203208029 0.0237867627 0.0093687419
-0.0217583142 0.0254165959 0.0097946841
-0.0211542062 0.0253222790 0.0092324466
-0.0171710886 0.0202594604 -0.0027931021
-0.0076115113 0.0214933846 -0.0020122291
-0.0070934482 0.0219409447 -0.0019696341
0.0021145532 0.0233012084 -0.0020122291
0.0028649571 0.0232934039 -0.0020122291
0.0207682680 0.0236401875 0.0096260402
-0.0241277255 0.0258977767 0.0127620343
-0.0159617849 0.0197346564 -0.0025002719
-0.0150775835 0.0197727550 -0.0022430182
0.0409595408 0.0190189015 0.0291292835
0.0118706655 0.0057537537 0.0006490364
0.0175072569 0.0223980825 -0.0001381100
-0.0070971586 0.0227157753 -0.0018983246
0.0128886793 0.0231798980 -0.0022621066
0.0135214236 0.0231768247 -0.0022621066
-0.0155659467 0.0142996479 -0.0018248172
-0.0213234313 0.0216140654 0.0043909936
-0.0202046596 0.0214007329 0.0047137602
0.0008882808 0.0207321811 -0.0021708966
-0.0242821909 0.0087513197 0.0008614152
-0.0140940398 0.0235979054 -0.0016347975
-0.0131182782 0.0235816631 -0.0017335252
-0.0349721014 0.0272432696 0.0184780750
0.0172396395 0.0236038994 0.0044690832
0.0155432168 0.0138631631 -0.0008487166
-0.0223678797 0.0247433390 0.0104631186
-0.0243542753 0.0261849444 0.0129806791
-0.0358923525 0.0270819273 0.0171974320
0.0229304004 0.0246256646 0.0115848724
-0.0204081573 0.0255025979 0.0089200977
-0.0121032707 0.0204626974 -0.0020207451
0.0348581932 0.0186871346 0.0035476401
0.0237692613 0.0252791662 0.0119186807
0.0238899477 0.0254833493 0.0120670516
0.0119398506 0.0230782833 -0.0022652284
-0.0000865886 0.0208524000 -0.0021371678
0.0088718366 0.0227829684 -0.0022371174
-0.0352418050 0.0273822825 0.0175722558
-0.0130766965 0.0240064617 -0.0016811327
-0.0157569014 0.0206286740 -0.0012625814
-0.0149912573 0.0217312183 -0.0016800077
0.0173053388 0.0238851104 0.0033133789
0.0175913740 0.0238258522 0.0045971586
0.0018870516 0.0197522808 -0.0022913874
-0.0250096321 0.0259192716 0.0131243784
-0.0244597048 0.0257263426 0.0132617969
0.0231687818 0.0258137789 0.0122466553
0.0228818040 0.0254555922 0.0118062291
-0.0353791937 0.0272597093 0.0167132933
0.0248893760 0.0216915216 0.0153779853
-0.0202575289 0.0257289615 0.0088420082
0.0205262229 0.0247101914 0.0097009782
0.0204548705 0.0246623736 0.0101851244
-0.0120680965 0.0217774864 -0.0019244761
0.0175117422 0.0239260662 0.0035944893
0.0237707943 0.0258277226 0.0123351607
-0.0060422737 0.0218060929 -0.0019629137
-0.0350218639 0.0276561212 0.0176815856
0.0345499367 0.0181656089 0.0027667596
-0.0132087879 0.0242331345 -0.0016374053
-0.0208685212 0.0257467907 0.0088749770
0.0219743382 0.0250571538 0.0115126316
-0.0350897536 0.0274662580 0.0163957272
-0.0354770198 0.0271138083 0.0174941737
0.0355336033 0.0187913235 0.0335959196
0.0276570227 0.0047029890 -0.0031242059
0.0135153010 0.0236079153 -0.0022204653
-0.0061056130 0.0186723080 -0.0021808953
-0.0131157562 0.0216718074 -0.0019341470
0.0175077654 0.0244950484 0.0036413460
0.0176686067 0.0246723127 0.0047970503
0.0128824320 0.0236106720 -0.0022230656
-0.0222380422 0.0253967624 0.0101486836
0.0237714034 0.0260953289 0.0124913249
0.0229302682 0.0226873774 0.0115009341
-0.0051221456 0.0216835234 -0.0019435124
-0.0041439347 0.0216715652 -0.0019397647
-0.0031129417 0.0217696037 -0.0019546957
0.0208242852 0.0219751541 0.0096189845
-0.0221383162 0.0262955595 0.0091231335
-0.0060981344 0.0237416346 -0.0018009455
0.0340843573 0.0181430969 0.0025481149
-0.0212949030 0.0262433048 0.0089044888
0.0221271105 0.0255404990 0.0115929488
-0.0357151553 0.0273378622 0.0154170264
-0.0352385491 0.0275196861 0.0154839549
0.0018921758 0.0208424460 -0.0022143410
-0.0230657905 0.0257146414 0.0108098257
-0.0357797518 0.0275331493 0.0149797369
-0.0130800158 0.0197361242 -0.0020825104
-0.0281188302 0.0131217036 0.0111378003
-0.0253695063 0.0262418333 0.0132149477
-0.0347130783 0.0277272146 0.0164634082
-0.0355576575 0.0271934476 0.0162291396
0.0176424067 0.0252011027 0.0052655800
0.0128769558 0.0240407269 -0.0021918253
-0.0020514873 0.0242463145 -0.0017685951
0.0068814140 0.0217218343 -0.0023370669
-0.0161165409 0.0176927242 -0.0025260211
-0.0344882049 0.0294020046 0.0256934185
0.0202292409 0.0249618199 0.0097946841
0.0119477175 0.0216960665 -0.0024247826
-0.0218454003 0.0248419251 0.0097270105
-0.0212016776 0.0250052009 0.0092636887
-0.0202848241 0.0247741695 0.0094136167
-0.0060979985 0.0244194847 -0.0017272071
0.0345242396 0.0183629375 0.0025168820
-0.0217421725 0.0263762567 0.0086598042
-0.0211437307 0.0264694598 0.0088263918
-0.0348022431 0.0278439056 0.0155029316
-0.0051190034 0.0244076867 -0.0017061220
-0.0356726944 0.0277123544 0.0144799668
-0.0353095755 0.0277591553 0.0148547906
-0.0090755820 0.0187246520 -0.0021775127
0.0231682248 0.0261055660 0.0125590060
-0.0346575305 0.0278815795 0.0174941663
-0.0344045348 0.0279679354 0.0163853187
-0.0149488114 0.0205365513 -0.0020929188
-0.0141162686 0.0205964800 -0.0020497129
0.0407539196 0.0204508323 0.0296290535
-0.0352356583 0.0272025671 0.0181501079
0.0008588082 0.0217026975 -0.0020825104
0.0176167283 0.0255046505 0.0057341098
-0.0220090039 0.0258053523 0.0092668105
-0.0213388950 0.0257171001 0.0091491584
-0.0090993084 0.0227167886 -0.0018833936
0.0049455892 0.0221773740 -0.0022246228
-0.0020575782 0.0244636443 -0.0017561004
-0.0340517536 0.0295683872 0.0250374693
-0.0202905051 0.0226882305 0.0079205800
-0.0220442861 0.0267215874 0.0087639261
-0.0211451314 0.0267093945 0.0088159833
-0.0346984453 0.0280652177 0.0152764712
-0.0344917774 0.0281247701 0.0156981442
-0.0051381849 0.0247399192 -0.0016561435
-0.0343831927 0.0281750504 0.0160417277
0.0178020690 0.0224668738 0.0003616526
-0.0021189672 0.0200184863 -0.0021559061
-0.0090977252 0.0237324368 -0.0017850758
-0.0202504769 0.0218468215 0.0078581069
0.0089549534 0.0237563793 -0.0021262378
-0.0344223715 0.0283138435 0.0152608473
0.0327024572 0.0178516638 -0.0004817010
-0.0194264576 0.0231724251 0.0077956333
-0.0346044078 0.0282454547 0.0147923250
0.0068513993 0.0105039328 -0.0019315393
-0.0110888854 0.0197092909 -0.0020684511
-0.0090953968 0.0197861064 -0.0021021874
-0.0218437798 0.0269437153 0.0086702127
-0.0211424157 0.0269476157 0.0087951589
0.0135081038 0.0240412112 -0.0021684007
-0.0163393691 0.0215091947 0.0005022078
-0.0021528618 0.0209900569 -0.0020642937
0.0068595819 0.0226898100 -0.0022496120
-0.0360304266 0.0282586347 0.0129806791
0.0129105281 0.0244898591 -0.0021467791
-0.0354748666 0.0282392260 0.0129650626
0.0098269628 0.0227740426 -0.0022546113
-0.0081019960 0.0226983447 -0.0019044713
-0.0061487276 0.0231062490 -0.0018591867
-0.0050710868 0.0227865931 -0.0018560649
-0.0041010790 0.0227367189 -0.0018441663
-0.0030911320 0.0227407161 -0.0018673078
-0.0021033657 0.0227216985 -0.0019138441
-0.0220033191 0.0272496510 0.0090450440
0.0185656752 0.0265327673 0.0082537476
0.0018912239 0.0226790402 -0.0020320998
-0.0080915801 0.0186731126 -0.0021936954
-0.0349497721 0.0275576878 0.0182177816
-0.0060694292 0.0210411828 -0.0020309673
-0.0126380213 0.0242173504 -0.0016686381
-0.0218239389 0.0271747392 0.0086077470
-0.0210229196 0.0271865483 0.0087951589
-0.0201265514 0.0267596077 0.0087673981
-0.0031297745 0.0246787611 -0.0016768039
0.0039057659 0.0206903722 -0.0022908435
-0.0011621879 0.0227759611 -0.0019542188
-0.0000791156 0.0229808036 -0.0019753114
0.0009285959 0.0231047738 -0.0019809888
0.0016808512 0.0230965707 -0.0019809888
0.0201187823 0.0225674789 0.0096228886
0.0208239462 0.0226840731 0.0096151102
-0.0226374716 0.0225719009 0.0102319811
0.0204684567 0.0254129600 0.0096385125
-0.0210192651 0.0274243411 0.0087717343
0.0394206420 0.0254545305 0.0008614152
0.0408316180 0.0257792827 0.0027355268
0.0078643728 0.0237166937 -0.0021229745
0.0200971793 0.0271724742 0.0102007482
-0.0361222848 0.0284998100 0.0128765572
-0.0121492706 0.0209910180 -0.0019775243
-0.0101622492 0.0210129078 -0.0019720704
0.0088796122 0.0246188473 -0.0020352439
0.0098923966 0.0246153455 -0.0020454214
-0.0212375000 0.0212254170 0.0011112927
0.0173316281 0.0230423417 0.0028917058
-0.0130032264 0.0209969115 -0.0019809888
-0.0111025758 0.0205176082 -0.0020250888
0.0176430065 0.0230945181 0.0032665296
-0.0064081308 0.0214768890 -0.0020122291
-0.0131097361 0.0247694831 -0.0015667290
-0.0231977254 0.0222367216 0.0073583364
-0.0232706442 0.0226399358 0.0087014530
0.0129652470 0.0250178631 -0.0020747022
-0.0349954143 0.0280222502 0.0143914688
-0.0210314132 0.0276689809 0.0087873507
-0.0071351975 0.0255353954 -0.0016249032
-0.0100629255 0.0217558164 -0.0019260258
0.0365902036 0.0185316335 0.0172286723
-0.0340456329 0.0292200726 0.0193839017
-0.0141235106 0.0256045442 -0.0013646246
-0.0100896023 0.0247136038 -0.0016647414
-0.0090816505 0.0246899966 -0.0016998858
0.0058986265 0.0227014441 -0.0022230656
0.0173812080 0.0266695041 0.0058278157
-0.0211783350 0.0279209148 0.0088263918
-0.0060802978 0.0256475415 -0.0015883283
0.0185297187 0.0269496944 0.0081704576
0.0098799206 0.0251599532 -0.0019809888
0.0200949255 0.0275422242 0.0102632213
0.0135920141 0.0253451299 -0.0020122291
-0.0101348087 0.0255976152 -0.0015788511
0.0118019553 0.0255141277 -0.0019765333
0.0129525289 0.0255675744 -0.0019809888
0.0135878492 0.0255640950 -0.0019809888
-0.0214255676 0.0214248504 0.0018140837
-0.0340650789 0.0290002991 0.0188372899
-0.0111663491 0.0210383441 -0.0019809962
0.0109065082 0.0216893721 -0.0023845420
0.0029330535 0.0247028228 -0.0018935413
0.0595514029 0.0324606970 0.0398429632
0.0170110855 0.0169159416 -0.0034433738
-0.0011057646 0.0255343858 -0.0017180950
0.0399745181 0.0258207750 0.0014062910
-0.0338425152 0.0299376454 0.0226167459
-0.0081077255 0.0236543920 -0.0018126057
-0.0071008820 0.0237169396 -0.0018035308
0.0174171682 0.0267860051 0.0051718741
-0.0332186520 0.0312201362 0.0250374693
-0.0211592279 0.0281519312 0.0087639261
-0.0257354490 0.0238331314 0.0129650626
0.0410307944 0.0264222156 0.0025481149
0.0079306178 0.0251752418 -0.0019809813
0.0091013080 0.0250945296 -0.0019809962
0.0200949777 0.0278987940 0.0102475975
-0.0111080036 0.0217425730 -0.0019270466
-0.0041129123 0.0187522676 -0.0021799044
-0.0093729571 0.0210925024 -0.0019809813
-0.0342097990 0.0294971298 0.0194151346
-0.0222074278 0.0221006963 0.0044534667
0.0172945578 0.0242470484 0.0034851744
0.0172404032 0.0247269925 0.0044066100
0.0039000085 0.0246909764 -0.0019029141
-0.0011276824 0.0259773936 -0.0016530217
-0.0001241637 0.0256227758 -0.0017545507
0.0009119792 0.0256301705 -0.0017727748
0.0185315441 0.0177734327 -0.0033490942
0.0049049184 0.0236910265 -0.0020771981
0.0118880365 0.0257931482 -0.0019497559
0.0129569732 0.0253485646 -0.0020122291
-0.0339992121 0.0295262169 0.0233695079
-0.0050883740 0.0237488579 -0.0017795400
-0.0041123759 0.0237380099 -0.0017584623
-0.0031309535 0.0237233918 -0.0017654882
-0.0021409092 0.0237027127 -0.0018150718
-0.0011230668 0.0237297397 -0.0018730969
-0.0000601911 0.0237668063 -0.0019285218
0.0009160193 0.0237508845 -0.0019575641
0.0018662217 0.0237761158 -0.0019660578
0.0028936195 0.0238788482 -0.0019662962
0.0038490857 0.0240730401 -0.0019757883
-0.0338300355 0.0313843414 0.0250843335
-0.0358871296 0.0291618537 0.0107942168
-0.0351516455 0.0291179698 0.0106770862
-0.0344051085 0.0291134957 0.0107942093
-0.0226470232 0.0287371036 0.0105443317
0.0405138955 0.0265647229 0.0021108254
-0.0001102292 0.0217138585 -0.0020747022
-0.0168636031 0.0214244407 0.0015642061
-0.0081406385 0.0207459126 -0.0020395578
-0.0071480442 0.0207299199 -0.0020622001
0.0108824987 0.0230857413 -0.0022558556
-0.0228601880 0.0259551909 0.0099820960
0.0048247408 0.0257042404 -0.0018040077
-0.0334379300 0.0314193442 0.0250791330
-0.0186742283 0.0276621561 0.0062338724
-0.0091312602 0.0256836060 -0.0016024397
0.0058947578 0.0236981642 -0.0021044449
0.0175676476 0.0266851876 0.0066008805
-0.0356959403 0.0271559786 0.0159480292
0.0129461493 0.0258959588 -0.0019372688
-0.0030993500 0.0256947186 -0.0015788511
-0.0358669758 0.0293590557 0.0104818661
-0.0350957215 0.0293014105 0.0102944542
-0.0341229513 0.0293025989 0.0104880948
-0.0334915742 0.0293399226 0.0108254496
0.0406781733 0.0260083359 0.0014548837
-0.0341840610 0.0284972843 0.0142925624
-0.0225894824 0.0289547201 0.0103881527
0.0079495395 0.0206536967 -0.0023458139
-0.0188858695 0.0254489239 -0.0002630563
-0.0178310052 0.0270436238 0.0040786429
-0.0011491233 0.0264208820 -0.0015905560
-0.0001589560 0.0263964068 -0.0016498999
0.0009313470 0.0263750833 -0.0016873763
0.0019055048 0.0263603609 -0.0016998709
-0.0060746688 0.0260765497 -0.0015249536
0.0067524761 0.0250999089 -0.0019809888
0.0402238145 0.0267307144 0.0030791177
0.0099145975 0.0237434227 -0.0021664486
-0.0358955413 0.0295728836 0.0102632139
-0.0351128504 0.0295101013 0.0100523774
-0.0341063216 0.0294982027 0.0101773236
-0.0335146375 0.0295045134 0.0103256870
-0.0060981866 0.0265208986 -0.0014708326
-0.0101079568 0.0236938465 -0.0017718659
-0.0339781269 0.0297614541 0.0204799566
-0.0357794091 0.0279208701 0.0133164544
-0.0010505558 0.0266408268 -0.0015624375
-0.0000583136 0.0266146827 -0.0016295970
0.0068493169 0.0236484315 -0.0021267594
0.0392482542 0.0258004759 0.0005740537
0.0009215085 0.0265966337 -0.0016561435
0.0018960985 0.0265817512 -0.0016686381
0.0060406234 0.0244576242 -0.0020247237
0.0181389451 0.0277249571 0.0065878569
0.0069626337 0.0246346723 -0.0020247237
0.0049322918 0.0227162633 -0.0021777735
0.0177365411 0.0277631711 0.0055154576
-0.0360480770 0.0298310574 0.0102788378
-0.0355203003 0.0297720712 0.0100445691
-0.0336630195 0.0297150929 0.0100758020
-0.0334441997 0.0297242980 0.0101695079
-0.0061212108 0.0269655567 -0.0014187680
-0.0204121023 0.0282269064 0.0038599982
-0.0347663797 0.0299700107 0.0205708388
-0.0010582374 0.0268607829 -0.0015436993
0.0394415297 0.0261316504 0.0009551211
0.0179120228 0.0270928014 0.0043285205
-0.0070899110 0.0266465377 -0.0014753924
-0.0208780132 0.0246227216 0.0087639261
-0.0204676092 0.0244674515 0.0087451730
0.0393246636 0.0264656264 0.0016110553
0.0399655923 0.0265718941 0.0023971437
-0.0080886334 0.0247803796 -0.0017045722
-0.0070960000 0.0247626211 -0.0017111436
-0.0061255135 0.0249706563 -0.0016634301
-0.0051548686 0.0250711273 -0.0016155303
-0.0041067731 0.0247546565 -0.0016516210
-0.0170134492 0.0264961142 0.0022904216
-0.0020778140 0.0249039512 -0.0016998784
-0.0011011974 0.0247086342 -0.0017901273
-0.0207218938 0.0282870438 0.0028604656
0.0177513342 0.0279384758 0.0052187308
-0.0360244066 0.0300696027 0.0102163646
-0.0201763846 0.0261402708 0.0088397805
-0.0339833759 0.0305315834 0.0205083657
-0.0070428122 0.0215284545 -0.0020122291
-0.0332691297 0.0324260294 0.0247407425
-0.0332980342 0.0318864733 0.0248422492
0.0175657514 0.0267669689 0.0024856417
0.0176176112 0.0270679053 0.0035476401
-0.0071219560 0.0272044372 -0.0014031366
0.0078615099 0.0246820468 -0.0020292611
0.0185283329 0.0273049604 0.0081860740
0.0395848900 0.0265117791 0.0018609404
-0.0000898966 0.0247451421 -0.0018529356
0.0008879008 0.0247280728 -0.0018833936
0.0018588121 0.0247149300 -0.0018935413
