# .PCD v0.7 - Point Cloud Data file format
VERSION 0.7
FIELDS x y z
SIZE 4 4 4
TYPE F F F
COUNT 1 1 1
WIDTH 1191
HEIGHT 1
VIEWPOINT 0 0 0 1 0 0 0
POINTS 1191
DATA ascii
-0.0147097446 0.0298207290 -0.0046144230
0.0196483973 0.0275622718 0.0005159576
-0.0022048261 0.0299474224 -0.0006506618
-0.0109669380 0.0304904319 -0.0000618945
-0.0460972376 0.0395662412 0.0406063609
-0.0162368864 0.0285038836 0.0025514562
-0.0012213943 0.0268239491 -0.0011055272
0.0179544706 0.0278962068 -0.0042647598
0.0186991766 0.0278197713 -0.0042936383
0.0159613751 0.0310627110 -0.0055072336
-0.0581424795 0.0396897905 0.0337658487
-0.0032284372 0.0324634723 -0.0002305608
-0.0042340271 0.0319219045 -0.0002290930
-0.0170937739 0.0286238752 0.0049825953
-0.0523771755 0.0371696651 0.0161804240
-0.0502125062 0.0329695828 0.0205221158
0.0127075044 0.0299622752 -0.0019447606
0.0196062531 0.0312797986 -0.0044270186
0.0153191276 0.0315793492 -0.0031541761
-0.0497649796 0.0358608328 0.0401690714
0.0027865544 0.0318906717 -0.0008896019
0.0108032925 0.0289642327 -0.0018292915
0.0049123727 0.0317281634 -0.0010848443
0.0217308272 0.0239238106 0.0087672742
-0.0521975867 0.0378962383 0.0158368330
0.0194972400 0.0279091150 -0.0043500466
-0.0491839088 0.0339574330 0.0193547066
0.0156474002 0.0308030881 -0.0043411134
-0.0529164188 0.0366453417 0.0189603548
0.0177844670 0.0309267826 -0.0044923751
0.0035208836 0.0324231200 -0.0008583914
0.0194980334 0.0276422314 -0.0005741518
0.0160871372 0.0312061384 -0.0057779429
0.0166837294 0.0294086635 -0.0056217639
-0.0122114867 0.0328144170 0.0004170437
-0.0062374659 0.0300169103 -0.0004158791
-0.0052396376 0.0299351774 -0.0004887606
-0.0112697966 0.0328080840 0.0004258503
-0.0156029873 0.0334242620 0.0017809842
-0.0152195729 0.0335183628 0.0022729461
-0.0032453649 0.0326907299 -0.0001868333
0.0196064264 0.0314822979 -0.0044426350
-0.0112368762 0.0309531204 0.0000347842
-0.0521936901 0.0381576754 0.0158056002
0.0173145849 0.0313912556 -0.0049033491
0.0186975896 0.0308682583 -0.0044435663
0.0136351762 0.0301689319 -0.0020166885
-0.0521409921 0.0359185077 0.0227398183
0.0087500215 0.0309442319 -0.0014596831
-0.0528791733 0.0377034210 0.0180857684
0.0162011236 0.0313740037 -0.0059341146
-0.0153637109 0.0319671370 0.0015757207
0.0067500714 0.0268839560 -0.0018063809
-0.0059126932 0.0325566903 -0.0000618945
-0.0580972917 0.0392714031 0.0331723802
0.0035009626 0.0310700983 -0.0010257240
0.0047488064 0.0309016518 -0.0011523019
0.0152664725 0.0318984799 -0.0026544135
-0.0147044025 0.0293004848 -0.0045909984
0.0164104979 0.0264423601 0.0011562828
0.0166821685 0.0299130268 -0.0056354357
-0.0198244788 0.0282274447 0.0049669789
-0.0156098828 0.0336490832 0.0017809842
0.0037599541 0.0289212205 -0.0012425806
0.0195991900 0.0277535543 -0.0023420628
0.0127039161 0.0309243426 -0.0018028419
-0.0102609769 0.0310829356 0.0000206504
0.0041486453 0.0209700055 -0.0020671960
-0.0131030232 0.0321620144 0.0004656364
-0.0101951286 0.0305303559 -0.0000842016
-0.0159556605 0.0329881944 0.0013655548
-0.0153331682 0.0327777602 0.0014744822
0.0067872144 0.0279827379 -0.0016997035
0.0077367835 0.0279029272 -0.0017769958
-0.0522317253 0.0384342521 0.0158368330
0.0187001228 0.0288313217 -0.0043623550
-0.0150062144 0.0307986028 -0.0043202965
-0.0146989198 0.0308521725 -0.0041849418
0.0027399380 0.0326775722 -0.0007365744
0.0037871860 0.0319205709 -0.0009572830
-0.0042626038 0.0311586373 -0.0003430049
-0.0152510367 0.0308171399 0.0005029414
-0.0439035259 0.0409161188 0.0371517502
-0.0072613396 0.0309209004 -0.0002161141
-0.0156043135 0.0338668413 0.0017497514
-0.0457987972 0.0351462327 0.0321103893
-0.0042258911 0.0327593386 -0.0001195620
-0.0043959524 0.0331850387 -0.0000306468
-0.0523827039 0.0378179252 0.0162845310
-0.0504514389 0.0342321657 0.0206470620
0.0195620228 0.0317765437 -0.0044437451
-0.0404312722 0.0419022404 0.0373058431
-0.0395182036 0.0423703827 0.0372641943
-0.0152325183 0.0286432989 0.0000318114
-0.0082263127 0.0309296213 -0.0001573365
-0.0496199690 0.0320396908 0.0199598875
-0.0481100939 0.0322522484 0.0199598875
-0.0159376934 0.0338073485 0.0014304493
-0.0156238750 0.0340991020 0.0017809842
0.0077547375 0.0289010778 -0.0016666080
0.0160658918 0.0299655572 -0.0053272573
0.0045833364 0.0321274325 -0.0010061662
0.0056967121 0.0328249373 -0.0010015469
-0.0132319927 0.0279137120 -0.0001337405
0.0027159620 0.0331259258 -0.0006615992
0.0037202481 0.0328584723 -0.0008219506
-0.0154437348 0.0309222341 -0.0006095420
-0.0154872201 0.0312044658 -0.0014674764
0.0078477152 0.0248787180 -0.0020937275
-0.0041871648 0.0334035195 -0.0000098299
-0.0036322307 0.0333869420 -0.0000306542
0.0127651896 0.0319158994 -0.0016986232
0.0047678426 0.0249106511 -0.0017860706
-0.0007520282 0.0276325271 -0.0010614197
0.0067570228 0.0299056619 -0.0014562334
-0.0523653962 0.0388410166 0.0164719503
-0.0522264801 0.0388267674 0.0157899838
-0.0493499972 0.0347870402 0.0191477742
-0.0142558319 0.0344220251 0.0024056931
0.0078163818 0.0302032493 -0.0014987241
0.0017424467 0.0329353027 -0.0006225507
0.0027067326 0.0333476700 -0.0006366174
0.0038142484 0.0332943164 -0.0007927965
0.0190263707 0.0272045620 0.0002895046
-0.0152086318 0.0288112424 -0.0014924582
-0.0198950283 0.0322997123 -0.0015767987
-0.0150789432 0.0312593095 -0.0027481194
0.0067715831 0.0261358358 -0.0018813412
-0.0071062334 0.0317541286 -0.0000955265
-0.0028610136 0.0335819088 -0.0000618945
-0.0033109952 0.0336007811 -0.0000202383
-0.0042736847 0.0335945375 0.0000213955
-0.0521229319 0.0392793156 0.0160554852
-0.0476702489 0.0370598510 0.0367436074
-0.0527648143 0.0362602361 0.0244889986
-0.0158197023 0.0309996344 -0.0030838947
-0.0608564131 0.0327330865 0.0364520811
-0.0093158893 0.0312088802 0.0000130658
0.0138233285 0.0269349255 -0.0024057727
-0.0454854481 0.0352829061 0.0321103893
0.0156561714 0.0315972678 -0.0044816760
0.0177089889 0.0318852738 -0.0045975102
0.0186948795 0.0318926759 -0.0044673039
0.0195023362 0.0322047286 -0.0044400347
0.0067192204 0.0308910348 -0.0013160061
0.0006685368 0.0335488431 -0.0004367109
0.0028008614 0.0335721932 -0.0005928900
0.0038014259 0.0335201435 -0.0007490690
-0.0161130317 0.0281522498 0.0043266537
-0.0092464164 0.0288543180 -0.0003703337
-0.0155447200 0.0318950601 -0.0004304748
0.0106925340 0.0328879319 -0.0013230171
-0.0042164791 0.0338564403 0.0000567932
-0.0032120347 0.0338218324 0.0000005786
-0.0025460385 0.0338006876 -0.0000306542
-0.0501713715 0.0348178633 0.0201472994
0.0195014793 0.0325130820 -0.0044452352
-0.0032476932 0.0298791267 -0.0005859311
-0.0452600904 0.0425237902 0.0413872413
0.0147425402 0.0269114561 -0.0024472575
0.0162430629 0.0271684229 -0.0039819060
-0.0192803256 0.0282157026 -0.0009573053
-0.0460420437 0.0388124697 0.0371704958
0.0087589547 0.0320496485 -0.0013425376
0.0097227432 0.0321051292 -0.0013980668
-0.0115325414 0.0302914791 -0.0000306542
0.0110757761 0.0274312161 -0.0020609449
0.0038343817 0.0307496153 -0.0010848593
-0.0042324215 0.0340842642 0.0000942845
-0.0032256152 0.0340478458 0.0000318114
-0.0023362059 0.0340182744 -0.0000150378
0.0127377436 0.0329061076 -0.0015475254
-0.0152123533 0.0300509520 0.0003871147
-0.0065797195 0.0323600061 -0.0000306542
-0.0478379987 0.0325176530 0.0199911203
-0.0122626573 0.0308787115 0.0000845094
-0.0022713076 0.0309033878 -0.0005344774
0.0047519989 0.0278876908 -0.0015079107
0.0117409807 0.0336331613 -0.0012113403
-0.0522303618 0.0399138443 0.0164719503
-0.0472433083 0.0382527597 0.0358429961
-0.0470439754 0.0381970666 0.0364052318
-0.0190506876 0.0283684395 0.0017653678
0.0194922499 0.0272911303 0.0033427451
-0.0458327048 0.0388460346 0.0384823643
-0.0456796102 0.0391494818 0.0384823643
-0.0153889954 0.0315979235 -0.0032322656
0.0048172157 0.0299533457 -0.0012360613
-0.0529262088 0.0333179794 0.0273313951
-0.0516027547 0.0404766761 0.0179920625
-0.0421892665 0.0416017957 0.0375140719
-0.0132515766 0.0308926217 0.0001515273
-0.0082584880 0.0346119739 0.0005315740
-0.0012405423 0.0309342928 -0.0006377797
-0.0032595545 0.0345062651 0.0001177092
-0.0052842312 0.0345850997 0.0002582718
-0.0042625517 0.0345392339 0.0001630012
-0.0519705825 0.0403750949 0.0161804240
-0.0022506379 0.0344659574 0.0000380550
-0.0014666171 0.0344335325 -0.0000306542
-0.0141805597 0.0277395509 0.0000005786
0.0057393350 0.0312468149 -0.0012019824
0.0158894993 0.0329447724 -0.0048877327
0.0176890846 0.0327906720 -0.0046191243
0.0017608179 0.0345126726 -0.0003554996
0.0027492084 0.0344777890 -0.0004289101
0.0037470981 0.0344294347 -0.0005616497
-0.0417470150 0.0426546000 0.0382012539
-0.0082854442 0.0349570401 0.0005862389
-0.0012593885 0.0319471322 -0.0005378451
0.0175764561 0.0258157365 -0.0027793597
0.0121091148 0.0284720547 -0.0020609449
-0.0042767730 0.0347663574 0.0001942341
-0.0032777190 0.0347368792 0.0001645659
-0.0022673160 0.0346954353 0.0000817899
-0.0014794451 0.0346596874 0.0000005786
0.0127942916 0.0338344537 -0.0012238573
0.0149394795 0.0284124948 -0.0022795897
0.0158950649 0.0332349278 -0.0049658222
0.0171129294 0.0332120098 -0.0050282953
0.0176845100 0.0333119519 -0.0045972420
0.0186901744 0.0329248719 -0.0044660596
0.0194817819 0.0330361389 -0.0044575511
0.0097538298 0.0328909829 -0.0012753929
-0.0523719527 0.0362710841 0.0230834093
0.0057492126 0.0338885300 -0.0008927237
-0.0032981820 0.0349697247 0.0002192233
-0.0518988334 0.0406469554 0.0165162068
-0.0516289510 0.0409224108 0.0163053703
-0.0516312681 0.0410661474 0.0176859628
-0.0469981097 0.0384800173 0.0362959169
0.0127744433 0.0343983769 -0.0011051472
0.0137605313 0.0338927396 -0.0013940881
-0.0464940704 0.0386352874 0.0366811268
0.0152809378 0.0311439373 -0.0027481194
-0.0477134697 0.0400959030 0.0397942476
-0.0162524059 0.0284973606 0.0003129367
-0.0151654594 0.0331144854 -0.0033572044
0.0067430213 0.0228586607 -0.0021309208
0.0158164669 0.0281065442 -0.0025544639
-0.0053698495 0.0330816507 -0.0000025507
-0.0472154729 0.0395266078 0.0385448299
-0.0459993072 0.0395201407 0.0371392481
-0.0451513194 0.0396115147 0.0371392481
-0.0441174619 0.0400645323 0.0373383723
0.0057147741 0.0346720181 -0.0007740657
0.0167255942 0.0308813788 -0.0056178672
-0.0521236248 0.0408316068 0.0157609861
-0.0518307947 0.0411630161 0.0161179584
-0.0516588874 0.0412506983 0.0165552478
-0.0516798683 0.0413642339 0.0170550104
-0.0465126373 0.0402845927 0.0393881910
-0.0154816322 0.0329008140 -0.0025537710
0.0137810335 0.0278800614 -0.0022812288
0.0154551137 0.0309948362 -0.0034509178
0.0056963414 0.0350132473 -0.0007053341
-0.0526790209 0.0372357331 0.0185386818
0.0180681646 0.0269953050 -0.0025372829
-0.0033302903 0.0354286991 0.0002973129
0.0130234454 0.0346995778 -0.0010926600
0.0137342149 0.0346832089 -0.0012214954
-0.0002077223 0.0249230638 -0.0013650234
-0.0158795416 0.0328315981 -0.0025450911
-0.0381349362 0.0436237715 0.0369362198
0.0057962872 0.0320291780 -0.0011173289
0.0067419559 0.0318480656 -0.0011906277
0.0066722203 0.0331281088 -0.0010249715
0.0074393675 0.0333213657 -0.0010114412
0.0159427170 0.0335687660 -0.0044348268
-0.0130240992 0.0342882723 0.0009688709
-0.0158681571 0.0321894810 0.0011875082
-0.0522099622 0.0416102596 0.0162830483
-0.0515480600 0.0417778380 0.0174471866
-0.0517282300 0.0416758470 0.0166177135
-0.0182034485 0.0292478465 -0.0013151939
-0.0172189474 0.0289150365 -0.0012553360
-0.0159477405 0.0338953398 -0.0024670090
-0.0155148655 0.0337578654 -0.0026934620
-0.0605961792 0.0327434614 0.0365926288
0.0137272133 0.0288876407 -0.0021745216
-0.0596913584 0.0394190140 0.0368893705
0.0167226586 0.0337262936 -0.0049345819
0.0177235026 0.0338151716 -0.0045580445
0.0186866634 0.0338530317 -0.0044770120
0.0194968581 0.0338546522 -0.0044556586
0.0027976707 0.0356080271 -0.0002492990
0.0037794877 0.0355792083 -0.0002961557
0.0047738291 0.0355323516 -0.0004179801
0.0057640895 0.0354867168 -0.0005382251
-0.0525291823 0.0378966220 0.0181248169
0.0037711672 0.0339777209 -0.0006407823
-0.0521214567 0.0420735441 0.0164693501
-0.0072556920 0.0291400887 -0.0004585709
-0.0139221558 0.0319481306 0.0008126993
0.0007568932 0.0252233818 -0.0013971950
-0.0190313794 0.0338005610 -0.0015384729
-0.0528502874 0.0389815755 0.0176797193
-0.0042483732 0.0343123600 0.0001317684
-0.0523399524 0.0389876552 0.0178463142
-0.0032414366 0.0342759751 0.0000708599
0.0166941453 0.0342679396 -0.0049345894
0.0177763589 0.0343570448 -0.0045519574
0.0186838973 0.0343722068 -0.0044723032
0.0194953717 0.0343700685 -0.0044660596
-0.0102018304 0.0273629986 -0.0004523348
-0.0092518851 0.0269195922 -0.0005378451
0.0097258482 0.0341568552 -0.0010145630
0.0098420009 0.0337479301 -0.0010983299
0.0107594896 0.0342220254 -0.0010301869
0.0117084496 0.0342165790 -0.0010114412
-0.0190959051 0.0300176814 -0.0014076184
-0.0521876104 0.0423657186 0.0165396240
-0.0111131333 0.0273917243 -0.0003898691
-0.0002608468 0.0208570622 -0.0016643878
-0.0102445297 0.0349370651 0.0006729786
0.0007886718 0.0261922628 -0.0012878727
-0.0191076174 0.0348989107 -0.0014589678
-0.0182275660 0.0349032246 -0.0014315720
-0.0512467884 0.0350789428 0.0213654693
-0.0022374615 0.0342397578 0.0000068222
0.0156032164 0.0321224444 -0.0039819134
-0.0011805372 0.0339133851 -0.0001590725
-0.0002573190 0.0339474343 -0.0002720158
-0.0182133690 0.0298961997 -0.0013366889
-0.0522643290 0.0426627435 0.0166255217
0.0037379563 0.0349804536 -0.0004547860
-0.0516727678 0.0425566398 0.0169144552
-0.0507054590 0.0427243747 0.0173048880
-0.0155841634 0.0329305716 -0.0005241733
-0.0439638086 0.0420716591 0.0394506566
-0.0434175171 0.0419600718 0.0390133671
-0.0425960906 0.0423057713 0.0393257253
0.0017337314 0.0278977975 -0.0011707644
-0.0528621487 0.0421089269 0.0164198931
0.0159119237 0.0338697061 -0.0037684764
0.0047436077 0.0349653326 -0.0005983959
-0.0516916849 0.0429630838 0.0168988314
-0.0507245027 0.0429984964 0.0173048880
-0.0521862693 0.0429504029 0.0167114194
0.0117561296 0.0298836492 -0.0018481563
0.0061543025 0.0326264240 -0.0010614197
0.0068023428 0.0327122584 -0.0010864015
0.0147343483 0.0298955478 -0.0021561261
0.0161412824 0.0346651413 -0.0033624123
0.0086995419 0.0340277627 -0.0009843584
0.0166249517 0.0347253457 -0.0047627939
0.0178484935 0.0347409137 -0.0044903560
0.0186818447 0.0347871743 -0.0044723181
0.0194940809 0.0347832255 -0.0044730036
0.0027565956 0.0365104787 -0.0001368623
0.0037309267 0.0364920534 -0.0001399841
0.0047082882 0.0364680029 -0.0001680951
0.0056893993 0.0364370383 -0.0002258744
-0.0515365340 0.0432185568 0.0168675985
-0.0507234819 0.0432640798 0.0172736552
-0.0112650208 0.0281643830 -0.0003242667
-0.0093350448 0.0369135253 0.0010157351
0.0118066967 0.0319497585 -0.0015824090
-0.0191013739 0.0279119574 0.0052637132
-0.0527489893 0.0396109335 0.0174610671
0.0166689865 0.0351513810 -0.0047159372
0.0179658141 0.0352160446 -0.0044348268
0.0186802242 0.0352009162 -0.0044785542
0.0194937997 0.0351922251 -0.0044972925
-0.0450857021 0.0408288576 0.0384823643
0.0107594132 0.0349179171 -0.0009067084
0.0046982206 0.0366946831 -0.0001368623
0.0057859235 0.0366637968 -0.0001868333
-0.0082730465 0.0329260044 0.0002477292
0.0163960569 0.0342227407 -0.0038725908
-0.0191318765 0.0308937170 -0.0013894092
-0.0182143822 0.0309701450 -0.0014108743
-0.0506821759 0.0435121022 0.0171799492
-0.0092168003 0.0373503231 0.0011640911
0.0117733451 0.0329477601 -0.0014034684
0.0047415309 0.0359989889 -0.0002951126
-0.0144247077 0.0323736556 0.0011979316
0.0077316146 0.0327868946 -0.0011165540
-0.0523544140 0.0399517976 0.0177734252
-0.0478340201 0.0376130678 0.0363896154
-0.0007206072 0.0352926329 -0.0000306542
0.0163805839 0.0348462015 -0.0037476521
0.0186791960 0.0354087651 -0.0044785542
0.0194929186 0.0353999995 -0.0044972925
-0.0102330595 0.0280208625 -0.0004028704
-0.0092182383 0.0279915594 -0.0004533629
-0.0002515801 0.0238740854 -0.0014600556
0.0117103942 0.0348603539 -0.0009429555
0.0126690520 0.0350448713 -0.0009843584
0.0027812570 0.0289513394 -0.0011504616
0.0037563760 0.0360338204 -0.0002232741
-0.0515252389 0.0435867421 0.0168884154
-0.0504976250 0.0437545739 0.0171018597
-0.0092526861 0.0375975408 0.0012499888
0.0018536391 0.0289285518 -0.0010813128
0.0047201775 0.0293254405 -0.0012878727
-0.0081629679 0.0352792777 0.0006252800
0.0155677944 0.0329203866 -0.0036789279
-0.0529613383 0.0429729335 0.0165942889
-0.0523560159 0.0432323106 0.0167036187
0.0097764460 0.0349143408 -0.0008839767
-0.0082089379 0.0339265503 0.0004339491
-0.0072596222 0.0339047126 0.0003551741
-0.0630724281 0.0437277369 0.0402940176
-0.0513083749 0.0440304764 0.0168988314
-0.0182102881 0.0319343731 -0.0014924805
-0.0092859194 0.0378431603 0.0013280783
0.0037905723 0.0371924601 0.0000318114
0.0088180173 0.0249241814 -0.0021559026
-0.0153403766 0.0316262916 0.0006721441
0.0137397973 0.0309088193 -0.0019188176
0.0159821864 0.0361010432 -0.0032374810
0.0163623895 0.0354445949 -0.0035914730
-0.0458630733 0.0390399657 0.0395131372
0.0017908363 0.0374979414 0.0002129723
0.0027915984 0.0374531560 0.0001177166
0.0047903731 0.0369272232 -0.0000775110
0.0048330724 0.0372500233 0.0000422199
0.0054671690 0.0372162797 0.0000240107
-0.0144235194 0.0328771137 0.0016052995
-0.0151715130 0.0340781733 0.0023415808
-0.0520769767 0.0406521223 0.0176970791
0.0161126833 0.0363952853 -0.0031854163
0.0163190458 0.0363937654 -0.0031854163
-0.0160009153 0.0377562121 0.0017185111
-0.0154749192 0.0380822234 0.0014717628
0.0138786659 0.0297170505 -0.0020753543
0.0026600771 0.0371159054 0.0000318040
-0.0512058996 0.0445162691 0.0166801866
-0.0504102521 0.0444534309 0.0166385453
-0.0146128722 0.0372495241 -0.0033103551
0.0087697133 0.0359572954 -0.0006514441
0.0097130705 0.0359170623 -0.0006948065
0.0108057298 0.0359088741 -0.0007428105
0.0117686912 0.0358841605 -0.0007978629
0.0127198109 0.0358741842 -0.0008657675
-0.0158041120 0.0386448540 0.0018434573
-0.0153991841 0.0385933109 0.0017029021
0.0117199179 0.0339855216 -0.0010801654
-0.0501977094 0.0446814634 0.0165161993
-0.0122095346 0.0302379653 -0.0000150453
0.0155539438 0.0341259129 -0.0025763239
-0.0002250691 0.0219436437 -0.0015768062
-0.0530262701 0.0439591743 0.0166997146
-0.0519830696 0.0442288853 0.0169691127
-0.0149843656 0.0377872996 -0.0013112973
-0.0012420771 0.0329392366 -0.0003601785
-0.0082771108 0.0359382406 0.0007289399
-0.0072133876 0.0359396599 0.0006448154
-0.0164716505 0.0359495543 -0.0014277275
0.0163025558 0.0361309089 -0.0029823806
-0.0431783982 0.0409725569 0.0372607224
-0.0002657269 0.0360022262 0.0000532765
-0.0082068928 0.0386206172 0.0014139686
0.0058374368 0.0369395651 -0.0001035358
0.0055898912 0.0377962962 0.0001790423
-0.0159128997 0.0343268998 0.0007502262
-0.0157604404 0.0352871679 0.0020308692
0.0137170153 0.0318891071 -0.0017860781
0.0145756453 0.0312113352 -0.0019568305
-0.0510929339 0.0442588888 0.0167738851
-0.0503854640 0.0442358740 0.0168675985
0.0050597340 0.0222555846 -0.0020609449
-0.0145993866 0.0378736295 -0.0034040611
-0.0145314112 0.0379716381 -0.0030292373
-0.0144374967 0.0349260531 0.0021662090
-0.0151002631 0.0386641994 -0.0005304168
-0.0151497014 0.0388506912 0.0001567577
-0.0102537721 0.0338901319 0.0005268578
0.0159817971 0.0358768925 -0.0024774175
0.0155024733 0.0359065682 -0.0013027738
-0.0153615363 0.0338211246 -0.0033415880
0.0067151859 0.0373459272 -0.0000306542
-0.0000078623 0.0355420299 -0.0000697027
-0.0082041696 0.0389785469 0.0014894579
0.0194905251 0.0359207131 -0.0044946996
0.0056961756 0.0382878892 0.0001463492
-0.0182269961 0.0329093225 -0.0015299569
-0.0147565082 0.0378377549 -0.0035602401
-0.0152527653 0.0349893011 0.0021808047
-0.0510148890 0.0437094979 0.0170050319
0.0163348336 0.0365543328 -0.0033728282
-0.0074126981 0.0321888812 0.0000090946
-0.0145435221 0.0345512293 0.0019371633
-0.0002380182 0.0328969210 -0.0004659842
0.0007807295 0.0328818150 -0.0005676027
0.0047086813 0.0379686020 0.0002701629
-0.0073234849 0.0386164449 0.0013541032
-0.0182479247 0.0339216627 -0.0015016969
-0.0146670975 0.0380591191 -0.0035289999
-0.0159811564 0.0348509215 0.0015717049
-0.0154653303 0.0347433090 0.0019137387
0.0009078904 0.0286091529 -0.0010676633
-0.0062120743 0.0318477117 -0.0001477923
-0.0132961236 0.0346597582 0.0012603973
0.0153571740 0.0368676893 -0.0018423002
-0.0191454850 0.0328833647 -0.0015681337
0.0068162568 0.0380159728 0.0001723592
-0.0002894999 0.0369577296 0.0002100144
0.0043192804 0.0386301726 0.0005003412
-0.0092258863 0.0318798758 0.0001081501
-0.0082810260 0.0319447070 0.0000462208
-0.0146161392 0.0383077487 -0.0034040611
-0.0522557609 0.0448982082 0.0171442386
0.0097713796 0.0369828045 -0.0005512338
0.0107769091 0.0369156376 -0.0006216120
0.0117613012 0.0369216874 -0.0006345238
0.0125995437 0.0368180722 -0.0006414677
-0.0415129922 0.0412636660 0.0374828391
0.0119805299 0.0386486389 -0.0002076577
-0.0138922678 0.0362151600 0.0019059305
-0.0092947409 0.0381793566 0.0013241742
0.0186701175 0.0368737318 -0.0044548092
-0.0537793748 0.0442557819 0.0418870114
-0.0151704252 0.0385151878 -0.0035185914
-0.0145589821 0.0385524742 -0.0032947387
-0.0129108652 0.0350162089 0.0007580344
-0.0517111905 0.0460165553 0.0170550104
-0.0501605384 0.0456969626 0.0159695875
0.0133907590 0.0352703743 -0.0010301869
-0.0513217188 0.0464907698 0.0168675985
-0.0402900539 0.0427505188 0.0373162441
-0.0152614526 0.0386681780 -0.0037632685
-0.0145529918 0.0388343930 -0.0030604701
0.0037678275 0.0387575142 0.0005237658
-0.0535804443 0.0471652113 0.0193664115
-0.0526995473 0.0470140763 0.0184918325
-0.0491899364 0.0459004454 0.0160906296
0.0075119101 0.0381626450 0.0000630517
0.0194844119 0.0368676595 -0.0044619096
-0.0112254769 0.0332391001 0.0004628573
-0.0102343634 0.0328385010 0.0003719155
-0.0092632882 0.0329381935 0.0003238444
-0.0072336644 0.0329398960 0.0001420353
-0.0132460482 0.0359306559 0.0014295850
-0.0159396082 0.0358845070 0.0021401916
-0.0533839203 0.0475442074 0.0192570966
0.0136618512 0.0360201560 -0.0009622003
0.0077541042 0.0385306254 0.0000838686
-0.0172445625 0.0298811533 -0.0012998010
0.0194745306 0.0378346182 -0.0043697460
-0.0182654783 0.0358947925 -0.0014312442
-0.0145575739 0.0373538844 -0.0029042985
0.0194665883 0.0383851863 -0.0042786552
0.0137420809 0.0369789861 -0.0007375430
-0.0145410597 0.0394615978 -0.0031541761
-0.0062355027 0.0381300375 0.0011652161
-0.0165105462 0.0378775559 -0.0011863585
-0.0154520869 0.0338630639 -0.0009260725
0.0017436034 0.0319004469 -0.0008097913
-0.0521797724 0.0392038189 0.0156806614
0.0096473312 0.0378611349 -0.0003950621
0.0108754104 0.0377952047 -0.0005121853
0.0118034566 0.0379355475 -0.0004242088
0.0125115728 0.0378616713 -0.0004002701
-0.0071773082 0.0379096717 0.0011538838
0.0136944596 0.0328727700 -0.0016580175
-0.0041853786 0.0378379263 0.0007248644
-0.0032820161 0.0377452262 0.0007215936
0.0067423750 0.0385367461 0.0003129293
0.0137917502 0.0378345884 -0.0005360942
-0.0172713473 0.0359094553 -0.0014206420
-0.0391371362 0.0437579043 0.0373657010
-0.0092318058 0.0339637771 0.0004831378
-0.0132277831 0.0369317792 0.0015843783
-0.0053822547 0.0386887379 0.0012125049
-0.0050729774 0.0378010087 0.0008673493
-0.0521536507 0.0399497785 0.0157654341
-0.0144850686 0.0360340886 0.0022057791
-0.0540646724 0.0458279513 0.0178358909
-0.0541253500 0.0461047478 0.0185438897
0.0145265628 0.0338791199 -0.0015072252
0.0144370403 0.0363379307 -0.0010301869
0.0196057390 0.0387110226 -0.0041894047
0.0144691896 0.0375603661 -0.0007698860
-0.0032648891 0.0312354453 -0.0004015740
-0.0494623147 0.0462386869 0.0157806110
-0.0144485310 0.0369358324 0.0021357287
-0.0009887015 0.0347052142 -0.0000723030
-0.0013094061 0.0351217873 0.0000346501
0.0007832142 0.0272711404 -0.0011801149
-0.0122003593 0.0259010084 -0.0003789242
-0.0063250363 0.0386046134 0.0012760137
-0.0041284636 0.0384833030 0.0009063978
-0.0523354448 0.0438841097 0.0168363657
0.0144719556 0.0370684229 -0.0009208645
-0.0139251947 0.0368644111 0.0019371558
0.0147274546 0.0348869078 -0.0012753929
0.0155317057 0.0349859260 -0.0015059288
-0.0159690082 0.0368616171 0.0021627520
-0.0012465772 0.0359196775 0.0001748179
0.0186274536 0.0393090360 -0.0040183468
0.0014347433 0.0363438725 -0.0000306542
-0.0043693203 0.0385064296 0.0009688709
-0.0190570056 0.0359196626 -0.0014518674
-0.0164258666 0.0350132734 -0.0014482539
-0.0434420668 0.0402968824 0.0374099426
-0.0164636374 0.0339302979 -0.0015872146
-0.0164417550 0.0367941819 -0.0015268202
-0.0092187934 0.0348570161 0.0006087546
-0.0155665912 0.0381118767 0.0007033695
-0.0131162032 0.0377868414 0.0018473689
-0.0092646629 0.0387448631 0.0014087607
0.0115244212 0.0387124904 0.0000005786
-0.0173152275 0.0319122933 -0.0014628049
0.0166818462 0.0366546772 -0.0054405881
0.0017001814 0.0369534679 0.0000451927
0.0160804596 0.0352417938 -0.0027481194
0.0196522120 0.0393004380 -0.0040287627
-0.0375909247 0.0435720123 0.0367956720
-0.0532266535 0.0458406098 0.0184814092
-0.0479336493 0.0482380651 0.0170862433
-0.0022159442 0.0318930149 -0.0004226442
0.0147759784 0.0358583890 -0.0012089263
-0.0486198179 0.0473928563 0.0158368330
0.0047236886 0.0329126753 -0.0009167294
0.0186762456 0.0359302051 -0.0044738827
-0.0534660928 0.0442550592 0.0419494770
-0.0112367570 0.0298944637 -0.0001154419
-0.0034887232 0.0382749699 0.0010209356
-0.0540614612 0.0488363616 0.0191633906
-0.0072351247 0.0348928533 0.0005055119
-0.0022429191 0.0359544866 0.0002973054
-0.0003018194 0.0272958465 -0.0011238928
-0.0538027994 0.0494597740 0.0184293594
-0.0511890613 0.0428134762 0.0171345156
-0.0122960098 0.0278761722 -0.0002352472
-0.0001618249 0.0278256349 -0.0010864164
-0.0151563101 0.0391834714 0.0001411412
-0.0485007055 0.0479907729 0.0156884696
-0.0481985472 0.0479456596 0.0164615419
-0.0164764635 0.0387595408 -0.0013157602
-0.0156560540 0.0343389548 0.0018434573
-0.0022765826 0.0329251252 -0.0002423550
-0.0032142848 0.0390097909 0.0011674438
-0.0025087241 0.0389229171 0.0010313366
-0.0531331934 0.0497304685 0.0190748926
0.0180605911 0.0399454795 -0.0037927579
0.0077916831 0.0349394120 -0.0007917981
0.0007891859 0.0378637612 0.0002680246
0.0148669891 0.0367449671 -0.0013113047
0.0027742181 0.0340254381 -0.0005069922
-0.0022489354 0.0369279720 0.0004656140
-0.0152304657 0.0379275046 0.0023412753
-0.0499784313 0.0460683145 0.0158758815
0.0167550240 0.0337250121 -0.0051282523
-0.0089448951 0.0366647802 0.0009142135
-0.0052240044 0.0309169777 -0.0003239166
-0.0573665686 0.0381293073 0.0320791416
0.0188538749 0.0389215127 -0.0041205017
-0.0148240551 0.0382662565 -0.0039819060
-0.0530502908 0.0503010713 0.0191165339
-0.0145897940 0.0393146463 -0.0032947387
0.0101488149 0.0407272913 0.0004274521
0.0104841525 0.0406994037 0.0003493701
-0.0469958968 0.0492147766 0.0165656563
0.0047685951 0.0339255445 -0.0007974680
-0.0499962829 0.0468336605 0.0159305390
-0.0112251528 0.0368568115 0.0011000682
-0.0113150962 0.0377439298 0.0013725285
0.0027762335 0.0360599123 -0.0001889120
-0.0532914512 0.0451493971 0.0171112251
-0.0525951274 0.0497536398 0.0166593697
-0.0102605373 0.0289262123 -0.0003058265
0.0147673842 0.0329318196 -0.0017511870
0.0162052419 0.0369511396 -0.0042317985
0.0166300572 0.0363877527 -0.0055124341
0.0167927053 0.0363989063 -0.0062152324
-0.0475888140 0.0489050783 0.0170966592
-0.0533923395 0.0479563214 0.0192180481
-0.0154472962 0.0476035662 0.0161804240
-0.0033591576 0.0394523330 0.0012499888
-0.0192272328 0.0319870301 -0.0014433439
-0.0121946931 0.0289307125 -0.0001936208
-0.0533210449 0.0498262011 0.0184879210
-0.0186390579 0.0534445979 0.0347966067
-0.0052082576 0.0320816673 -0.0001743387
-0.0535036512 0.0488957800 0.0191894230
-0.0162106827 0.0371185392 0.0017393429
-0.0150878318 0.0389811136 -0.0005928900
0.0006755478 0.0385224707 0.0003806029
-0.0167036206 0.0309079215 -0.0014987167
-0.0483978502 0.0486618541 0.0155557217
-0.0483568124 0.0488648824 0.0166411456
-0.0130859548 0.0530982651 0.0342343859
-0.0042244662 0.0369600989 0.0005987186
-0.0032109134 0.0369647853 0.0005895768
-0.0531601720 0.0446829088 0.0168207418
-0.0527235903 0.0446647070 0.0168675985
0.0029717460 0.0386947505 0.0004815955
-0.0149935409 0.0332306102 0.0020100374
-0.0031266175 0.0352271050 0.0002400551
-0.0154797360 0.0418971516 0.0012812216
-0.0130676553 0.0303291120 -0.0000306468
0.0007593444 0.0279201679 -0.0011201452
-0.0531360693 0.0506148525 0.0185438897
-0.0170638189 0.0539199449 0.0365041308
-0.0183230378 0.0546001084 0.0385760777
-0.0148241594 0.0388013534 -0.0016236554
-0.0130767040 0.0533785783 0.0341719054
-0.0149601772 0.0388410799 0.0025306393
0.0028119944 0.0367787331 -0.0000827115
0.0196409076 0.0398750864 -0.0038777988
-0.0166364163 0.0319599137 -0.0015834968
0.0158993322 0.0365192480 -0.0031229432
0.0166284759 0.0369008705 -0.0047784103
0.0165795777 0.0380473509 -0.0034665342
0.0180261452 0.0368076377 -0.0044556512
-0.0134166740 0.0381491296 0.0020048369
-0.0533291139 0.0454678871 0.0177109521
-0.0525554977 0.0457467921 0.0179295968
-0.0184795260 0.0535856225 0.0333285592
-0.0525084995 0.0502221622 0.0165396240
-0.0509254448 0.0505779572 0.0186792444
-0.0122481324 0.0349292569 0.0006596569
-0.0515352823 0.0513160266 0.0200848263
-0.0535080694 0.0372921564 0.0178983640
0.0179779585 0.0409443192 -0.0034103047
-0.0518563278 0.0399384685 0.0179608297
-0.0168051347 0.0403877236 -0.0009989466
-0.0020803902 0.0336823575 -0.0000827189
-0.0530254506 0.0506968684 0.0190228280
-0.0145516172 0.0390901379 -0.0025294747
0.0007554739 0.0340782814 -0.0003622274
-0.0144234896 0.0529451780 0.0317043327
-0.0483265035 0.0490141623 0.0148997800
-0.0479078032 0.0498180203 0.0168363657
-0.0473141037 0.0499069728 0.0165031832
-0.0022396669 0.0379011370 0.0006054018
-0.0143220425 0.0388135351 0.0023744602
-0.0182427205 0.0378887765 -0.0014050256
-0.0092170611 0.0298699699 -0.0002512585
-0.0155124962 0.0319957510 -0.0014952447
-0.0052714329 0.0350563526 0.0003201340
-0.0042933803 0.0350765809 0.0002270315
0.0007528922 0.0348851606 -0.0002414982
-0.0062245317 0.0375929214 0.0009142135
-0.0134919696 0.0393966772 0.0024056931
0.0007394123 0.0369397290 0.0000989561
-0.0383799411 0.0429872014 0.0370767973
-0.0448741652 0.0493275486 0.0168363657
-0.0574889295 0.0386657044 0.0325086378
-0.0423795693 0.0412090570 0.0374359749
-0.0525878184 0.0506640784 0.0166020971
-0.0173770636 0.0551376007 0.0374203734
-0.0120733604 0.0357467718 0.0008907814
-0.0528494082 0.0378856286 0.0174985435
-0.0525514893 0.0382706933 0.0176068302
-0.0159503855 0.0342554860 0.0014269922
-0.0032437984 0.0319282524 -0.0003100361
-0.0163010135 0.0493085422 0.0234269928
-0.0145399012 0.0381893963 -0.0030292373
-0.0022255071 0.0351304039 0.0001423184
-0.0484543927 0.0469866805 0.0160554852
-0.0375877731 0.0431211703 0.0368269049
-0.0172275677 0.0410375595 -0.0009163867
-0.0145028457 0.0400484912 -0.0023733031
-0.0072385669 0.0368729942 0.0008224670
-0.0062021576 0.0368758403 0.0007033770
-0.0159953386 0.0320427120 -0.0023837041
-0.0482379161 0.0503656752 0.0158056002
-0.0137420036 0.0537972637 0.0354525559
0.0057842173 0.0352483392 -0.0006241228
-0.0138257593 0.0514358692 0.0278623980
-0.0140745156 0.0514177941 0.0287057441
-0.0542164929 0.0479338057 0.0192258637
-0.0160643086 0.0428227521 -0.0002649229
0.0166507903 0.0364258662 -0.0061215265
-0.0172152817 0.0437362008 0.0006391529
-0.0162662603 0.0436227433 0.0003816534
0.0077348575 0.0319307409 -0.0012622278
-0.0189077891 0.0389447026 -0.0012956883
-0.0182707496 0.0389425792 -0.0012956958
-0.0411983095 0.0418791808 0.0373657160
0.0187949035 0.0408228971 -0.0035758491
0.0196018200 0.0408667140 -0.0035530280
-0.0163979083 0.0544165857 0.0352339111
0.0197909027 0.0417398028 -0.0030292373
-0.0112486817 0.0359050110 0.0008817513
-0.0102224611 0.0358266495 0.0008347530
-0.0092806257 0.0359234475 0.0008033414
-0.0530461185 0.0509633012 0.0165448394
-0.0158980154 0.0394653119 -0.0025607075
-0.0526153930 0.0510799028 0.0165864807
-0.0053491406 0.0381080732 0.0010521759
-0.0155662410 0.0320906825 -0.0024357762
-0.0119728334 0.0525823198 0.0307828914
-0.0067866296 0.0374469496 0.0009376381
-0.0044741482 0.0550817065 0.0378576629
-0.0138685815 0.0535586290 0.0327663235
-0.0484683700 0.0507370569 0.0173101034
-0.0149332397 0.0383978188 -0.0014987092
-0.0118658133 0.0522352569 0.0278623980
-0.0114229396 0.0519651063 0.0276541542
-0.0012500753 0.0379783027 0.0005276625
-0.0043499321 0.0540272705 0.0345623456
0.0078077558 0.0309500545 -0.0013972025
0.0077428669 0.0369209722 -0.0003414403
-0.0511834212 0.0480821170 0.0171799492
-0.0121592171 0.0385858119 0.0016677503
-0.0527597554 0.0514987074 0.0174922999
-0.0002331344 0.0308896452 -0.0007724788
-0.0051582828 0.0326649882 -0.0000900056
0.0157333333 0.0366553888 -0.0026981409
-0.0519586839 0.0469280966 0.0176588874
0.0195932258 0.0415833481 -0.0031854238
0.0195789374 0.0419759341 -0.0029667642
-0.0032257512 0.0331097469 -0.0001075442
-0.0168533362 0.0500887223 0.0254729073
-0.0464209281 0.0492451601 0.0161804240
0.0181427393 0.0415970124 -0.0031697925
0.0181188527 0.0420150869 -0.0028730656
-0.0172360316 0.0379695073 -0.0013659771
-0.0172299407 0.0388800651 -0.0012981619
-0.0136253983 0.0533749871 0.0350777321
-0.0505032875 0.0462283082 0.0160867181
-0.0525604300 0.0513826050 0.0162116569
0.0117561650 0.0308791697 -0.0017277773
-0.0531536229 0.0494103990 0.0169300716
-0.0485830568 0.0463850386 0.0161491912
-0.0165521055 0.0328846090 -0.0015611749
-0.0485776328 0.0508265011 0.0168051254
-0.0472719334 0.0506861396 0.0166645702
-0.0152223520 0.0375159234 -0.0006865959
-0.0180773996 0.0523379780 0.0312670283
-0.0063092895 0.0329397246 0.0000505422
-0.0106093735 0.0517404191 0.0264255684
-0.0130433068 0.0325330533 0.0005471979
-0.0122490348 0.0332716517 0.0004847248
-0.0189865455 0.0378636606 -0.0014964889
-0.0062356554 0.0291019231 -0.0005577381
-0.0172603093 0.0430999957 0.0000942771
-0.0158610716 0.0376831256 0.0020777185
-0.0153903849 0.0372310095 -0.0005226161
-0.0126254335 0.0530505143 0.0336409174
-0.0188410021 0.0398747809 -0.0011473175
-0.0155848227 0.0436279289 0.0031865735
-0.0508539192 0.0471909307 0.0165240075
-0.0156473108 0.0434970446 0.0027492766
-0.0527439974 0.0517598949 0.0174298342
-0.0106748194 0.0520363934 0.0287057441
-0.0130408928 0.0523640700 0.0299863946
-0.0490410291 0.0515551753 0.0177265685
-0.0161588602 0.0390499532 -0.0022483494
-0.0154912062 0.0389023311 -0.0029511477
0.0180944949 0.0423326679 -0.0025607075
-0.0113746971 0.0364627279 0.0009376381
-0.0102644823 0.0370164774 0.0010724564
0.0107631432 0.0319004208 -0.0014823626
-0.0108265430 0.0516772382 0.0262069236
0.0058495216 0.0459549911 0.0091837319
0.0166282933 0.0385397784 -0.0045285253
0.0181148034 0.0393137150 -0.0040131463
-0.0044309944 0.0544304736 0.0362959020
0.0006984527 0.0362803079 -0.0000150453
0.0076650549 0.0375547595 -0.0001503925
-0.0482809432 0.0506531410 0.0158368330
0.0088661667 0.0379375406 -0.0002551626
-0.0101716928 0.0515485443 0.0258633476
-0.0172455534 0.0450093113 0.0021479998
-0.0129583292 0.0340288356 0.0008126919
-0.0112366118 0.0338937938 0.0005532701
0.0187023766 0.0420972221 -0.0028503339
0.0195656102 0.0422591381 -0.0027585353
-0.0179640129 0.0442500599 0.0011094261
-0.0172699802 0.0443131141 0.0014124040
0.0007466952 0.0319531858 -0.0007260393
-0.0517768152 0.0475088991 0.0174610671
-0.0512451641 0.0475828163 0.0168519747
-0.0002654159 0.0318687856 -0.0006410282
-0.0182343237 0.0398245715 -0.0011624943
0.0195541866 0.0425331183 -0.0025815319
-0.0131450705 0.0530728884 0.0312982611
-0.0080987476 0.0315149315 -0.0000618945
-0.0190661177 0.0541590117 0.0360772572
0.0188189577 0.0398839377 -0.0038632031
-0.0152663626 0.0529491119 0.0325789116
0.0181373972 0.0428209640 -0.0017329778
0.0160960928 0.0327734835 -0.0053468896
-0.0518312939 0.0513293929 0.0200535934
-0.0480993576 0.0490319468 0.0170914438
-0.0472325124 0.0517417602 0.0169613045
-0.0174433365 0.0510984845 0.0276229214
-0.0179794878 0.0519802608 0.0294866245
-0.0172283202 0.0446810089 0.0018497009
-0.0149869518 0.0415753052 0.0006408964
0.0007961037 0.0357557088 -0.0000993784
-0.0092081763 0.0306758657 -0.0001139592
-0.0468133204 0.0516525693 0.0167738926
-0.0083447322 0.0372181199 0.0010365520
-0.0147641972 0.0395172946 0.0026868109
-0.0062478073 0.0338771529 0.0002471481
-0.0043014996 0.0545311905 0.0356712006
-0.0155301243 0.0328981094 -0.0014605473
-0.0171931610 0.0506760292 0.0268941056
-0.0181788914 0.0528120585 0.0321520232
-0.0454265065 0.0511176400 0.0168675985
-0.0515463836 0.0335363336 0.0367956720
0.0017341728 0.0311490111 -0.0009218853
-0.0165208131 0.0421557315 0.0000864763
-0.0156951137 0.0479947440 0.0200535934
-0.0153598487 0.0434369110 -0.0003742452
0.0187573899 0.0379568152 -0.0043223975
-0.0501783602 0.0478679650 0.0164979752
-0.0494289659 0.0476683788 0.0161335748
-0.0062475093 0.0349122845 0.0004066203
0.0218975991 0.0559359007 0.0381387882
0.0195306577 0.0428771265 -0.0021963071
-0.0387183167 0.0435450859 0.0371704958
-0.0393435247 0.0429589413 0.0371843837
-0.0102455169 0.0299079716 -0.0001712169
0.0088780522 0.0328509100 -0.0012129273
-0.0101291612 0.0364257880 0.0009376381
-0.0483377315 0.0498870648 0.0171226766
0.0017336401 0.0358599499 -0.0001473825
-0.0167895108 0.0495148413 0.0240517017
-0.0175522380 0.0515479930 0.0297052693
-0.0476844423 0.0524197258 0.0181482416
0.0181235913 0.0388670377 -0.0040964438
-0.0529486202 0.0526883416 0.0181170087
0.0138268378 0.0351308323 -0.0011434134
-0.0171284266 0.0458266474 0.0032490392
-0.0460584201 0.0516565181 0.0166114625
-0.0136330649 0.0345312208 0.0019683961
-0.0052504856 0.0369279608 0.0006131504
-0.0142444894 0.0378947146 0.0022319530
0.0178758577 0.0437394939 0.0003754024
-0.0052298903 0.0338962339 0.0001301889
-0.0531679429 0.0515628047 0.0166489538
-0.0178279728 0.0446276926 0.0015935723
-0.0169217214 0.0543647073 0.0359835438
-0.0502417870 0.0440603979 0.0170237701
-0.0501876958 0.0484481491 0.0162741300
-0.0098389424 0.0551359616 0.0376234017
-0.0094460919 0.0550113730 0.0372641943
0.0150455628 0.0308670811 -0.0022015001
-0.0179254189 0.0404179096 -0.0010614197
-0.0154746668 0.0409051962 -0.0020921852
-0.0529276840 0.0499663092 0.0165005829
-0.0189993680 0.0369379930 -0.0015205841
-0.0512248687 0.0485695936 0.0174298342
-0.0501901321 0.0450941063 0.0162116718
-0.0172249712 0.0329291672 -0.0014877941
-0.0495390408 0.0472616218 0.0161179584
-0.0152964257 0.0469088219 0.0137284668
-0.0164961331 0.0400119536 -0.0012956883
-0.0177142955 0.0517289452 0.0283934008
-0.0512629636 0.0449771620 0.0165942814
-0.0152447633 0.0358643085 0.0022348289
0.0067352969 0.0358942375 -0.0005147855
-0.0125560686 0.0521656536 0.0303299706
-0.0529467724 0.0527409501 0.0173595529
-0.0133271441 0.0517929010 0.0292914044
0.0185989253 0.0435617305 -0.0008115347
-0.0529781766 0.0496332832 0.0174402501
-0.0152638666 0.0388805903 -0.0037788849
-0.0443849303 0.0517610870 0.0165187996
-0.0182506964 0.0368610434 -0.0014362584
-0.0013687630 0.0386196710 0.0006752659
-0.0160847865 0.0540926866 0.0347185247
0.0019844361 0.0365402363 -0.0000775110
0.0090267509 0.0336404704 -0.0010770361
-0.0511159338 0.0458215810 0.0164615419
0.0067816377 0.0368908234 -0.0002228718
-0.0489384569 0.0463677607 0.0159930121
-0.0101252273 0.0379050262 0.0012209837
-0.0082708262 0.0379236415 0.0012516354
-0.0539684407 0.0462052114 0.0193507951
-0.0154120922 0.0338813849 -0.0013612758
0.0237117428 0.0561002232 0.0375999622
0.0057698656 0.0359910615 -0.0003934603
0.0125157228 0.0387476794 -0.0002232741
-0.0437295772 0.0521736629 0.0165240075
0.0168431085 0.0319192894 -0.0054918779
-0.0123791061 0.0516639762 0.0287369769
-0.0123111568 0.0522454791 0.0294475835
0.0141075533 0.0357025154 -0.0011043649
-0.0165599696 0.0408998467 -0.0006735872
-0.0002268684 0.0349111930 -0.0001408036
0.0181487575 0.0434685387 -0.0004367183
0.0190157443 0.0438146405 -0.0007074203
0.0245201103 0.0560524352 0.0376858674
0.0037719198 0.0368472897 -0.0000792469
-0.0527177043 0.0512166284 0.0184605923
-0.0500062592 0.0445075594 0.0169613045
-0.0505533554 0.0505227409 0.0185855385
-0.0122092068 0.0379083417 0.0016352062
-0.0149736488 0.0465020724 0.0126508446
-0.0111301951 0.0388483070 0.0016456295
-0.0172428191 0.0369952284 -0.0014050256
0.0196968187 0.0438179784 -0.0005226161
-0.0182200894 0.0409004278 -0.0008960466
-0.0172465406 0.0406123027 -0.0010614197
0.0196058843 0.0391214341 -0.0040990440
-0.0156499222 0.0432741083 0.0027805094
-0.0145575218 0.0339887626 0.0024503146
-0.0123766214 0.0360239558 0.0010756005
-0.0005255026 0.0447479002 0.0076219710
-0.0148739619 0.0411845595 0.0000942845
-0.0503989719 0.0451710112 0.0158888903
-0.0437329747 0.0524395667 0.0164927747
-0.0172476992 0.0425678082 -0.0001587223
0.0167156681 0.0375628062 -0.0042786477
-0.0062949210 0.0358953662 0.0005608622
-0.0490401499 0.0480165295 0.0156416129
-0.0160744898 0.0410849266 -0.0011863585
-0.0157752819 0.0419551991 0.0014374007
-0.0122107454 0.0369280167 0.0012624909
0.0190820787 0.0442480408 -0.0000775110
-0.0541674607 0.0469154902 0.0193273779
-0.0527977236 0.0522563644 0.0171955656
0.0107376073 0.0337540247 -0.0011263068
-0.0162876658 0.0421784259 0.0021245752
-0.0529393293 0.0510579981 0.0185022410
-0.0490181558 0.0513232537 0.0169613045
-0.0542005859 0.0490875356 0.0187042411
0.0087241400 0.0349213555 -0.0008349444
-0.0042381398 0.0359035097 0.0003503982
-0.0182551332 0.0418710820 -0.0005470689
0.0083132368 0.0384172909 -0.0000306542
-0.0112536512 0.0522426479 0.0297677498
-0.0531829782 0.0559581704 0.0272845309
-0.0452263542 0.0525514223 0.0164927747
-0.0153457746 0.0369286910 0.0023151312
-0.0434640385 0.0526986979 0.0165031832
0.0167357270 0.0328507163 -0.0054075597
0.0027489103 0.0350640491 -0.0003301452
0.0142275263 0.0365472212 -0.0010614197
-0.0162318461 0.0417642854 -0.0006813954
-0.0165300071 0.0427963398 0.0028742228
-0.0527284034 0.0520210676 0.0173673611
-0.0052332580 0.0358926654 0.0004534621
0.0168460924 0.0361846015 -0.0044972999
0.0038447697 0.0378966033 0.0002027650
-0.0012411588 0.0299138539 -0.0007547389
-0.0528791510 0.0519573130 0.0183267351
0.0178751964 0.0359229147 -0.0044276295
-0.0417165123 0.0521908067 0.0166020971
-0.0128854997 0.0513331555 0.0285495650
-0.0180124752 0.0431458987 0.0000568081
-0.0150520876 0.0480928533 0.0161179584
-0.0081605837 0.0367564373 0.0008782793
-0.0188571885 0.0415971689 -0.0006241228
-0.0122246183 0.0339612029 0.0005553414
-0.0150906183 0.0524668060 0.0310483854
-0.0105861798 0.0395499505 0.0016560454
-0.0514014028 0.0422089286 0.0172502305
-0.0154781081 0.0430698283 0.0017497514
-0.0145511515 0.0406364240 -0.0021234180
-0.0155750401 0.0433940925 0.0031865735
-0.0151159698 0.0464114584 0.0123384865
-0.0152924508 0.0469840653 0.0150247188
-0.0062525086 0.0308887474 -0.0002696018
-0.0462511294 0.0508886762 0.0165187996
0.0151119009 0.0319037996 -0.0021546509
-0.0489411615 0.0488053896 0.0154385837
-0.0526815467 0.0517181344 0.0166801866
0.0218967088 0.0574488305 0.0380763076
-0.0544449203 0.0469321571 0.0187729504
-0.0172220357 0.0419470482 -0.0003920968
-0.0032478832 0.0359904207 0.0003503982
0.0188160446 0.0415524170 -0.0032582979
0.0067781173 0.0348744355 -0.0007662352
0.0077723153 0.0359343998 -0.0006013985
-0.0132368058 0.0515440740 0.0282684546
-0.0120603628 0.0510379784 0.0276749860
0.0187587477 0.0431832187 -0.0016158472
-0.0502080806 0.0524738468 0.0195382070
-0.0443003811 0.0522026829 0.0164823588
-0.0179388337 0.0436538868 0.0003816534
-0.0164587051 0.0429123826 0.0000630443
-0.0151080973 0.0472544096 0.0144546749
0.0146430191 0.0319932252 -0.0018589597
-0.0513159893 0.0332096778 0.0367019586
-0.0504341982 0.0469506346 0.0162506979
-0.0524970777 0.0540766306 0.0176901277
0.0188827850 0.0426622741 -0.0024201523
0.0218986440 0.0562215932 0.0380763076
-0.0524907969 0.0530274622 0.0182388257
0.0194949955 0.0443355180 0.0001879905
-0.0449679457 0.0528181307 0.0165240075
0.0027678329 0.0380251147 0.0002913077
-0.0149749033 0.0427122228 -0.0015611823
-0.0156246722 0.0438723303 0.0002504636
0.0195980947 0.0432488136 -0.0015689905
-0.0152545422 0.0477529578 0.0152121307
-0.0178373158 0.0454432480 0.0026868109
-0.0452156030 0.0518702231 0.0164903831
-0.0523008518 0.0539213903 0.0181534346
-0.0442461334 0.0528405569 0.0165052693
-0.0427217223 0.0532526039 0.0166801866
-0.0490713455 0.0512540750 0.0185855385
-0.0467190631 0.0494582690 0.0158993062
-0.0463943891 0.0499644540 0.0164110865
-0.0531320162 0.0533197857 0.0178150591
-0.0178962909 0.0279532410 0.0089859040
-0.0173087195 0.0399406590 -0.0011600729
-0.0495373569 0.0452789180 0.0163600203
-0.0412845276 0.0524771698 0.0163053628
0.0197861176 0.0445241295 0.0007502262
-0.0103158988 0.0389092676 0.0015329395
0.0160020720 0.0435580947 0.0046858611
0.0017734299 0.0350158550 -0.0002842124
-0.0512182377 0.0533129759 0.0210999679
-0.0426228009 0.0535368733 0.0167270433
-0.0001672955 0.0378118381 0.0003508527
0.0187478568 0.0443186648 0.0001255174
-0.0012440925 0.0369003750 0.0003197019
-0.0492270254 0.0467938296 0.0158563685
-0.0541721843 0.0569958352 0.0293929260
-0.0156842172 0.0476393364 0.0145874294
-0.0528885834 0.0510263704 0.0177630093
-0.0152783394 0.0537458546 0.0335368030
0.0017118658 0.0379298627 0.0003009189
-0.0172653757 0.0338744931 -0.0014688398
-0.0439416058 0.0536589213 0.0165135916
-0.0422765426 0.0537466593 0.0166020971
-0.0409656577 0.0525369532 0.0157118943
-0.0525334962 0.0519040190 0.0184449833
-0.0432878770 0.0530821346 0.0165106263
-0.0125454338 0.0512649976 0.0283621531
-0.0431973077 0.0536848344 0.0165641736
-0.0021890942 0.0386458822 0.0006297429
-0.0403612517 0.0528653897 0.0155119793
-0.0144383535 0.0397466011 0.0027284597
0.0000569763 0.0387181528 0.0005055417
-0.0173372142 0.0308648236 -0.0013754319
0.0169194136 0.0346052721 -0.0052261157
-0.0422082506 0.0539663695 0.0164459180
-0.0172253177 0.0457198955 0.0029054557
-0.0519204400 0.0549227707 0.0182731878
-0.0143966228 0.0402516611 -0.0019047733
-0.0145446174 0.0474843271 0.0150559517
-0.0145242736 0.0428238474 -0.0018579240
-0.0487461872 0.0528763495 0.0193664189
-0.0399162136 0.0534871258 0.0155088650
0.0218971763 0.0568418019 0.0380971245
-0.0553603955 0.0572633110 0.0299551617
-0.0145571567 0.0405879021 -0.0015299495
-0.0415533371 0.0540272929 0.0162220653
-0.0164038315 0.0426638313 0.0029679213
-0.0171794258 0.0349266753 -0.0014327865
-0.0394296683 0.0532463454 0.0157118943
-0.0400029607 0.0537197329 0.0153683098
-0.0392955132 0.0535912924 0.0154099511
-0.0434175096 0.0524064265 0.0164615419
-0.0419529937 0.0520187356 0.0166567620
0.0236744937 0.0578993298 0.0376042984
-0.0188359618 0.0407180563 -0.0009364809
-0.0550032668 0.0572258495 0.0299239140
-0.0171588250 0.0453463458 0.0024837751
-0.0532584377 0.0466082953 0.0189291220
-0.0392783098 0.0539268441 0.0153292613
-0.0522578917 0.0549208783 0.0173777770
-0.0514599793 0.0537256040 0.0214435589
-0.0413959883 0.0545805730 0.0163178574
-0.0112430900 0.0349524878 0.0006936241
-0.0179325603 0.0451135971 0.0023744528
-0.0148637220 0.0410108753 -0.0004991915
-0.0528848805 0.0530602895 0.0179608297
0.0067818500 0.0338967815 -0.0009147252
-0.0408022068 0.0548655204 0.0161491912
-0.0409448110 0.0522625409 0.0157118943
-0.0529947467 0.0562975220 0.0173829775
-0.0521102212 0.0558784120 0.0173923504
-0.0405977853 0.0549032651 0.0163053628
-0.0384385325 0.0541209392 0.0154776322
-0.0431211479 0.0541930236 0.0166437533
-0.0392153300 0.0544924177 0.0153995426
-0.0408549272 0.0552523471 0.0164615344
-0.0163763314 0.0442162715 0.0012343649
-0.0505881794 0.0481168889 0.0169613045
-0.0405029692 0.0552792810 0.0166177135
-0.0523300804 0.0564129092 0.0170550104
-0.0109948553 0.0520661362 0.0283153038
-0.0433550589 0.0550788753 0.0170237776
-0.0530553572 0.0566041656 0.0174298268
-0.0411068834 0.0555986799 0.0166073050
-0.0407540016 0.0557151847 0.0170237776
-0.0421313532 0.0542959757 0.0163470116
0.0017902887 0.0339497961 -0.0004398252
-0.0438009761 0.0551975258 0.0172736552
-0.0154009871 0.0421462320 -0.0012800645
0.0181463659 0.0379566960 -0.0043348623
-0.0413267948 0.0553936772 0.0159617793
0.0119727179 0.0389859118 -0.0001764249
0.0245866943 0.0569532774 0.0377045982
-0.0161596201 0.0486742444 0.0218027662
0.0236746836 0.0569816418 0.0376077704
-0.0409884937 0.0558708422 0.0166177135
0.0160589311 0.0318917371 -0.0056460528
