# .PCD v0.7 - Point Cloud Data file format
VERSION 0.7
FIELDS x y z
SIZE 4 4 4
TYPE F F F
COUNT 1 1 1
WIDTH 1183
HEIGHT 1
VIEWPOINT 0 0 0 1 0 0 0
POINTS 1183
DATA ascii
0.0295369234 0.0023382045 -0.0183422416
-0.0227172803 0.0007882230 -0.0033076927
-0.0268377345 0.0017660856 -0.0156638250
-0.0256872047 0.0020121038 -0.0135320202
0.0627300963 0.0018096492 -0.0083157346
0.0176308881 0.0013607517 -0.0031619295
-0.0219326895 0.0014211312 -0.0007255822
0.0258239284 0.0013184194 -0.0022873357
0.0278677642 0.0002252832 -0.0120327324
-0.0236484539 -0.0007922407 -0.0060043335
-0.0205889810 0.0006706547 0.0093321577
-0.0229999367 -0.0012621209 -0.0045128465
-0.0226323884 -0.0014274195 -0.0033285171
-0.0221492629 -0.0011609457 -0.0013659075
0.0200213287 0.0020836517 -0.0130634904
0.0289676189 0.0006851293 -0.0139875263
0.0307828914 0.0024218652 -0.0222115070
-0.0201172102 0.0007321723 0.0054238513
-0.0195874181 0.0006918404 0.0053757057
-0.0239908863 0.0016547199 -0.0072715869
0.0176695921 0.0014811344 -0.0078940615
0.0175593719 0.0008626021 -0.0052078366
-0.0028134810 0.0016215723 0.0013984144
-0.0025450515 0.0016234070 0.0013671815
0.0276457611 0.0021957997 -0.0106271431
0.0297098402 -0.0003019460 -0.0200476870
-0.0249487739 0.0019986965 -0.0106661841
-0.0245029014 0.0018381942 -0.0097317398
0.0286757145 0.0023314469 -0.0135736689
-0.0264273454 0.0017481558 -0.0152616724
0.0238497127 0.0021711737 -0.0100883320
0.0179868732 0.0010670591 -0.0045362785
0.0266040061 0.0016800556 -0.0060935766
-0.0228513535 0.0006926432 -0.0046265051
0.0174643826 0.0018097758 -0.0120951980
0.0193602648 0.0013663936 -0.0101273805
0.0211044997 0.0017995629 -0.0161870122
-0.0232605878 0.0016230512 -0.0050811544
-0.0263419170 0.0023145713 -0.0151812360
-0.0219956469 -0.0002514347 -0.0005902350
0.0234296396 0.0015844144 -0.0200601816
0.0298850201 0.0017576963 -0.0213095918
-0.0234060306 -0.0002532620 -0.0053114817
-0.0208313260 0.0009149555 0.0099881068
-0.0209116172 0.0011823904 0.0102067515
0.0279778354 0.0022763908 -0.0123763168
-0.0206820983 -0.0002508704 0.0027415305
0.0298839230 0.0024826322 -0.0213408172
0.0296930969 0.0025550686 -0.0206848830
0.0607238635 0.0020403378 -0.0080658570
0.0274219383 -0.0010761246 -0.0066290349
-0.0239998195 0.0022075474 -0.0072068870
0.0295371767 0.0026568435 -0.0183266252
-0.0198614653 0.0013487618 0.0066146925
0.0293950532 0.0010665134 -0.0148126632
-0.0247337427 0.0022692196 -0.0086905584
-0.0242797155 0.0022531711 -0.0082845017
-0.0226767045 -0.0012930408 -0.0040443242
0.0241722427 0.0023659598 -0.0092840269
0.0193211045 0.0012802295 -0.0062854514
0.0276458245 0.0024234559 -0.0105959103
-0.0232374351 0.0021200944 -0.0051297471
-0.0242983866 0.0016482938 -0.0082493648
0.0286761038 0.0025533941 -0.0135528445
-0.0268058758 0.0024502389 -0.0157184824
-0.0259014163 0.0017173886 -0.0145940334
0.0211727917 0.0016637705 -0.0135944933
-0.0207627434 0.0005826019 0.0031319708
0.0218876246 0.0022542514 -0.0165930763
-0.0192131903 0.0007252600 0.0047457889
0.0175331924 0.0015387386 -0.0090185329
0.0187869892 0.0014043339 -0.0086593255
-0.0277231205 -0.0002634525 -0.0208410621
0.0228264816 0.0024404246 -0.0182485357
0.0258761253 0.0018546600 -0.0032243952
-0.0263441373 0.0025422722 -0.0151749924
-0.0207796525 0.0009755529 0.0031788200
-0.0213462766 0.0007025860 0.0008127540
0.0297033656 0.0020131357 -0.0202684104
0.0295359008 0.0017025378 -0.0183984712
-0.0200541038 0.0015630201 0.0078953430
-0.0220922697 0.0000665039 -0.0016470179
0.0647877529 0.0023479275 -0.0098618791
-0.0245937351 0.0019853041 -0.0103460327
-0.0202996414 0.0007630251 0.0048030540
0.0225066338 0.0025514103 -0.0135007873
0.0228251722 0.0024821442 -0.0144378394
0.0604991093 0.0023113135 -0.0088155046
0.0606921241 0.0022467375 -0.0073474497
-0.0226505715 0.0000269748 -0.0031619295
-0.0242645238 0.0024957061 -0.0083157420
-0.0245496202 0.0024295039 -0.0096276179
0.0235564299 0.0009937361 -0.0206536502
0.0155433668 0.0024874024 -0.0066915080
0.0153382290 0.0025004018 -0.0070038587
-0.0200992469 0.0016938206 0.0056620166
-0.0117324311 0.0004887208 -0.0119858757
-0.0247329455 0.0025097430 -0.0086905584
0.0209032185 0.0025818180 -0.0089092106
0.0276455861 0.0026551634 -0.0106583834
0.0261322428 0.0019069016 -0.0043592751
0.0262192935 0.0021789409 -0.0050360411
-0.0221733395 0.0016032830 -0.0026508048
0.0297074430 0.0007502511 -0.0201226547
0.0287501104 0.0027773716 -0.0135788694
-0.0268044490 0.0027908199 -0.0157184824
-0.0258321632 0.0024623163 -0.0146018192
-0.0256269071 0.0025551170 -0.0143441334
0.0220542140 0.0025458541 -0.0133758411
0.0228734445 0.0025799684 -0.0115642026
-0.0228374023 0.0016573966 -0.0047299340
-0.0263657067 0.0027683899 -0.0151312649
-0.0212756936 0.0017887466 0.0008486807
-0.0214395914 0.0011452176 -0.0002882853
-0.0009451828 0.0024735816 -0.0094714388
0.0307829194 0.0029335711 -0.0222050101
0.0296929758 0.0029710047 -0.0206848830
0.0468944460 0.0023804288 -0.0072068870
0.0238261689 0.0016563833 -0.0142879188
0.0237234645 0.0019803382 -0.0132196695
0.0279779267 0.0018256251 -0.0123763233
-0.0235373732 0.0010632891 -0.0062281787
-0.0226302352 0.0007662885 -0.0028912276
-0.0222459678 0.0006231256 -0.0025450438
-0.0206377562 0.0007355623 0.0018825606
0.0219173804 0.0022821017 -0.0171709210
0.0212314017 0.0026538596 -0.0106271431
0.0648848563 0.0025855359 -0.0099321529
-0.0200969446 -0.0011400525 0.0053496733
0.0602170229 0.0026533548 -0.0113455588
-0.0258268733 0.0020793080 -0.0124934539
-0.0253477972 0.0021840967 -0.0121889040
-0.0251582321 0.0020262934 -0.0112830848
0.0191204697 0.0013596080 -0.0100024417
-0.0202858690 -0.0003017262 0.0047562048
0.0240010992 0.0018468052 -0.0112830848
0.0217130035 0.0024536736 -0.0141611770
0.0295370985 0.0009551235 -0.0183578655
-0.0028860571 0.0026173498 -0.0043176264
-0.0280285943 0.0016940944 -0.0209074318
-0.0276256371 0.0020258389 -0.0209816173
0.0605360270 0.0025421921 -0.0086905584
-0.0238439087 0.0025522262 -0.0066915080
-0.0235108864 0.0025363844 -0.0062750429
-0.0232157242 0.0024929680 -0.0051765963
-0.0228560362 0.0024788007 -0.0048017725
-0.0226552505 0.0024614166 -0.0043566748
-0.0225223023 0.0024324246 -0.0030057505
0.0228026230 0.0024149194 -0.0177019164
0.0153581752 0.0027447958 -0.0071912706
-0.0200690534 0.0021965969 0.0056776479
-0.0203174595 0.0018280633 0.0048577189
-0.0247322191 0.0027502570 -0.0086905584
-0.0242602024 0.0027371533 -0.0083235502
0.0276453495 0.0028866008 -0.0107208490
-0.0267772544 0.0030106716 -0.0155310705
-0.0263046008 0.0029918551 -0.0150078833
-0.0258487742 0.0029808283 -0.0146877244
-0.0256537031 0.0025924817 -0.0135944933
0.0212035943 0.0025786981 -0.0141254887
0.0266772043 0.0024975855 -0.0061839372
-0.0207356866 0.0013761744 0.0030694976
-0.0193068627 0.0018266141 0.0049436167
-0.0046947729 0.0022844542 -0.0022561029
-0.0227107015 0.0012906156 -0.0033181012
-0.0249229316 0.0025922917 -0.0107156336
0.0245106928 0.0026219543 -0.0040677488
0.0228974614 0.0025615916 -0.0102523193
-0.0024985468 0.0018879808 0.0011797696
-0.0238776337 0.0010827817 -0.0066290423
0.0194362570 0.0011853818 -0.0044738054
-0.0215030443 0.0017942544 -0.0004574805
0.0246754400 0.0022299401 -0.0005069301
0.0307821501 0.0033439025 -0.0222232193
0.0296921395 0.0032841843 -0.0207161233
-0.0047879312 0.0025198199 -0.0019125193
-0.0044312645 0.0024049804 -0.0015314519
0.0279776733 0.0027277451 -0.0123919398
-0.0238569397 0.0018180944 -0.0066680834
-0.0235145148 0.0018010158 -0.0062724277
0.0030635742 0.0020661522 0.0031788200
0.0312929153 0.0021178667 -0.0222778842
0.0648336858 0.0028262399 -0.0100805312
0.0210390352 0.0027448926 -0.0071600378
0.0215306487 0.0027590394 -0.0075140297
0.0219290257 0.0026977304 -0.0059730932
0.0221496746 0.0026815832 -0.0055670366
0.0224970318 0.0026697926 -0.0052703097
0.0229516625 0.0026424564 -0.0045831278
0.0288562533 0.0019058175 -0.0139745176
-0.0206001345 0.0017017070 0.0016795248
-0.0253547896 0.0027974807 -0.0122489706
0.0229299273 0.0027509145 -0.0129385516
0.0177862160 0.0018868502 -0.0105855018
-0.0247424114 0.0019076429 -0.0086749420
0.0183298141 0.0010159221 -0.0058169216
0.0270637684 -0.0018898025 -0.0053640082
-0.0227208007 0.0022927448 -0.0032868683
-0.0225389693 0.0027875379 -0.0030890405
0.0142782833 0.0028573684 -0.0039115697
-0.0247169491 0.0029919520 -0.0087217987
-0.0242487472 0.0029791519 -0.0083469739
0.0276451167 0.0031177700 -0.0107833222
-0.0274300855 0.0027802158 -0.0182433352
-0.0272957552 0.0027437434 -0.0173544288
0.0217102077 0.0026705042 -0.0110227913
0.0237498302 0.0026557297 -0.0074411556
-0.0071750078 0.0027559418 -0.0016157851
0.0222158358 0.0024881475 -0.0120639652
-0.0267845858 0.0032374691 -0.0155154541
-0.0256828759 0.0031674132 -0.0135320202
-0.0280475486 0.0034294706 -0.0208566785
0.0274211448 0.0026078075 -0.0066993162
0.0184530653 0.0022811685 -0.0073786825
0.0274216868 -0.0002415944 -0.0066758916
-0.0220901202 0.0025175363 -0.0025840700
0.0257306676 0.0025198273 -0.0045362785
0.0176668447 0.0008947663 -0.0035992190
-0.0125693064 0.0028655753 -0.0047236905
-0.0114094708 0.0028408822 -0.0040208921
-0.0209582094 0.0006206408 0.0014046654
0.0307820942 0.0035486519 -0.0222232193
0.0296928491 0.0034908876 -0.0206848830
-0.0018517657 0.0027548317 -0.0014439896
-0.0015058017 0.0027692281 -0.0018188134
0.0279774349 0.0031795762 -0.0124231651
-0.0226400625 0.0017683692 -0.0043533295
-0.0221138168 0.0018280894 -0.0012565777
-0.0219182167 0.0019343495 -0.0007568151
-0.0136181209 0.0027787276 -0.0024435148
0.0267072227 0.0029454771 -0.0062125623
0.0587574691 0.0029792637 -0.0076754168
0.0581545420 0.0029114038 -0.0058481544
0.0226926859 0.0028673671 -0.0041380301
0.0294079203 0.0018040705 -0.0141567215
-0.0209182855 0.0016346890 0.0012214184
-0.0258097257 0.0027315989 -0.0125592723
0.0239787530 0.0017161258 -0.0124231726
-0.0247310121 0.0032312553 -0.0086905584
0.0584619157 0.0029028095 -0.0056295097
0.0601446331 0.0024595782 -0.0066915080
-0.0228483174 0.0028511863 -0.0048173964
-0.0225295555 0.0030395221 -0.0031098649
-0.0221152809 0.0030195378 -0.0025216043
0.0177506804 0.0026423857 -0.0046091601
-0.0279529970 0.0036453567 -0.0208098292
-0.0276099388 0.0034360588 -0.0209972411
-0.0239500571 0.0028198976 -0.0073123053
-0.0016534852 0.0026558600 -0.0052546859
0.0001115815 0.0027851351 -0.0054264739
-0.0009321983 0.0020337887 -0.0020999312
-0.0006720240 0.0020354912 -0.0021311641
-0.0245325882 0.0032655746 -0.0096588507
-0.0245451983 0.0032928865 -0.0104397312
0.0294197053 0.0021078754 -0.0135632530
-0.0194161031 0.0027433950 0.0054277554
0.0122052114 0.0028931275 -0.0048798621
0.0123716723 0.0031469855 -0.0052234530
0.0584266223 0.0029415656 -0.0066602752
0.0145375859 0.0031448118 -0.0051453635
0.0604924485 0.0024622325 -0.0067695901
0.0177068170 0.0029086601 -0.0052421987
0.0179375485 0.0030613709 -0.0061370805
0.0267068651 0.0000824090 -0.0061605051
0.0276459996 0.0033364333 -0.0105022043
-0.0231831316 0.0030208062 -0.0052468851
0.0238468479 0.0027059019 -0.0061761215
0.0243021492 0.0026741903 -0.0053796247
0.0258624107 0.0026753694 -0.0054108649
0.0271828622 0.0028049629 -0.0056685582
0.0238093864 0.0008857623 -0.0189357102
-0.0274247061 0.0034470670 -0.0182485431
0.0289668720 0.0033490658 -0.0139797255
-0.0071928892 0.0030045398 -0.0015533119
-0.0062157083 0.0029627085 -0.0015272796
0.0603407249 0.0024044942 -0.0109394938
-0.0220336411 0.0027501620 -0.0012019202
0.0249888636 0.0023634620 -0.0036929250
-0.0267859641 0.0034730341 -0.0157497227
-0.0263411608 0.0034541339 -0.0151749924
-0.0121363420 0.0030905735 -0.0041302219
0.0640463531 0.0029077996 -0.0101325810
0.0648331270 0.0030606631 -0.0100805312
0.0648248345 0.0023430809 -0.0097525641
0.0279774033 0.0034048185 -0.0124231651
-0.0238356236 0.0030413680 -0.0067071244
-0.0235431958 0.0030033048 -0.0063166916
-0.0226743538 0.0029570758 -0.0043098181
0.0224512983 0.0031113885 -0.0041770712
0.0229194462 0.0030952655 -0.0037241653
-0.0218910780 0.0024486035 -0.0008192882
-0.0210983511 0.0026421957 0.0008856356
-0.0205918308 0.0026140902 0.0016639084
-0.0070151966 0.0030263066 -0.0021623969
0.0267073382 0.0031848457 -0.0062437952
0.0274203233 0.0032240842 -0.0073474497
0.0591659322 0.0032269452 -0.0079565272
0.0586220101 0.0032192376 -0.0077222735
0.0648754612 0.0032906011 -0.0099555776
0.0139674451 0.0031179804 -0.0043957159
0.0135751395 0.0028470308 -0.0036460683
0.0150143281 0.0027758405 -0.0033649504
-0.0262763780 0.0036863144 -0.0152999461
-0.0205909852 0.0031349547 0.0016639158
0.0470037200 0.0018868130 -0.0063041970
0.0473304614 0.0017330311 -0.0060980394
-0.0258511286 0.0034850053 -0.0126886666
-0.0254003387 0.0034737661 -0.0123294592
0.0601913407 0.0025078896 -0.0106427595
0.0605196357 0.0030771308 -0.0103460252
-0.0245261360 0.0029084515 -0.0096744671
0.0233486854 0.0022651069 -0.0121264383
0.0624912605 0.0020821467 -0.0090653822
-0.0032272080 0.0030076988 -0.0015455037
0.0050197691 0.0027674865 -0.0016418099
0.0055994056 0.0030316077 -0.0020582825
0.0058832485 0.0028591026 -0.0014127567
0.0060628951 0.0027230419 -0.0004444644
0.0062945727 0.0029701069 -0.0003195181
0.0268989243 0.0006803442 -0.0052433163
-0.0225247201 0.0032910574 -0.0031202734
0.0158081073 0.0028358102 -0.0033337176
0.0180088598 0.0025314316 -0.0077222660
0.0186901130 0.0030704029 -0.0052807182
0.0199017264 0.0028402284 -0.0052457526
0.0197078027 0.0028200708 -0.0041802004
0.0198792834 0.0026116837 -0.0038178712
-0.0081200767 0.0029410906 -0.0012066066
-0.0062934775 0.0027715676 -0.0020062253
-0.0029975923 0.0027725622 -0.0019437522
-0.0018776788 0.0026656166 -0.0023654327
-0.0011993481 0.0027777161 -0.0020374581
0.0000798979 0.0030492451 -0.0026465431
0.0288200509 0.0026060771 -0.0139068365
0.0020059959 0.0028753877 -0.0026889369
0.0024550573 0.0026786812 -0.0026153103
-0.0027665666 0.0018862505 0.0012110025
0.0047393590 0.0029893629 -0.0022748411
0.0123734409 0.0034192167 -0.0061605051
0.0118584391 0.0029849522 -0.0040989816
0.0123792719 0.0028731860 -0.0043488666
-0.0247305166 0.0034717433 -0.0086905584
-0.0242476258 0.0034612343 -0.0083469674
0.0234615002 0.0035104752 -0.0088467374
0.0260301102 0.0035330392 -0.0095235035
0.0254661962 0.0035622250 -0.0103928819
0.0275308508 0.0035698973 -0.0106271431
0.0249164402 0.0029401053 -0.0060668066
-0.0273379367 0.0035244394 -0.0172698349
-0.0255936850 0.0035453476 -0.0144534633
-0.0071073640 0.0032506101 -0.0014049485
-0.0198797937 0.0018559154 0.0074268058
-0.0143149700 0.0032371748 -0.0011941120
-0.0131592471 0.0032742359 -0.0022717193
-0.0123860594 0.0032744743 -0.0022561103
-0.0119683798 0.0032519680 -0.0015689358
-0.0191028509 0.0025876909 0.0048342794
0.0551066250 0.0032040067 -0.0071912706
0.0557153337 0.0032034144 -0.0071912780
-0.0034028238 0.0032680780 -0.0018500462
-0.0021845459 0.0032617915 -0.0016392171
-0.0012999272 0.0032617077 -0.0016209930
-0.0242481548 0.0032201968 -0.0083469739
0.0284175724 0.0035514757 -0.0134070814
0.0217864513 0.0029813796 -0.0044113323
-0.0210776646 0.0031618178 0.0008361861
-0.0157752614 0.0032221172 -0.0007880479
-0.0092182625 0.0032437183 -0.0012487695
-0.0081796031 0.0032450855 -0.0012643859
0.0651349947 0.0035234131 -0.0099087283
0.0225746147 0.0033558644 -0.0042343363
-0.0201020781 -0.0003373250 0.0053730980
0.0009412223 0.0028666370 -0.0035406426
0.0527651571 0.0034495592 -0.0073474571
0.0537369475 0.0034483112 -0.0073318332
0.0014377737 0.0028737113 -0.0032244027
-0.0206716340 0.0026987176 0.0029133186
-0.0258504134 0.0038341582 -0.0126886666
-0.0253842752 0.0038247854 -0.0123606995
0.0185236633 0.0025600903 -0.0102315098
0.0568031743 0.0034578405 -0.0076910332
0.0575121120 0.0034598354 -0.0077691153
0.0587689281 0.0034686122 -0.0080658570
0.0598183498 0.0033774767 -0.0084094331
0.0625023544 0.0034398045 -0.0096588433
0.0114659565 0.0029448532 -0.0030057505
-0.0225155037 0.0035428703 -0.0031410977
0.0605064854 0.0026375726 -0.0071392208
0.0621995404 0.0029291697 -0.0095963851
-0.0042044688 0.0032628551 -0.0017094836
-0.0029101132 0.0032663047 -0.0017875805
0.0624321476 0.0029300041 -0.0096276179
0.0187682956 0.0025604311 -0.0084094405
0.0130024506 0.0021070428 -0.0034742802
0.0220437460 0.0025610272 -0.0084094405
0.0286385268 0.0030743666 -0.0135736689
-0.0199736077 0.0032785907 0.0054277554
-0.0196475666 0.0032827891 0.0053028241
0.0037747619 0.0028838515 -0.0034492910
0.0045674294 0.0028255954 -0.0031931624
0.0141391512 0.0036819037 -0.0069101527
0.0147655196 0.0036908146 -0.0071912631
0.0177972578 0.0037166178 -0.0080033848
-0.0242435951 0.0037025139 -0.0083547756
0.0259650648 0.0029241703 -0.0064455271
-0.0273312535 0.0039729476 -0.0172802433
-0.0210617427 0.0034219008 0.0007971376
-0.0150171611 0.0034740865 -0.0006943494
-0.0133642834 0.0035059992 -0.0016730428
-0.0121767987 0.0034962222 -0.0013315380
0.0640362278 0.0032904688 -0.0099191517
-0.0247301031 0.0037122238 -0.0086905584
0.0647376403 0.0036649741 -0.0097330362
0.0605000108 0.0029196721 -0.0082636774
-0.0248072725 0.0030645989 -0.0106896162
0.0237337891 0.0035513081 -0.0100649074
0.0231600795 0.0034476537 -0.0069726259
0.0006019881 0.0012287237 0.0100505725
-0.0205721501 0.0033968538 0.0016170666
0.0137685332 0.0036026239 -0.0062932596
-0.0091604050 0.0035015754 -0.0014361814
-0.0082264114 0.0035053436 -0.0015376955
0.0223371945 0.0036018956 -0.0043488666
0.0006915738 0.0027214661 -0.0068476796
0.0231831465 0.0021144524 -0.0136881992
-0.0258500334 0.0040669180 -0.0126886666
-0.0257593561 0.0037400182 -0.0133758485
0.0599977672 0.0028820839 -0.0112830848
-0.0245727096 0.0026982408 -0.0103850737
0.0606562719 0.0021062810 -0.0095026791
-0.0042968336 0.0029003341 -0.0015689209
0.0489475243 0.0035897307 -0.0074099228
-0.0021983108 0.0030098818 -0.0015845522
-0.0014015792 0.0030154660 -0.0017251074
0.0359446406 0.0039961152 -0.0169522762
0.0359617360 0.0037732888 -0.0167492479
0.0368844420 0.0039335378 -0.0149688423
0.0567310676 0.0037042312 -0.0079643419
0.0608473197 0.0035257097 -0.0091903210
0.0619284660 0.0036368314 -0.0096848831
0.0617189482 0.0034556147 -0.0100961477
0.0628306046 0.0037481487 -0.0095182955
0.0638583750 0.0036461707 -0.0095116049
0.0129339974 0.0029256400 -0.0035784021
-0.0225018654 0.0037948955 -0.0031723306
0.0155019201 0.0023722537 -0.0039428100
-0.0050409790 0.0036116242 -0.0022248775
-0.0041353684 0.0036339667 -0.0021713227
0.0231694542 0.0000870936 -0.0133446082
0.0078532901 0.0034809448 -0.0005485862
0.0074500218 0.0035001356 -0.0011628717
0.0078501534 0.0038414896 -0.0042863935
0.0088083763 0.0038150735 -0.0033805743
0.0038940643 0.0038898941 -0.0059626848
0.0119479448 0.0039344691 -0.0074411556
0.0148011418 0.0039676633 -0.0085656196
0.0158060137 0.0039535202 -0.0080814734
0.0164195411 0.0039613340 -0.0083469739
0.0178522188 0.0039702300 -0.0086489171
0.0185158215 0.0039561968 -0.0081699714
-0.0247297715 0.0039526988 -0.0086905584
-0.0242468547 0.0039432906 -0.0083469674
-0.0067695659 0.0028085597 -0.0030057505
0.0296930242 0.0039064437 -0.0206744671
0.0171376541 0.0018168986 -0.0122357607
-0.0018206651 0.0026680678 -0.0055670366
0.0440496132 0.0031775758 -0.0062073544
-0.0015241972 0.0026374161 -0.0047861561
-0.0001272953 0.0029496923 -0.0044217557
-0.0203840416 0.0033353623 0.0035953000
-0.0191680770 0.0036093462 0.0032933503
-0.0191359352 0.0033027530 0.0046781152
0.0028320921 0.0028178096 -0.0030213743
0.0557771586 0.0035429187 -0.0075465664
0.0120793162 0.0034055430 -0.0057544485
0.0126317292 0.0033925939 -0.0053640082
0.0129652973 0.0033523794 -0.0041614547
0.0139753940 0.0033975933 -0.0055045709
0.0604855344 0.0034273751 -0.0086515173
-0.0247813668 0.0035392623 -0.0107416734
0.0164991207 0.0036762785 -0.0067227408
0.0090303216 0.0031834226 0.0008518025
-0.0270729121 0.0027041472 -0.0163841993
-0.0211292263 0.0036855340 0.0006279424
-0.0203425605 0.0036541596 0.0017263815
-0.0201584641 0.0035615675 0.0026556328
0.0068082046 0.0034529045 -0.0022977516
0.0312936679 0.0027307980 -0.0222528949
-0.0161313098 0.0035832543 -0.0009692088
-0.0159182046 0.0037296228 -0.0007568151
0.0498544239 0.0032169092 -0.0074255317
0.0127221290 0.0039485060 -0.0079174861
0.0137079433 0.0039586592 -0.0082610771
0.0587503463 0.0038395412 -0.0085617229
0.0652780682 0.0039911326 -0.0098462626
0.0223412085 0.0038468316 -0.0044425726
-0.0270817969 0.0043967199 -0.0163588077
-0.0266705398 0.0043867547 -0.0159683675
-0.0257997904 0.0035559814 -0.0147814229
-0.0255536046 0.0040060263 -0.0145315453
-0.0152736511 0.0032202285 -0.0007151663
-0.0145012531 0.0032193009 -0.0006631091
0.0600554496 0.0029054824 -0.0118765533
0.0296949781 0.0043198913 -0.0205911770
-0.0114536937 0.0032253675 -0.0007568151
-0.0092641246 0.0029864572 -0.0011003986
0.0438718721 0.0034298934 -0.0065978020
-0.0250882115 0.0027742255 -0.0113351420
0.0458180606 0.0036858916 -0.0071886778
0.0467510112 0.0036901403 -0.0073370337
-0.0051501188 0.0028801411 -0.0015220791
0.0477281585 0.0037987158 -0.0074550360
0.0174600370 0.0018409993 -0.0112102032
0.0488733351 0.0039320812 -0.0075270459
0.0498295538 0.0036952030 -0.0075478703
0.0517318845 0.0036973953 -0.0076519772
-0.0002236816 0.0026622992 -0.0033129007
0.0527135655 0.0038131364 -0.0075738952
0.0294214599 0.0025497079 -0.0134695470
0.0364464819 0.0040805284 -0.0161792114
0.0557870790 0.0038943030 -0.0079596564
0.0046295132 0.0027398281 -0.0041458383
-0.0253645498 0.0042923912 -0.0123997405
0.0067927726 0.0038690139 -0.0052312613
0.0065329354 0.0041441098 -0.0064728633
0.0598623976 0.0039673410 -0.0089092106
0.0607669801 0.0039731916 -0.0091278469
0.0611083359 0.0034618862 -0.0102523193
0.0099567398 0.0041115414 -0.0052703023
0.0547994524 0.0036943406 -0.0076155365
0.0637959614 0.0039833058 -0.0095417276
0.0647054762 0.0039883610 -0.0097369403
-0.0238039326 0.0036540963 -0.0067747980
-0.0230774004 0.0037100911 -0.0052749068
0.0149271535 0.0030528754 -0.0042707771
0.0157414861 0.0036626626 -0.0062917024
0.0158247929 0.0042035915 -0.0086489171
0.0611072555 0.0033381581 -0.0111581460
0.0168473870 0.0040429179 -0.0091512799
0.0617564917 0.0039822496 -0.0094589517
0.0628227890 0.0039839707 -0.0095417202
0.0179271922 0.0037064850 -0.0076806173
0.0188008100 0.0038121045 -0.0072927848
0.0188776162 0.0034917239 -0.0062675998
0.0198268034 0.0035914704 -0.0061917379
0.0198121630 0.0039750971 -0.0072100088
-0.0239079986 0.0038325153 -0.0073058009
-0.0242285822 0.0041853804 -0.0083860168
0.0596305281 0.0027375296 -0.0076181516
-0.0050124768 0.0040835422 -0.0043020174
0.0206528958 0.0027623307 -0.0045623034
0.0213934928 0.0031352714 -0.0048486292
0.0283118337 0.0038675200 -0.0128136128
0.0232000779 0.0025467202 -0.0080658570
0.0011408420 0.0041495487 -0.0066915080
0.0015364436 0.0041388329 -0.0062958598
0.0027497334 0.0041389707 -0.0062958598
0.0041582603 0.0041490253 -0.0066602752
0.0044194963 0.0041354485 -0.0061605051
0.0140174394 0.0042362008 -0.0098462626
0.0070986021 0.0041568987 -0.0069413856
0.0078504086 0.0041429978 -0.0064291432
0.0110856760 0.0041647218 -0.0072225034
-0.0244696755 0.0042447001 -0.0105959103
-0.0247007776 0.0042529032 -0.0109082609
0.0150151020 0.0041962266 -0.0083782002
0.0229248423 0.0043167565 -0.0128136128
0.0242691413 0.0043141209 -0.0127199078
0.0245926008 0.0042992122 -0.0121732876
0.0190213453 0.0042038057 -0.0086593255
0.0197007544 0.0041952748 -0.0083469739
-0.0247441363 0.0041923150 -0.0086593255
0.0280849915 0.0043248739 -0.0131259635
0.0157888755 0.0034002718 -0.0055748448
0.0167171508 0.0033886302 -0.0052234605
0.0109957419 0.0028850399 -0.0013815239
0.0258069597 0.0042434055 -0.0101273805
0.0269577391 0.0042509679 -0.0104084983
0.0205706563 0.0038393773 -0.0062346980
0.0214527734 0.0041314028 -0.0060043335
0.0226432085 0.0036509689 -0.0059106275
0.0222247634 0.0020551570 -0.0210597068
0.0308209732 0.0039741341 -0.0222322419
-0.0258480515 0.0032095984 -0.0146877244
0.0446035787 0.0031885412 -0.0065249205
0.0547942668 0.0041792504 -0.0079643354
0.0105676949 0.0041349456 -0.0061292723
0.0458033830 0.0041629188 -0.0072771683
-0.0169924293 0.0039919782 -0.0010691658
-0.0161537398 0.0040054675 -0.0015533119
0.0128873941 0.0042183325 -0.0091903210
0.0591491610 0.0042021442 -0.0088623548
0.0585722104 0.0041996762 -0.0087634474
0.0135071576 0.0033676699 -0.0046143606
0.0298829358 0.0037230719 -0.0213658139
0.0301754195 0.0037440341 -0.0219561681
0.0312936120 0.0036517531 -0.0222466439
-0.0210329201 0.0039504971 0.0003884733
-0.0203527492 0.0038524996 0.0008309782
-0.0193808507 0.0039443076 0.0006487742
0.0470274165 0.0029760376 -0.0072662383
0.0234526899 0.0019562505 -0.0149688423
-0.0180628691 0.0039717369 -0.0003403425
-0.0171556044 0.0038526058 -0.0006318763
-0.0270856377 0.0046223290 -0.0163509920
-0.0265714470 0.0046121180 -0.0159215108
-0.0260729957 0.0044741165 -0.0153436586
-0.0152371060 0.0038346387 -0.0010925904
-0.0140625145 0.0040160492 -0.0019125193
-0.0142654721 0.0037052482 -0.0013346598
-0.0131755229 0.0038395151 -0.0015897453
-0.0204222407 0.0026709046 0.0036915913
-0.0123406742 0.0038370825 -0.0014908463
-0.0113255065 0.0040285792 -0.0023393929
-0.0112510789 0.0035649016 -0.0012075007
-0.0099539366 0.0034427941 -0.0015845448
-0.0093339477 0.0037610400 -0.0017094910
-0.0088943820 0.0037662629 -0.0018812791
-0.0253724549 0.0040587485 -0.0123841241
-0.0082260761 0.0037814751 -0.0023914501
-0.0074186642 0.0037730671 -0.0020921156
-0.0061238911 0.0039454587 -0.0022977516
-0.0061351378 0.0040480644 -0.0030057505
-0.0049174000 0.0038090013 -0.0032868683
-0.0045430530 0.0038086809 -0.0032712519
-0.0039735381 0.0040875711 -0.0044425726
-0.0032039641 0.0040900502 -0.0045284629
-0.0032036158 0.0038041174 -0.0030994564
-0.0021794683 0.0038064588 -0.0031681806
-0.0022431950 0.0035202876 -0.0019125193
-0.0010079986 0.0036153141 -0.0023029596
-0.0014974533 0.0037982557 -0.0028808117
-0.0001827667 0.0038059484 -0.0031306893
-0.0002055767 0.0040244870 -0.0043488666
0.0010828485 0.0034918208 -0.0040802434
0.0005146002 0.0034464747 -0.0034430400
0.0017428973 0.0034791194 -0.0031723380
0.0017483381 0.0033034012 -0.0028183386
0.0025735998 0.0033975486 -0.0031723306
0.0028483735 0.0035931766 -0.0041770712
0.0039981119 0.0034410544 -0.0044738054
0.0038443205 0.0036603548 -0.0052100718
0.0048099030 0.0040673483 -0.0054358542
0.0498021878 0.0041730274 -0.0076832250
0.0507648885 0.0038170163 -0.0076734498
0.0517382361 0.0041758381 -0.0078055561
0.0073400289 0.0038588047 -0.0048798621
0.0527946800 0.0041739512 -0.0077472478
0.0538217872 0.0039159190 -0.0076307803
0.0118302656 0.0037414618 -0.0062854514
-0.0247439574 0.0044328496 -0.0086593255
-0.0238259267 0.0043993238 -0.0072953925
-0.0276127923 0.0027856324 -0.0209972411
0.0598416328 0.0042050555 -0.0089794928
0.0145251229 0.0042191930 -0.0092215613
0.0617544875 0.0042174514 -0.0094651952
0.0177986156 0.0034356080 -0.0066212267
0.0198873784 0.0034088325 -0.0058169216
0.0644562989 0.0042239912 -0.0097525641
-0.0246050190 0.0038571265 -0.0095026791
0.0017055699 0.0044106729 -0.0075738952
0.0264911186 0.0038735941 -0.0093465000
0.0268355217 0.0034987628 -0.0085031465
-0.0007592144 0.0043681171 -0.0058793947
-0.0001464880 0.0043809339 -0.0063895732
0.0004351267 0.0043908712 -0.0067852139
0.0232049804 0.0041344576 -0.0142504275
0.0234184675 0.0041280352 -0.0140317827
-0.0030958971 0.0035242941 -0.0020530745
0.0048555043 0.0043843016 -0.0065275207
0.0054903366 0.0043883994 -0.0066915080
0.0059312321 0.0043989811 -0.0071131811
0.0065206531 0.0044138711 -0.0077066496
-0.0003273862 0.0034592915 -0.0022114888
0.0080820099 0.0044157635 -0.0077847391
0.0084898062 0.0044055395 -0.0073786825
0.0097149741 0.0044109710 -0.0075973272
0.0042047389 0.0033186618 -0.0032400116
0.0048009623 0.0035605934 -0.0031119511
0.0057909787 0.0035604946 -0.0030994564
0.0065485612 0.0035629924 -0.0031723380
0.0359628499 0.0042057112 -0.0167336240
0.0092453677 0.0040932354 -0.0045987442
0.0094458833 0.0040855892 -0.0043176264
0.0109238680 0.0037640780 -0.0044009238
0.0115752406 0.0034912396 -0.0047080740
0.0195228755 0.0044493191 -0.0091486797
-0.0242248345 0.0044265091 -0.0083938241
0.0213989764 0.0044572931 -0.0094714388
0.0251101255 0.0044656415 -0.0098150298
0.0254459586 0.0044499114 -0.0091903284
-0.0223667603 0.0042971391 -0.0031775460
0.0448645018 0.0038159546 -0.0070682913
0.0444557220 0.0034332629 -0.0067071244
0.0076541342 0.0044225883 -0.0080554411
0.0016346553 0.0038372185 -0.0041822791
0.0547346994 0.0044222083 -0.0082064196
0.0557639226 0.0044276137 -0.0084281862
0.0048175361 0.0032959227 -0.0025528371
-0.0276256148 0.0039769746 -0.0209660009
-0.0081117135 0.0040751770 -0.0040208921
-0.0069029871 0.0040589273 -0.0034118146
-0.0098943617 0.0043496378 -0.0051609799
-0.0094671417 0.0043536015 -0.0053171590
-0.0090575982 0.0043363944 -0.0046299845
0.0647580177 0.0044635963 -0.0099399611
0.0207824223 0.0044248868 -0.0081803808
-0.0213956144 0.0037146006 -0.0003819987
0.0298837610 0.0029991306 -0.0213408247
-0.0187847447 0.0039581377 0.0001490042
-0.0270895865 0.0048479680 -0.0163431838
-0.0273357574 0.0046448633 -0.0172698349
-0.0257883351 0.0003514811 -0.0128448457
-0.0132871335 0.0038952846 -0.0020843074
-0.0119833481 0.0040167794 -0.0019125193
-0.0101197604 0.0038854498 -0.0031515211
-0.0093241055 0.0040574521 -0.0033805743
-0.0086209010 0.0040635876 -0.0035992190
-0.0073695313 0.0040854104 -0.0043905079
-0.0204486754 0.0017421842 0.0037549436
-0.0206915382 0.0019077696 0.0029601753
0.0297017545 0.0046249833 -0.0203100666
0.0298883971 0.0045435503 -0.0211534128
-0.0043311883 0.0041015130 -0.0049579516
-0.0098732365 0.0029902551 -0.0012253448
0.0184070803 0.0025078785 -0.0125324950
-0.0011227990 0.0040869229 -0.0044009238
-0.0014998263 0.0040998925 -0.0048798621
0.0008218491 0.0039666742 -0.0053109080
0.0019888671 0.0041199066 -0.0055982694
0.0028623657 0.0038648061 -0.0051141307
0.0477990322 0.0041686315 -0.0075036213
0.0488642715 0.0041702874 -0.0075738952
0.0036570763 0.0041622948 -0.0071496293
-0.0023673235 0.0027432460 -0.0043957159
-0.0021142869 0.0028291419 -0.0034274235
0.0515688211 0.0041770190 -0.0078472123
0.0032703278 0.0031040050 -0.0041302219
0.0558149442 0.0041860975 -0.0082282797
0.0567982197 0.0040582251 -0.0083712637
0.0127569875 0.0036637951 -0.0063401088
-0.0247292314 0.0046741012 -0.0086905584
-0.0246924702 0.0045688152 -0.0093152672
-0.0244620163 0.0045998804 -0.0106115267
-0.0200211797 0.0027379990 0.0055527017
-0.0061724652 0.0043364037 -0.0046221763
-0.0203066971 0.0027630515 0.0048342794
0.0597373247 0.0030279215 -0.0079513341
-0.0053656530 0.0033389702 -0.0015116632
0.0467341915 0.0044038314 -0.0074333474
0.0013864913 0.0046756640 -0.0087842643
0.0271846224 0.0034683608 -0.0075973272
0.0275974087 0.0039120112 -0.0113330632
0.0284552556 0.0040334947 -0.0133550167
0.0295309220 0.0048982278 -0.0185921267
0.0189834312 0.0044633616 -0.0097057074
0.0199977793 0.0046850722 -0.0093048513
-0.0242139343 0.0046679638 -0.0084172487
0.0258110650 0.0047115646 -0.0104787797
0.0264987424 0.0047098920 -0.0104084983
0.0274213422 0.0016564727 -0.0066524670
-0.0117511917 0.0030645002 -0.0033805743
0.0440750904 0.0045396518 -0.0071662813
0.0448516235 0.0045178253 -0.0072459430
-0.0072320495 0.0035577957 -0.0015939251
0.0604692474 0.0029206965 -0.0093152672
0.0241227467 0.0036010332 -0.0115485862
0.0247972887 0.0035913195 -0.0112596527
0.0262602605 0.0042246561 -0.0094402060
0.0339227654 0.0045426488 -0.0129073188
0.0341835953 0.0046415403 -0.0123450831
0.0346309692 0.0045303628 -0.0124179646
-0.0276649948 0.0045171157 -0.0208931193
-0.0079484228 0.0046351627 -0.0069726184
-0.0084366072 0.0046265814 -0.0065978020
-0.0008456728 0.0046572797 -0.0079721510
-0.0005621763 0.0046500396 -0.0076598004
-0.0099137519 0.0046188105 -0.0062542111
-0.0104736146 0.0046059135 -0.0056919828
0.0207934678 0.0047233701 -0.0109707341
0.0205031540 0.0047003701 -0.0099712014
0.0648450479 0.0047005974 -0.0100414902
-0.0219860431 0.0036898628 -0.0012971833
-0.0215775352 0.0037302021 -0.0009234101
0.0301752221 0.0027182065 -0.0219717845
-0.0274389032 0.0047792960 -0.0182173103
-0.0214825664 0.0027842894 -0.0004416332
-0.0129380990 0.0032957904 -0.0029120445
-0.0098935831 0.0040738322 -0.0039896592
-0.0261335205 0.0040290970 -0.0153358579
-0.0138548631 0.0030310322 -0.0025059879
0.0301750973 0.0046679266 -0.0219616219
0.0308592394 0.0046610199 -0.0223140419
0.0312921181 0.0049830470 -0.0222778842
-0.0021187181 0.0040997937 -0.0048798621
0.0438921750 0.0039412845 -0.0070521310
0.0467368960 0.0041665398 -0.0074177310
-0.0202082638 0.0032934751 0.0049436167
-0.0196140725 0.0036169253 0.0030226484
0.0040507764 0.0028988980 -0.0051401556
0.0038940960 0.0031271297 -0.0047705397
0.0118596666 0.0042000301 -0.0085187638
0.0578057244 0.0038720164 -0.0083261654
0.0637518689 0.0042222142 -0.0096744746
0.0184683390 0.0042144544 -0.0090497658
0.0650196075 0.0042273775 -0.0098879039
0.0578878596 0.0032045152 -0.0072849691
0.0467287749 0.0046414174 -0.0074645802
0.0019028594 0.0046796650 -0.0089612603
0.0018968710 0.0049454551 -0.0104709715
0.0028710437 0.0049486123 -0.0106349513
0.0295440424 0.0050981138 -0.0179986581
0.0046200790 0.0045850575 -0.0074567720
0.0056704599 0.0038457066 -0.0044425726
0.0174800791 0.0042327680 -0.0097213229
-0.0247292053 0.0049145650 -0.0086905584
-0.0242174957 0.0049086642 -0.0084094405
-0.0115294028 0.0029389597 -0.0066446587
0.0440189391 0.0048728548 -0.0072225034
0.0448443517 0.0048744101 -0.0072927848
0.0457909070 0.0046388078 -0.0073526502
0.0467260554 0.0048785452 -0.0074801967
0.0239582341 0.0040020011 -0.0135359243
0.0233453009 0.0038433447 -0.0120327324
0.0340204462 0.0049963146 -0.0131415799
0.0344261304 0.0049744006 -0.0120951980
-0.0082413461 0.0048965197 -0.0079929754
-0.0082055945 0.0043544993 -0.0053483918
-0.0257032122 0.0050453953 -0.0149688423
0.0212576278 0.0050373543 -0.0150625482
0.0221387763 0.0048182271 -0.0150937811
-0.0172207262 0.0045498740 -0.0032431409
-0.0171899963 0.0042765960 -0.0022951514
0.0108380644 0.0050030518 -0.0133321062
0.0118269473 0.0049991589 -0.0131571963
0.0112989098 0.0047454406 -0.0118765533
0.0128724976 0.0047942270 -0.0120452195
-0.0007364901 0.0030581038 -0.0029120445
0.0120680705 0.0044716783 -0.0100180581
0.0115705524 0.0044658203 -0.0097837970
0.0194885209 0.0048227087 -0.0102991685
0.0648343787 0.0049357302 -0.0100727230
0.0012890992 0.0016500726 0.0067084059
0.0260065887 0.0044074692 -0.0075036213
-0.0272424240 0.0017418265 -0.0174645334
-0.0221001934 0.0035958700 -0.0025104359
0.0212313551 0.0021238849 -0.0183110088
-0.0219334271 0.0032228660 -0.0010379329
0.0249679405 0.0025651492 -0.0026413426
-0.0270704608 0.0037181899 -0.0163268372
-0.0266710762 0.0040470790 -0.0159683675
-0.0139415693 0.0030739941 -0.0037241578
-0.0131554212 0.0029528104 -0.0037710145
-0.0114222933 0.0030726176 -0.0035992190
-0.0256223995 0.0030849241 -0.0143987983
-0.0208530594 0.0042363387 -0.0007255822
-0.0205850359 0.0042364188 -0.0007255822
0.0028345080 0.0046900231 -0.0094167814
0.0308827367 0.0051874295 -0.0222653821
0.0032952761 0.0051853005 -0.0109707341
0.0046934187 0.0051744115 -0.0104241148
0.0059042871 0.0049356055 -0.0100544989
-0.0256716739 0.0052746776 -0.0150313079
0.0078399461 0.0049430430 -0.0104334876
0.0091421790 0.0049605221 -0.0112830848
0.0086210277 0.0049390495 -0.0102523193
0.0100392886 0.0047117919 -0.0104084983
0.0104206353 0.0047167744 -0.0106271431
0.0109329335 0.0044564363 -0.0094089732
-0.0258649942 0.0046480484 -0.0126574337
-0.0250219014 0.0047334228 -0.0112914070
-0.0253546331 0.0048757344 -0.0124192536
0.0058478825 0.0040540546 -0.0053874403
0.0128172310 0.0044818390 -0.0104241148
0.0136925001 0.0048831329 -0.0112622604
0.0134160044 0.0050949510 -0.0123763168
0.0139706526 0.0052233990 -0.0131884366
0.0144433118 0.0052268021 -0.0133758411
0.0148456590 0.0049743038 -0.0120014921
0.0160885416 0.0047462303 -0.0119390264
0.0158969797 0.0046150982 -0.0111971870
0.0155955786 0.0044840146 -0.0105178282
0.0170897581 0.0043685157 -0.0105021959
0.0177882612 0.0041622426 -0.0092684105
0.0630879328 0.0049307067 -0.0098462626
0.0177792199 0.0044833124 -0.0104959682
0.0186069142 0.0050907526 -0.0122123286
0.0192999151 0.0052074157 -0.0124075487
-0.0246818680 0.0048436373 -0.0109473020
-0.0244545583 0.0050731730 -0.0106271431
-0.0246924069 0.0049275998 -0.0093152672
0.0148953162 0.0034213159 -0.0062073618
0.0597092360 0.0037657693 -0.0087426230
0.0231187008 0.0047403835 -0.0144646168
0.0225125067 0.0050578006 -0.0160464570
-0.0052247960 0.0043538995 -0.0053171590
-0.0053660292 0.0046251491 -0.0065509453
-0.0042700078 0.0043729581 -0.0060746148
0.0249649268 0.0052313078 -0.0137194321
-0.0247292649 0.0051550306 -0.0086905584
-0.0242175590 0.0051495433 -0.0084094405
-0.0141698252 0.0048474986 -0.0055748448
-0.0131068919 0.0047851373 -0.0055358037
0.0225139167 0.0052760504 -0.0160776898
-0.0260285530 0.0049280915 -0.0154061317
-0.0067767408 0.0043593068 -0.0055358037
0.0508057699 0.0032180920 -0.0074801967
0.0515267327 0.0032177735 -0.0074880058
0.0216657966 0.0048038810 -0.0144690797
0.0294265114 0.0053210966 -0.0184984207
0.0160360746 0.0042183325 -0.0091903210
0.0241315346 0.0048200022 -0.0123986369
0.0170186423 0.0036913697 -0.0072016865
0.0249664541 0.0046305899 -0.0102835521
-0.0179407094 0.0051200613 -0.0069882348
-0.0274473671 0.0021121856 -0.0182173103
-0.0175679009 0.0051073972 -0.0063270926
-0.0161032137 0.0050911587 -0.0055045635
-0.0150724743 0.0048397165 -0.0051922128
-0.0152513478 0.0042754933 -0.0022352785
0.0127982227 0.0050727576 -0.0131155476
0.0132178757 0.0052124206 -0.0125949606
0.0203715116 0.0052554961 -0.0149688423
0.0149491075 0.0046626013 -0.0103022978
-0.0181458835 0.0048404485 -0.0051922128
0.0198499151 0.0052338056 -0.0138131380
0.0580589846 0.0050860345 -0.0088701621
0.0588266328 0.0048145242 -0.0089698359
0.0584366173 0.0044368654 -0.0088155046
0.0057795998 0.0032897759 -0.0023576170
0.0065799709 0.0032521710 -0.0012253448
0.0353069901 0.0040798914 -0.0124387890
-0.0257444102 0.0000088681 -0.0129385516
-0.0023008923 0.0051561017 -0.0092944419
-0.0011940917 0.0049244259 -0.0094245896
-0.0011902920 0.0050951466 -0.0102002546
-0.0005011114 0.0051999297 -0.0116579086
0.0270630606 0.0018362906 -0.0054342896
-0.0228030253 0.0050544012 -0.0033961907
-0.0222453866 0.0047370624 -0.0032035708
-0.0193215664 0.0048265308 -0.0045154542
-0.0195258614 0.0050886348 -0.0052859187
-0.0280790422 0.0056004617 -0.0207942054
-0.0184036177 0.0051164404 -0.0067852139
-0.0171690714 0.0050054528 -0.0052807182
-0.0276585985 0.0056021009 -0.0209035352
-0.0152557809 0.0051013753 -0.0060668066
-0.0223901514 0.0040446632 -0.0031228811
-0.0140383933 0.0051179044 -0.0069726259
-0.0146557298 0.0051123016 -0.0066602752
-0.0132235233 0.0051208530 -0.0071496218
-0.0124744605 0.0051271766 -0.0075036213
-0.0126822013 0.0048528276 -0.0058481544
-0.0101702008 0.0048837662 -0.0073578581
-0.0091163944 0.0046223328 -0.0064103901
-0.0091945026 0.0048906319 -0.0076988479
-0.0216080677 0.0032170955 -0.0008505210
-0.0061555933 0.0051567890 -0.0092340633
-0.0052208547 0.0051622987 -0.0095495284
-0.0040970389 0.0050810538 -0.0094297975
-0.0041345190 0.0049063154 -0.0085187638
-0.0041758660 0.0046420880 -0.0072927848
-0.0032839461 0.0046349503 -0.0069882497
-0.0022991581 0.0046357140 -0.0070272833
-0.0021712503 0.0049039237 -0.0084328726
-0.0225968678 0.0052762423 -0.0016938746
-0.0001648127 0.0049306694 -0.0097369477
0.0011630261 0.0046771374 -0.0088467374
0.0006238872 0.0046712197 -0.0085864365
0.0302729681 0.0051844362 -0.0221217051
0.0030578205 0.0051948354 -0.0114704892
0.0026112625 0.0052060336 -0.0120535493
-0.0263119508 0.0032195393 -0.0149922669
0.0057287067 0.0051947385 -0.0115225548
0.0069349799 0.0051995851 -0.0118036717
0.0077672638 0.0052022748 -0.0119624510
0.0087615903 0.0052104648 -0.0124153644
0.0094393361 0.0049689580 -0.0116891414
-0.0258184467 0.0053481143 -0.0127511397
-0.0257970113 0.0053577516 -0.0132977590
-0.0255330745 0.0053803846 -0.0145705938
-0.0256717671 0.0055026598 -0.0150313079
-0.0145213921 0.0042902399 -0.0028183386
-0.0140168350 0.0042985473 -0.0031463131
0.0168371350 0.0045926403 -0.0112268627
0.0177438073 0.0047336109 -0.0114002153
0.0180744343 0.0049861483 -0.0125949606
0.0177908018 0.0051107928 -0.0132144615
0.0184563920 0.0052211285 -0.0131259635
0.0195752755 0.0052203164 -0.0130947232
0.0226180963 0.0047596078 -0.0152767301
-0.0132421656 0.0053837467 -0.0084719211
0.0293222442 0.0055320412 -0.0184047148
0.0234149974 0.0046806410 -0.0139380768
0.0567257553 0.0032141544 -0.0075223595
0.0269727223 0.0050426535 -0.0153436661
-0.0245146845 0.0037685670 -0.0105022043
0.0291649178 0.0048226863 -0.0153124258
0.0261672046 0.0039436128 -0.0116188601
0.0268471520 0.0039346479 -0.0113260373
0.0280014742 0.0038477387 -0.0121826604
0.0357634500 0.0045247599 -0.0165149793
0.0364275724 0.0044127554 -0.0163900405
0.0238488521 0.0025528260 -0.0081986040
-0.0247440059 0.0053949803 -0.0086593255
-0.0242248718 0.0053901672 -0.0083938241
0.0355777591 0.0041054860 -0.0133133754
0.0088038146 0.0034945644 -0.0009754598
0.0102090463 0.0034997594 -0.0011316389
0.0106622800 0.0033928081 -0.0016782507
0.0111720506 0.0033017211 -0.0026621670
-0.0229662415 0.0046973042 -0.0053796321
0.0085433591 0.0031607840 0.0015233532
-0.0120556001 0.0053981617 -0.0093777338
0.0064833239 0.0052005406 -0.0118453205
0.0528247356 0.0047748610 -0.0081419721
0.0087141078 0.0046839137 -0.0091903210
0.0177130103 0.0054208916 -0.0143253952
0.0190822650 0.0054590255 -0.0139693096
-0.0253374372 0.0054591708 -0.0124544054
0.0138493991 0.0045663901 -0.0103616416
0.0232103094 0.0053547118 -0.0143909901
0.0087624285 0.0041144732 -0.0053796247
0.0608070642 0.0048032999 -0.0093948990
0.0368558131 0.0041629281 -0.0152811930
0.0096659493 0.0037901551 -0.0025268123
0.0260174796 0.0044322014 -0.0084875301
-0.0101350341 0.0054073259 -0.0100024417
-0.0092454683 0.0054149888 -0.0104943961
0.0199095681 0.0054965150 -0.0162182525
-0.0246558916 0.0054343231 -0.0110019678
-0.0108941551 0.0054062828 -0.0099087358
-0.0114238393 0.0054045524 -0.0097837970
0.0195090026 0.0054798592 -0.0152187198
0.0201066229 0.0052431803 -0.0143129006
0.0185827743 0.0054478962 -0.0132977590
0.0648212284 0.0054052118 -0.0101117641
-0.0007828439 0.0051965173 -0.0114704967
-0.0129353944 0.0029071216 -0.0058481544
-0.0227603968 0.0050735455 -0.0044113323
-0.0226285700 0.0045763291 -0.0044113398
-0.0188359786 0.0051083788 -0.0063479170
0.0210288949 0.0037192106 -0.0055323243
0.0217540022 0.0036172569 -0.0041273832
0.0214111246 0.0033879597 -0.0051922128
-0.0226748046 0.0037032589 -0.0043059215
-0.0112711433 0.0051380992 -0.0081127062
-0.0104431007 0.0051427092 -0.0083782151
-0.0092231501 0.0051558372 -0.0091044232
-0.0082283560 0.0051638596 -0.0095547363
-0.0072081517 0.0051738899 -0.0101117641
0.0233095251 0.0029999278 -0.0044425651
-0.0066618156 0.0051703751 -0.0099399686
0.0257200114 0.0023647361 -0.0037241578
-0.0044600200 0.0051724631 -0.0101065561
-0.0031912199 0.0048998091 -0.0082220361
-0.0032063613 0.0051599853 -0.0094776908
-0.0229178648 0.0052743629 -0.0015689284
-0.0229930449 0.0054135416 -0.0023341924
-0.0221192595 0.0052843224 -0.0021936372
-0.0001221264 0.0049342588 -0.0099087358
0.0009018516 0.0049408339 -0.0102367019
0.0007985064 0.0052008238 -0.0117359981
0.0017841549 0.0052049644 -0.0119780675
-0.0121645350 0.0031270050 -0.0051609799
0.0062595140 0.0052012168 -0.0118765533
-0.0212649051 0.0044425111 -0.0013580844
-0.0212350395 0.0046598427 -0.0025606528
-0.0203216467 0.0046554115 -0.0023654327
-0.0191823486 0.0044004433 -0.0022404864
-0.0194028709 0.0042523853 -0.0013502836
0.0098461341 0.0049770419 -0.0120795816
0.0108451266 0.0047285911 -0.0111425295
0.0118482346 0.0047419425 -0.0117281824
-0.0259485152 0.0054888353 -0.0155529454
-0.0142079424 0.0045766775 -0.0044113323
0.0165703092 0.0047524069 -0.0122097284
0.0167749077 0.0049978234 -0.0131415799
-0.0259099472 0.0046580359 -0.0130712986
0.0208282657 0.0049474388 -0.0134305060
0.0220435243 0.0045498908 -0.0131571963
0.0457816087 0.0053505898 -0.0074099228
0.0218897872 0.0050179996 -0.0162244961
0.0291139316 0.0057410896 -0.0181548297
-0.0247442182 0.0056355149 -0.0086593255
-0.0241324101 0.0056298394 -0.0083157346
-0.0180174690 0.0056427009 -0.0095859692
-0.0175940823 0.0056350473 -0.0090966150
-0.0150809828 0.0056337826 -0.0091747046
-0.0142808538 0.0056401845 -0.0096588582
0.0117909685 0.0053058323 -0.0151999891
0.0124440892 0.0054804925 -0.0151250139
0.0159389954 0.0052525252 -0.0147606060
0.0100346114 0.0044243000 -0.0081283301
0.0179466084 0.0053435713 -0.0137038156
-0.0257877056 0.0056979656 -0.0128136128
-0.0253337789 0.0056923423 -0.0124622136
0.0139406109 0.0043477863 -0.0096900910
0.0597859323 0.0047981683 -0.0091688409
0.0357245579 0.0041741580 -0.0156560168
0.0073252991 0.0035236422 -0.0019125193
-0.0191782136 0.0054902956 -0.0073786825
-0.0171866436 0.0053666793 -0.0072912276
-0.0165434647 0.0053558517 -0.0066758916
0.0114710927 0.0057348795 -0.0174260139
0.0127346469 0.0057192817 -0.0164056644
0.0127385706 0.0053710137 -0.0142816678
0.0057358574 0.0046703257 -0.0085812360
0.0518233627 0.0047656447 -0.0080401227
0.0588338748 0.0055026561 -0.0091200396
0.0191625990 0.0057168528 -0.0164056569
0.0183619056 0.0056914445 -0.0146564916
0.0648133606 0.0056398883 -0.0101351887
0.0104023013 0.0032366458 -0.0007255822
0.0200711247 0.0044365861 -0.0086437091
-0.0280120466 0.0027808324 -0.0209253877
0.0205678921 0.0044000410 -0.0071912706
-0.0233801510 0.0047415681 -0.0062698275
0.0100831203 0.0032208655 -0.0002570525
0.0104925390 0.0029773861 -0.0004756972
0.0250687115 0.0032376312 -0.0077222660
0.0188985039 0.0026081931 -0.0037345737
0.0187476501 0.0028256513 -0.0043238774
0.0340205915 0.0049593206 -0.0113299415
-0.0280874874 0.0046794601 -0.0204787329
-0.0099178161 0.0051513072 -0.0088467374
0.0233515576 0.0026853736 -0.0056607425
-0.0293647293 0.0039017908 -0.0187170655
-0.0273224730 0.0041974708 -0.0172958672
-0.0229776781 0.0055211484 -0.0034742802
-0.0224502850 0.0058125202 -0.0039115697
0.0000384857 0.0052051935 -0.0119494358
-0.0212526564 0.0053079110 -0.0036304519
-0.0206783321 0.0053201299 -0.0043800995
-0.0199010801 0.0053406246 -0.0056295097
-0.0194506515 0.0053481963 -0.0060980394
-0.0180753227 0.0053777341 -0.0079096779
-0.0220338535 0.0045756064 -0.0016001686
-0.0220492687 0.0047792178 -0.0022014454
-0.0153447445 0.0053689368 -0.0075036213
-0.0212366749 0.0047955588 -0.0030369833
-0.0142075103 0.0053799637 -0.0082064122
-0.0204004850 0.0050607137 -0.0037866309
-0.0189194996 0.0045497827 -0.0032400116
-0.0181763973 0.0042719934 -0.0021207482
0.0094450284 0.0052230451 -0.0130947232
-0.0029161072 0.0028753318 -0.0046768337
-0.0264333170 0.0056631807 -0.0159939229
-0.0160736907 0.0042815302 -0.0024825633
-0.0152283404 0.0046344735 -0.0042473525
0.0157890804 0.0050029121 -0.0133758485
-0.0122279581 0.0042882394 -0.0027246326
-0.0179227088 0.0035236776 0.0017888546
-0.0113718146 0.0043044090 -0.0033649579
-0.0110384990 0.0044520479 -0.0043644831
-0.0103396159 0.0043346994 -0.0045675114
0.0440593436 0.0054424927 -0.0072724894
-0.0066389386 0.0043499060 -0.0051609799
-0.0062173624 0.0046164393 -0.0061683208
0.0146598946 0.0059857573 -0.0203829408
0.0264507029 0.0059579164 -0.0184359476
0.0256066266 0.0039563943 -0.0120379338
-0.0247444976 0.0058760531 -0.0086593255
-0.0243274700 0.0058728661 -0.0084510893
-0.0233191308 0.0058638789 -0.0078472123
-0.0193128344 0.0058796126 -0.0094714388
-0.0171750244 0.0058775786 -0.0095182955
-0.0165491533 0.0058770142 -0.0095339119
0.0143039627 0.0059920959 -0.0208722949
0.0235882327 0.0054055154 -0.0141411051
0.0187939778 0.0048934706 -0.0113009298
0.0457766131 0.0057062320 -0.0074411556
-0.0032235945 0.0043557305 -0.0053874329
-0.0018549098 0.0043688938 -0.0059106275
0.0440143347 0.0051104613 -0.0072537363
0.0457853712 0.0051133335 -0.0073864907
0.0296548158 0.0049155150 -0.0193417668
0.0024767013 0.0044163503 -0.0078003556
0.0040878393 0.0044084638 -0.0074880058
0.0488488525 0.0047640391 -0.0076539367
0.0249418467 0.0039751008 -0.0126522332
0.0571010038 0.0058504380 -0.0088467374
-0.0015205427 0.0035157166 -0.0017563403
