# .PCD v0.7 - Point Cloud Data file format
VERSION 0.7
FIELDS x y z
SIZE 4 4 4
TYPE F F F
COUNT 1 1 1
WIDTH 1195
HEIGHT 1
VIEWPOINT 0 0 0 1 0 0 0
POINTS 1195
DATA ascii
0.0275340043 0.0069156978 -0.0050535705
0.0281251613 0.0069157928 -0.0050598215
0.0099057062 0.0062316433 0.0000627579
-0.0255145263 0.0066074617 -0.0007133170
0.0184642505 0.0051877350 0.0001460479
0.0255621448 0.0068133399 -0.0047662091
0.0134390192 0.0050837137 0.0036860423
0.0176187232 0.0043699425 0.0013567822
0.0189567059 0.0042847004 0.0020305754
-0.0174714942 0.0070666671 0.0029676349
-0.0163340997 0.0070674662 0.0027333663
-0.0143089416 0.0070786905 0.0014058666
-0.0240936074 0.0070964489 0.0011559890
0.0132660493 0.0045151729 0.0003188865
-0.0183713082 0.0037044380 0.0055367295
-0.0178345349 0.0038844906 0.0057631824
0.0245729033 -0.0004110280 -0.0046650302
0.0015467060 0.0039973687 0.0036704184
0.0026561683 0.0040378105 0.0026787014
0.0036594188 0.0040081479 0.0023741664
-0.0294508133 0.0046381373 -0.0005834235
-0.0301048514 0.0072318930 -0.0004838614
0.0155780995 0.0033625085 0.0013277770
0.0160639156 0.0036835391 0.0012184621
0.0184631050 0.0038127489 0.0017405243
0.0136743998 0.0053036679 0.0035298632
0.0601615421 0.0038879402 0.0344839618
0.0165252201 0.0045199860 0.0013590099
-0.0127062099 0.0072944649 0.0010466666
-0.0114837484 0.0072948579 0.0007655562
-0.0054498734 0.0072907954 0.0001439617
-0.0037924638 0.0072893854 0.0000315176
-0.0240783747 0.0073144063 0.0011247562
-0.0238076430 0.0072977673 0.0029676349
0.0134700434 0.0053989179 0.0000315176
0.0275781099 0.0072000995 -0.0050355252
0.0281251781 0.0072112978 -0.0050598215
0.0145353256 0.0072871037 -0.0019128679
-0.0301322918 0.0075564981 -0.0004370047
-0.0237986390 0.0040542241 0.0010310502
0.0185019355 0.0045127068 0.0015668438
0.0265212972 0.0073226653 -0.0049192738
0.0271409787 0.0074075591 -0.0049661156
0.0276330002 0.0075065773 -0.0050285812
0.0281252041 0.0075068157 -0.0050598215
-0.0186922196 0.0070368890 0.0008904876
0.0045448290 0.0074610244 -0.0011293872
0.0055473140 0.0074168369 -0.0011319949
-0.0014768700 0.0066032391 0.0005469115
-0.0005976792 0.0065461844 0.0003081576
0.0005484939 0.0067624077 -0.0001598059
-0.0067118453 0.0053418595 0.0020305754
-0.0185067188 0.0036266204 0.0065128300
-0.0165199284 0.0073986296 0.0023523064
-0.0162657034 0.0038909223 0.0056850929
0.0269434471 0.0071121007 -0.0049973484
-0.0624434464 0.0025841929 0.0421886519
-0.0144144455 0.0074372776 0.0014787482
0.0024178689 0.0059039723 0.0008123980
0.0442075245 0.0064821579 0.0198658872
0.0044514081 0.0051998198 0.0011184977
-0.0154410349 0.0057283193 0.0039359201
-0.0084339352 0.0068517756 0.0006270872
0.0145379892 0.0074911863 -0.0019362925
-0.0156202549 0.0065316930 0.0036091597
-0.0301328842 0.0077731963 -0.0004370047
0.0176401399 0.0035061929 0.0005250366
0.0255620535 0.0074060410 -0.0047537368
0.0265495759 0.0077030752 -0.0049036425
0.0277319811 0.0077035762 -0.0050077569
0.0044996655 0.0077026114 -0.0012428819
0.0055690268 0.0077017248 -0.0013615696
-0.0002476211 0.0068898238 -0.0000621809
-0.0161785204 0.0077260099 0.0020826326
-0.0167024788 0.0077277441 0.0019681023
-0.0148003297 0.0077255648 0.0014995725
-0.0162719805 0.0058376677 0.0039827768
0.0143357543 0.0076953173 -0.0019571243
-0.0163194723 0.0064654518 0.0034236626
0.0255620312 0.0079000890 -0.0047474708
0.0265495889 0.0079003926 -0.0048973989
0.0277320016 0.0079007056 -0.0050077569
0.0045351824 0.0079092719 -0.0014052971
0.0057017608 0.0079078078 -0.0014990030
-0.0171117391 0.0079448987 0.0023897828
-0.0165136661 0.0079442002 0.0020618082
-0.0161442477 0.0079434160 0.0019993426
-0.0184331927 0.0066493005 0.0015426965
-0.0177952629 0.0069059934 0.0017931850
-0.0092123942 0.0079317857 -0.0000153317
-0.0095113153 0.0075503271 0.0002293454
-0.0204671640 0.0078888200 -0.0000257476
-0.0202996787 0.0046949778 0.0034852491
-0.0194597896 0.0046676137 0.0034601928
-0.0105578462 0.0060100406 0.0009685771
-0.0094814012 0.0057664216 0.0015954988
-0.0085773813 0.0059606954 0.0012559386
-0.0061181458 0.0059044119 0.0008748712
-0.0053737918 0.0059300866 0.0003974230
-0.0037758918 0.0059568994 0.0008826794
0.0007059582 0.0044833552 0.0021867470
0.0013978247 0.0048184786 0.0025888996
0.0025418373 0.0044362321 0.0025459470
0.0034770770 0.0043476131 0.0022960843
0.0053719124 0.0047687348 0.0026865171
0.0148477806 0.0060456973 -0.0010617136
0.0155075500 0.0060535520 -0.0014427810
0.0168625172 0.0060577542 -0.0016551821
0.0175569244 0.0060522705 -0.0013990609
0.0183639303 0.0060485620 -0.0012283011
0.0215603020 0.0059350543 -0.0022902919
0.0154568749 0.0043511391 0.0013746337
0.0156767108 0.0046068635 0.0008852796
0.0165411383 0.0046854690 0.0006380097
0.0175386965 0.0047862288 0.0006634386
0.0623347126 0.0078527257 0.0339529738
0.0093915155 0.0048041251 0.0016495080
0.0265496746 0.0080977473 -0.0048849043
0.0277320258 0.0080978442 -0.0050077569
-0.0184580069 0.0076255258 0.0005655081
0.0045596389 0.0081152655 -0.0015177412
0.0060291076 0.0042970777 0.0015620457
-0.0004563975 0.0076072384 -0.0004961921
0.0005398680 0.0076005738 -0.0005411266
-0.0044395896 0.0069606770 0.0002258660
-0.0171273518 0.0081632324 0.0021555142
-0.0168579463 0.0081625134 0.0020618082
-0.0163298417 0.0081611034 0.0018952207
-0.0255472902 0.0075684469 -0.0007553084
-0.0073668631 0.0058584977 0.0017494576
0.0015183341 0.0067620762 -0.0002089946
0.0025458662 0.0067122504 -0.0004565327
0.0024052737 0.0062342715 0.0000783743
0.0031528240 0.0062342435 0.0000627579
-0.0215704273 0.0047685336 0.0044693220
0.0107799079 0.0047511347 0.0016066597
0.0265496839 0.0082951356 -0.0048849043
0.0277320556 0.0082949903 -0.0050077569
0.0216041859 0.0075926278 -0.0025141446
0.0045827692 0.0083208084 -0.0016239493
-0.0172496941 0.0083813388 0.0021711381
-0.0168453660 0.0083798636 0.0020305754
-0.0163436886 0.0083781499 0.0019264536
-0.0176919531 0.0050261952 0.0037047805
-0.0125121484 0.0055488590 0.0023012699
-0.0035065552 0.0065967720 0.0003899203
0.0146014811 0.0082041398 -0.0024797900
-0.0203880761 0.0055052955 0.0024678649
-0.0094480300 0.0082609709 -0.0001420064
-0.0084705809 0.0082466565 -0.0002613126
-0.0102232145 0.0058830660 0.0011827515
0.0435469449 0.0082328804 0.0196511392
0.0441900045 0.0083587337 0.0197409485
0.0095251342 0.0085165333 -0.0020300059
0.0104572708 0.0085150395 -0.0020737334
0.0265497155 0.0084925611 -0.0048786607
0.0279295091 0.0084922258 -0.0049973484
0.0046016509 0.0085259955 -0.0017114116
-0.0164103378 0.0085950010 0.0018119307
-0.0157497469 0.0083402582 0.0019628943
-0.0212154929 0.0068705864 0.0014891641
-0.0028088549 0.0069734007 -0.0000153317
-0.0014872655 0.0070781466 -0.0001350699
-0.0254401583 0.0084051974 -0.0007951690
-0.0201945323 0.0050939359 0.0028114559
-0.0203472767 0.0083664749 -0.0002683385
0.0429223143 0.0086068939 0.0196784753
0.0435502641 0.0086076539 0.0196706671
0.0443187766 0.0086090099 0.0197565649
0.0089102415 0.0087215714 -0.0020456223
0.0095381467 0.0087201949 -0.0021080954
0.0104679689 0.0087185819 -0.0021424501
-0.0195265282 0.0059188195 0.0019368695
-0.0254332703 0.0088337045 -0.0008118360
-0.0203105900 0.0088142585 -0.0004474206
-0.0194371026 0.0085080415 -0.0003120734
-0.0182998832 0.0084103793 0.0002355815
0.0107053975 0.0066660047 -0.0011468960
0.0115172826 0.0069087092 -0.0011639430
0.0050685788 0.0051603075 0.0010310502
0.0055908104 0.0055933166 0.0005679743
-0.0005166243 0.0081241559 -0.0009601994
0.0075908033 0.0059580263 -0.0001142456
0.0005287145 0.0084487777 -0.0012326671
0.0015846443 0.0084299669 -0.0013319089
-0.0044499533 0.0072900485 0.0000627579
-0.0044229189 0.0077126231 -0.0003769456
-0.0094278986 0.0062213000 0.0010622831
-0.0083744908 0.0064342581 0.0010518746
-0.0073354738 0.0062169265 0.0012392865
0.0015419003 0.0075940974 -0.0006211309
0.0025084084 0.0075147748 -0.0008004664
0.0606637411 0.0050387047 0.0336406156
0.0443239249 0.0088593103 0.0197877977
0.0115776677 0.0085128900 -0.0022174104
-0.0301335882 0.0079899002 -0.0004370047
0.0214741211 0.0047657639 0.0003282519
-0.0285175573 0.0075534768 -0.0005447774
-0.0275268611 0.0075516868 -0.0006212948
0.0245709866 0.0083948914 -0.0045756754
0.0429270752 0.0088568907 0.0197097082
0.0435517244 0.0088575464 0.0196784753
-0.0074536623 0.0067390092 0.0007021741
-0.0064197304 0.0066748355 0.0004891322
0.0167925395 0.0067811478 -0.0022564589
-0.0254343320 0.0090479963 -0.0008118360
-0.0203938354 0.0090274718 -0.0005150943
-0.0193680916 0.0090230796 -0.0005182161
-0.0180412550 0.0090238079 0.0003126354
0.0005635124 0.0089482535 -0.0014552756
0.0015224767 0.0089454725 -0.0015068112
0.0104786875 0.0089218467 -0.0022111742
0.0115210125 0.0089192893 -0.0023298545
0.0086070402 0.0089260228 -0.0020799844
0.0075261472 0.0084179118 -0.0018098115
0.0095023001 0.0069867149 -0.0011415391
0.0157880336 0.0075991694 -0.0033418892
0.0155199626 0.0075361747 -0.0026921837
-0.0295009855 0.0075554475 -0.0004932417
0.0245708972 0.0088900439 -0.0045725536
0.0255619362 0.0084932148 -0.0047324952
-0.0190418083 0.0050942246 0.0028426887
-0.0215607639 0.0054049436 0.0034830065
-0.0209492091 0.0052963421 0.0034361572
-0.0114483694 0.0070377979 0.0008498819
0.0367984585 0.0092176758 0.0337967947
0.0376957878 0.0092107262 0.0328753516
0.0380911939 0.0092091262 0.0326410905
-0.0030912058 0.0070088971 -0.0000309481
0.0029848078 0.0070828293 -0.0010304807
0.0035881968 0.0069912691 -0.0011172353
0.0080065364 0.0067345724 -0.0010408892
0.0085318098 0.0068376809 -0.0010695143
0.0126564587 0.0068565868 -0.0013091920
0.0067641893 0.0052369852 0.0013059096
0.0147712538 0.0069841575 -0.0021809696
0.0156842861 0.0065183677 -0.0023236184
0.0435532145 0.0091074873 0.0196862835
0.0176254101 0.0069829822 -0.0021924286
0.0183297656 0.0070833173 -0.0020924716
0.0124576706 0.0056445282 0.0013329925
0.0216224082 0.0067403745 -0.0025833233
-0.0145083116 0.0092222784 0.0002189295
-0.0054667937 0.0066831969 0.0003864781
-0.0181184392 0.0092400387 0.0004844309
0.0035845963 0.0091434326 -0.0018238558
0.0058038207 0.0091366321 -0.0019987656
-0.0161126275 0.0092479121 0.0021867545
-0.0165623296 0.0092469603 0.0018952207
-0.0094425613 0.0067276619 0.0006984042
0.0035596834 0.0059080329 0.0006093697
0.0052792402 0.0091380905 -0.0019675328
-0.0123286666 0.0088468883 -0.0001425056
0.0435563065 0.0074832048 0.0197194684
0.0095164934 0.0075941626 -0.0013646914
0.0246060025 0.0055331048 -0.0045940187
0.0165478066 0.0086102579 -0.0034908562
0.0167743694 0.0082019344 -0.0028733520
0.0171830654 0.0081008337 -0.0029202013
-0.0275162403 0.0086284112 -0.0006478487
-0.0265213829 0.0086240117 -0.0007446690
-0.0234364290 0.0093547553 0.0008561329
-0.0238110181 0.0060098879 0.0010622831
-0.0068471739 0.0062194411 0.0010935159
-0.0194477867 0.0068775788 0.0007742287
-0.0254393350 0.0093695428 -0.0008055775
-0.0211371388 0.0093546454 -0.0001558869
-0.0204304475 0.0093457457 -0.0006816743
-0.0195227992 0.0093415026 -0.0006775169
-0.0180015247 0.0094510466 0.0002189295
0.0105433241 0.0075928550 -0.0013162775
0.0057871966 0.0062319804 0.0001252235
0.0064209448 0.0062317327 0.0001252235
0.0065160776 0.0069833267 -0.0006521775
0.0074854372 0.0068696104 -0.0008286370
0.0005888146 0.0092568435 -0.0015552251
0.0015501444 0.0092535187 -0.0016200377
0.0017641288 0.0051352251 0.0018587799
-0.0044675032 0.0084102899 -0.0008846952
-0.0034154067 0.0082341824 -0.0008711724
-0.0034544198 0.0087538566 -0.0011007546
-0.0024606893 0.0087250471 -0.0011300279
-0.0084149810 0.0078247394 -0.0001051261
-0.0001274470 0.0047249887 0.0013434009
0.0084639685 0.0060269888 -0.0000996648
0.0090763839 0.0060247388 0.0000002848
0.0161578301 0.0068017803 -0.0037479459
0.0104957502 0.0092261117 -0.0023204891
0.0115430998 0.0092225578 -0.0024797826
0.0158426389 0.0068291184 -0.0033002330
0.0086250948 0.0092310626 -0.0021830557
0.0596854053 0.0034700483 0.0343121663
0.0175631270 0.0085359011 -0.0034926219
0.0255618226 0.0092844106 -0.0047099870
0.0211979169 0.0093394667 -0.0004370047
-0.0175405350 0.0054757465 0.0034049244
0.0245713089 0.0065140016 -0.0045825597
-0.0233311784 0.0097003877 0.0007811652
-0.0254379455 0.0096909571 -0.0008118285
-0.0203706082 0.0096631628 -0.0008118285
-0.0194622036 0.0096584614 -0.0008118285
0.0005152215 0.0095648635 -0.0016786067
0.0014738188 0.0095612202 -0.0017363934
0.0104019335 0.0055599790 0.0002439187
0.0115585607 0.0095256604 -0.0025859906
0.0040399311 0.0095504131 -0.0019987656
0.0046341019 0.0094802417 -0.0020248054
0.0085420338 0.0095356088 -0.0022954999
0.0213945694 0.0076026209 -0.0044194963
0.0622277968 0.0074286051 0.0340935215
0.0212239381 0.0095384773 -0.0009680076
-0.0071893418 0.0054464694 0.0021346973
0.0224743448 0.0064229313 -0.0044004153
-0.0233402085 0.0099175181 0.0007967816
0.0005115297 0.0046702996 0.0014903860
-0.0194920655 0.0075648036 0.0002569722
-0.0235130470 0.0070798993 0.0026084275
-0.0139431776 0.0079431292 -0.0000621884
-0.0114599289 0.0077387337 0.0005865560
0.0005370927 0.0097695142 -0.0017645045
0.0014905919 0.0097659007 -0.0018051176
0.0435574017 0.0064836200 0.0197311807
-0.0255518313 0.0099058747 -0.0008196367
0.0368298702 0.0103398357 0.0341716185
0.0115656732 0.0097276941 -0.0026359691
-0.0054495158 0.0095436834 -0.0011057912
-0.0043526636 0.0088868607 -0.0010460971
0.0086193020 0.0064166114 -0.0007607101
0.0216084272 0.0049951635 -0.0003432988
0.0106204050 0.0082090385 -0.0018051176
0.0175170861 0.0096625965 -0.0040290486
0.0176017284 0.0092840753 -0.0039063375
-0.0265072864 0.0095901899 -0.0007805957
-0.0174180325 0.0074424166 0.0015932785
-0.0151550742 0.0079413895 0.0018119307
-0.0142837511 0.0077990312 0.0007811727
-0.0194234010 0.0054216776 0.0023624541
-0.0104666734 0.0076146666 0.0004122050
0.0366597325 0.0096361358 0.0338045880
-0.0160661768 0.0090293586 0.0020774247
-0.0156906117 0.0086661763 0.0020930485
0.0236777272 0.0065123141 -0.0044757035
-0.0236318018 0.0087263342 0.0008084939
-0.0238027703 0.0090539176 0.0010310502
-0.0209177155 0.0100950617 -0.0006244166
0.0125465738 0.0085108802 -0.0023498444
0.0063192481 0.0072855521 -0.0009471832
0.0075305374 0.0076018590 -0.0014250560
0.0085109556 0.0076115821 -0.0014135449
0.0035974169 0.0065136254 -0.0006244166
-0.0034752479 0.0095996838 -0.0013350083
-0.0024404647 0.0095505770 -0.0014256893
-0.0026698271 0.0060071200 0.0009998099
-0.0255574156 0.0101204291 -0.0008118285
-0.0241532791 0.0101472735 0.0012496950
-0.0005103882 0.0054438692 0.0011673362
0.0005548809 0.0099741202 -0.0018347858
0.0095356638 0.0064512603 -0.0006196110
0.0161075238 0.0074982047 -0.0032669215
0.0177523196 0.0078487806 -0.0030763804
0.0181737989 0.0073925573 -0.0026781319
-0.0054390552 0.0100066848 -0.0012616201
0.0015470282 0.0057880450 0.0006562413
0.0015041184 0.0099705476 -0.0018613322
0.0245708022 0.0075036678 -0.0045563113
0.0175878927 0.0098942854 -0.0040790346
-0.0172287431 0.0068060178 0.0033060180
-0.0074779550 0.0073531400 0.0002590956
-0.0074629607 0.0077750012 -0.0001644029
-0.0064481618 0.0077479519 -0.0001775234
-0.0054512555 0.0078189932 -0.0001949279
-0.0034087496 0.0076365508 -0.0003414659
-0.0024472317 0.0076568816 -0.0004331081
-0.0158599298 0.0092489906 0.0024053992
0.0026940266 0.0077930596 -0.0010751022
0.0035679461 0.0075817145 -0.0011517240
0.0065952418 0.0076315291 -0.0013553409
0.0137294894 0.0078998338 -0.0020195900
0.0146365017 0.0077719577 -0.0021237119
0.0168021508 0.0075950585 -0.0026312827
0.0174252205 0.0075478591 -0.0026880188
0.0219396930 0.0074959565 -0.0032481758
0.0224746894 0.0075031538 -0.0044142958
0.0236767530 0.0075031128 -0.0044429060
-0.0234857965 0.0101905446 0.0008514465
-0.0014232594 0.0086444765 -0.0011366515
-0.0014817204 0.0081260502 -0.0009242801
0.0305106640 0.0103253331 0.0070906822
-0.0147502841 0.0102899410 0.0002501698
-0.0064266557 0.0073625296 0.0001408400
-0.0177446101 0.0078435466 0.0006796510
0.0215124264 0.0101492200 -0.0012699424
0.0210787132 0.0101308953 -0.0021549447
-0.0203363355 0.0102948248 -0.0011319874
-0.0190833639 0.0102916583 -0.0009055345
0.0005623669 0.0101792831 -0.0018660186
0.0015207742 0.0101747066 -0.0019300489
0.0025904095 0.0101690218 -0.0020362569
-0.0255630929 0.0103350375 -0.0008040203
-0.0084442170 0.0087881777 -0.0004610403
0.0115799904 0.0101311803 -0.0027359112
0.0035509756 0.0101638809 -0.0021393283
0.0168748051 0.0100975223 -0.0039353576
0.0015212063 0.0062321536 0.0002111287
0.0235953592 0.0055379905 -0.0044806581
0.0075636907 0.0089284629 -0.0020112677
0.0175921340 0.0100926068 -0.0041290130
0.0216280613 0.0101587698 -0.0008118285
0.0368127897 0.0108948536 0.0339529738
-0.0234295335 0.0105725285 0.0009685771
-0.0202656630 0.0067927781 0.0007436813
-0.0203954224 0.0063573699 0.0012848245
-0.0193929952 0.0064032096 0.0013602169
0.0209716465 0.0096557513 -0.0000621884
0.0212207511 0.0097452607 -0.0009055345
0.0305167437 0.0105513297 0.0072312374
0.0005880882 0.0056430995 0.0006890388
0.0003468421 0.0051587224 0.0010414661
-0.0177567173 0.0083804280 0.0005312876
-0.0236894954 0.0076293834 0.0029676275
-0.0140459472 0.0087908171 -0.0003641306
-0.0139901424 0.0045515168 0.0028895454
-0.0113397622 0.0081837177 0.0001824812
0.0115728350 0.0099295340 -0.0026859401
0.0125943171 0.0095219575 -0.0027034117
0.0126269134 0.0059317350 0.0003938468
0.0135542937 0.0058393013 -0.0003968535
0.0145380637 0.0057747234 -0.0004760458
0.0005780169 0.0103835948 -0.0019284843
0.0011115753 0.0103807915 -0.0019675328
0.0016478364 0.0103776734 -0.0020221977
0.0026109209 0.0103720892 -0.0021237119
-0.0254668873 0.0105495714 -0.0007681011
-0.0570703261 0.0116983652 0.0425114259
-0.0054081837 0.0103165153 -0.0013615696
-0.0642124787 0.0116068255 0.0428706333
-0.0240457859 0.0060098767 0.0010622831
0.0126164090 0.0102274977 -0.0028702377
0.0085129207 0.0098498277 -0.0024534075
0.0105264820 0.0097315311 -0.0025172590
-0.0275365766 0.0069054309 -0.0006009920
0.0176008716 0.0102895778 -0.0042289626
0.0272397120 0.0078019500 -0.0049583074
0.0115737449 0.0075764824 -0.0014414920
0.0216163769 0.0103708915 -0.0005515350
0.0135493213 0.0105253067 -0.0030217229
-0.0248595048 0.0107636396 -0.0005931838
-0.0235481802 0.0107906889 0.0009685697
-0.0202883761 0.0106102470 -0.0012374131
-0.0194903556 0.0105219912 -0.0010730608
-0.0241734106 0.0096031595 0.0012965442
-0.0163611937 0.0103872139 0.0010909082
-0.0025659846 0.0082114991 -0.0008555634
0.0306425244 0.0107827447 0.0075592119
0.0085309139 0.0083821770 -0.0018426089
0.0095471395 0.0089237411 -0.0021627529
-0.0641689897 0.0120725445 0.0425114259
-0.0633075908 0.0116813667 0.0427324846
-0.0034314143 0.0104077011 -0.0015489964
-0.0024479097 0.0104014613 -0.0016473664
-0.0023948951 0.0066336356 0.0004180686
-0.0186059419 0.0087556057 -0.0001559018
-0.0084620910 0.0094809365 -0.0007458834
-0.0004222534 0.0103746969 -0.0018314554
0.0227520317 0.0056034178 -0.0044559371
-0.0054897824 0.0106267519 -0.0014443456
0.0216048621 0.0099205319 -0.0025141446
0.0095918635 0.0082103219 -0.0018144904
0.0182701200 0.0093979370 -0.0038728772
0.0106558623 0.0058542714 -0.0005424230
0.0115846200 0.0060378835 -0.0006556569
0.0183185935 0.0068782177 -0.0019519164
0.0176096186 0.0104861464 -0.0043289121
0.0145410001 0.0095172282 -0.0028342886
0.0161908995 0.0098957196 -0.0040915292
0.0113928113 0.0081570745 -0.0018113537
0.0210431814 0.0105548408 -0.0014677702
0.0213981941 0.0105837230 -0.0003120659
0.0248443838 0.0105230231 -0.0026703237
0.0254485626 0.0105279107 -0.0024751036
0.0284684543 0.0106145889 0.0009373443
-0.0085009793 0.0074433554 0.0001439692
0.0135530038 0.0107263438 -0.0030529557
-0.0215583425 0.0065312367 0.0023429336
-0.0203986112 0.0109285880 -0.0012491180
-0.0124680623 0.0076568369 0.0007538439
-0.0189574528 0.0105023626 -0.0009367748
-0.0195225682 0.0109240450 -0.0011866523
-0.0187967401 0.0108166970 -0.0010460971
-0.0177223701 0.0106122419 -0.0004252999
0.0045869676 0.0057413410 0.0005827488
0.0306413434 0.0110056661 0.0075279716
-0.0034011016 0.0108191222 -0.0016551821
-0.0024176640 0.0108120237 -0.0017566963
-0.0094585391 0.0096137989 -0.0006853251
-0.0004703413 0.0107989572 -0.0019362925
0.0095150406 0.0095587522 -0.0023735820
-0.0285238381 0.0067977849 -0.0005307181
0.0176183786 0.0106823146 -0.0044288766
0.0181957260 0.0104887262 -0.0041956436
0.0025417143 0.0085501969 -0.0014871268
0.0035374137 0.0085280687 -0.0016139729
0.0136199202 0.0095194280 -0.0027708842
0.0158699565 0.0098922066 -0.0042923223
-0.0171831232 0.0088461395 0.0018966959
-0.0164679606 0.0089050829 0.0018297748
-0.0154049369 0.0089167617 0.0018587799
-0.0189672727 0.0034004319 0.0064659733
-0.0114328461 0.0087208766 -0.0001889674
-0.0103899399 0.0086604524 -0.0002515598
-0.0105711939 0.0081994087 0.0000939907
0.0368126407 0.0114534218 0.0339425579
-0.0074583860 0.0085313302 -0.0004695936
-0.0064324522 0.0085837226 -0.0006584956
-0.0054469267 0.0085236542 -0.0007351695
0.0134596527 0.0109265093 -0.0031169860
-0.0233311784 0.0110072587 0.0009998099
-0.0223370921 0.0108646099 0.0007811652
-0.0211106893 0.0107344165 -0.0007077141
0.0437381975 0.0024414640 0.0199368615
-0.0171054769 0.0104768444 0.0012407766
-0.0173496697 0.0106113516 0.0007283108
-0.0148583064 0.0111510735 0.0005000473
-0.0121289575 0.0070798732 0.0009998099
-0.0104648108 0.0066851787 0.0007733644
-0.0177659635 0.0099113025 -0.0003682955
-0.0142848017 0.0097650755 -0.0004432483
-0.0143122459 0.0056877453 0.0025511624
-0.0137711735 0.0098380819 -0.0010513051
-0.0124430628 0.0096290577 -0.0005057140
0.0105667524 0.0105373878 -0.0027783795
0.0116010141 0.0106337685 -0.0028827100
0.0125509296 0.0106047895 -0.0029514416
0.0126683442 0.0108639952 -0.0030087067
0.0301685631 0.0104320273 0.0068876538
0.0142208803 0.0069806091 -0.0018504022
-0.0294960793 0.0069064870 -0.0004994778
-0.0033926377 0.0110251419 -0.0016864224
-0.0024072072 0.0110174231 -0.0017957373
-0.0104567418 0.0096019804 -0.0005749820
-0.0254263785 0.0111965425 -0.0006322323
-0.0006725985 0.0110047814 -0.0019675328
-0.0582559220 0.0126365107 0.0421366021
-0.0579048209 0.0123358686 0.0427300707
-0.0643136725 0.0123809893 0.0421678349
0.0182047375 0.0108837411 -0.0043101739
0.0045822738 0.0088218171 -0.0018356575
-0.0089776153 0.0100265052 -0.0009992404
0.0368142314 0.0120125599 0.0339529738
0.0264780577 0.0110469181 0.0013902576
0.0284892097 0.0107772630 0.0017911063
0.0291090142 0.0102031771 0.0013121681
-0.0004272788 0.0086113699 -0.0011792912
-0.0642317310 0.0127862152 0.0416576639
-0.0634611845 0.0128831435 0.0416680649
-0.0627845302 0.0129904505 0.0420116559
0.0055647390 0.0085148420 -0.0017339571
0.0065545673 0.0045496933 0.0016151459
-0.0562709160 0.0128839295 0.0405435935
0.0135615068 0.0085097738 -0.0023086204
0.0145206805 0.0087101664 -0.0026573075
0.0151717262 0.0085349847 -0.0028956665
0.0183150712 0.0085299388 -0.0033597408
0.0291834064 0.0112242699 0.0073874164
0.0306415148 0.0112293959 0.0075279716
-0.0014571409 0.0106004849 -0.0017901345
0.0025288286 0.0107796658 -0.0022200181
0.0035087680 0.0106873885 -0.0023176952
0.0045355698 0.0105642006 -0.0023735820
0.0118219871 0.0111353155 -0.0030087067
0.0125408862 0.0111317709 -0.0030685721
0.0134658115 0.0111266691 -0.0031669645
0.0231586155 0.0113195349 0.0033424513
0.0005998918 0.0062354878 0.0000565068
-0.0634897873 0.0124511365 0.0421443954
-0.0034878375 0.0112313181 -0.0017254634
-0.0025038468 0.0112233311 -0.0018300994
-0.0104926238 0.0105035584 -0.0008935167
-0.0184629578 0.0096569192 -0.0005232228
-0.0098710814 0.0102413651 -0.0009367748
-0.0004507761 0.0112082008 -0.0020143895
0.0025061788 0.0095215440 -0.0017923622
0.0095328400 0.0105418563 -0.0026984124
-0.0265443791 0.0075499266 -0.0006946980
0.0035142759 0.0094713420 -0.0018831997
0.0044790851 0.0092084073 -0.0019467010
0.0115718059 0.0065533761 -0.0005736558
0.0182112381 0.0077983290 -0.0031388460
-0.0175625514 0.0088176206 0.0020930485
0.0259517059 0.0110482238 0.0014371069
0.0287399162 0.0114513729 0.0075123552
0.0291912816 0.0114560537 0.0076529179
0.0306430459 0.0114541352 0.0075592119
0.0226588603 0.0087184180 -0.0044077914
0.0236203577 0.0085852556 -0.0043612700
0.0245710071 0.0090880599 -0.0045787971
0.0255618282 0.0090866033 -0.0047099870
0.0005825561 0.0108743105 -0.0020331352
0.0215448551 0.0053919964 -0.0033887385
0.0156969689 0.0085287988 -0.0034414514
0.0110070575 0.0113398544 -0.0029982983
0.0116232662 0.0113368221 -0.0030420257
0.0125492141 0.0113315992 -0.0031310453
0.0134727862 0.0113264304 -0.0032231866
0.0252333451 0.0107742418 -0.0008743017
0.0276079066 0.0109916311 -0.0004994778
0.0277979393 0.0108646434 -0.0013428240
-0.0141929770 0.0105879828 -0.0005697592
-0.0146724926 0.0066338014 0.0024241374
-0.0124497199 0.0105731059 -0.0007825403
-0.0600407459 0.0132801924 0.0421678349
-0.0587256737 0.0132271592 0.0408715829
-0.0034746574 0.0114365816 -0.0017723127
-0.0024956902 0.0114287380 -0.0018613322
-0.0004431895 0.0114128739 -0.0020456223
-0.0641727895 0.0132916663 0.0410902128
0.0028946875 0.0099636856 -0.0019987656
0.0035741786 0.0098729860 -0.0020433946
0.0123537956 0.0065207761 -0.0007129146
0.0075896094 0.0095211137 -0.0022434427
0.0373181589 0.0095316228 0.0337421224
-0.0064614573 0.0106503703 -0.0013675524
0.0055308631 0.0096460022 -0.0021830632
0.0382232256 0.0097805206 0.0340779051
-0.0054711075 0.0109365787 -0.0015068112
-0.0044704052 0.0106472652 -0.0015126078
0.0275135692 0.0116807148 0.0076966453
0.0285197236 0.0116799381 0.0076607186
0.0291978661 0.0116874035 0.0078715626
0.0306432322 0.0116779786 0.0075592119
-0.0168163087 0.0047381725 0.0049250443
-0.0234784987 0.0114873108 0.0024912895
0.0368085168 0.0124292541 0.0338748768
0.0003116716 0.0106307585 -0.0019550382
0.0105094071 0.0112621989 -0.0029389469
0.0107038505 0.0115423743 -0.0030139147
-0.0562676527 0.0119862519 0.0417305455
-0.0568896867 0.0120021086 0.0421990678
0.0116302744 0.0115371216 -0.0030919968
0.0125564374 0.0115314666 -0.0031857102
0.0134764388 0.0115268733 -0.0032544343
0.0239020418 0.0117630567 0.0037328990
0.0271808840 0.0119170565 0.0080433581
0.0113077173 0.0111378673 -0.0029670580
0.0291915294 0.0119040739 0.0076529179
0.0305282660 0.0118989572 0.0074811224
0.0158865042 0.0114599168 -0.0049973484
0.0085006272 0.0105458479 -0.0026459454
0.0103186546 0.0067177117 -0.0008487462
-0.0034662755 0.0116422400 -0.0018035455
-0.0024894131 0.0116342623 -0.0018863215
-0.0004356365 0.0116174370 -0.0020768552
0.0157367997 0.0106495097 -0.0045682769
0.0166379046 0.0106504615 -0.0044745859
0.0258356780 0.0115367975 0.0067314748
0.0265013278 0.0116456430 0.0066612009
0.0265065506 0.0119124316 0.0079184119
0.0095645888 0.0113471858 -0.0028962477
0.0298794936 0.0103919040 0.0050760079
0.0165092498 0.0113542341 -0.0048446413
-0.0624866672 0.0133125167 0.0423864648
-0.0616796948 0.0139073115 0.0416524634
0.0065694908 0.0095409025 -0.0022099225
-0.0593396015 0.0135482866 0.0410121307
0.0075899558 0.0055056047 0.0004844384
-0.0584154166 0.0136522707 0.0397783443
-0.0044537606 0.0114440937 -0.0016968308
-0.0094683664 0.0106765106 -0.0011060818
-0.0148635181 0.0072880015 0.0022179873
-0.0250251498 0.0123019498 0.0064035077
0.0275154654 0.0119110327 0.0078715626
0.0285206065 0.0119053535 0.0076997671
-0.0326220952 0.0126915108 0.0154304821
-0.0236446243 0.0118546393 0.0035611035
-0.0002442013 0.0110020526 -0.0019987656
0.0213955436 0.0068914723 -0.0030711724
0.0155885918 0.0093639195 -0.0034132807
0.0166076887 0.0094172303 -0.0037298559
-0.0134003768 0.0105760749 -0.0008867888
0.0124581587 0.0117325112 -0.0032106920
0.0134800775 0.0117272083 -0.0032856672
0.0157887787 0.0116572175 -0.0050129648
-0.0632832348 0.0135575961 0.0411644056
-0.0625320673 0.0136390906 0.0416611210
0.0044855652 0.0098540988 -0.0021393283
-0.0183068123 0.0105844103 -0.0007701872
0.0285781547 0.0108664762 0.0024886893
-0.0284664799 0.0124365371 0.0093187923
0.0099884355 0.0117473062 -0.0029982983
0.0094709499 0.0117506441 -0.0029514416
0.0261657462 0.0113496613 0.0043107439
0.0272495896 0.0113498867 0.0043107439
0.0277075972 0.0118386112 0.0058412720
-0.0558303930 0.0119790584 0.0415743664
0.0125294402 0.0076546688 -0.0017322286
-0.0034579309 0.0118477885 -0.0018347858
-0.0110699655 0.0058926772 0.0014527233
-0.0559223704 0.0141122583 0.0405123606
-0.0577706881 0.0134848822 0.0395753011
-0.0568335317 0.0140314754 0.0380135402
-0.0116858790 0.0056401137 0.0023786293
-0.0114530670 0.0096247885 -0.0005026071
-0.0285400916 0.0127955843 0.0125776697
-0.0245857742 0.0117806345 0.0045085717
0.0222970843 0.0117519982 0.0034049244
-0.0074790353 0.0094394274 -0.0008519797
-0.0073862867 0.0099252351 -0.0010790585
-0.0064515295 0.0098048095 -0.0011163710
-0.0044616545 0.0095675811 -0.0012223406
-0.0014767974 0.0096014831 -0.0015032871
-0.0246311743 0.0125155542 0.0060911570
-0.0230171215 0.0121539813 0.0027489827
-0.0004265319 0.0119243748 -0.0021159037
0.0065219244 0.0085486695 -0.0017842038
0.0150562199 0.0093137436 -0.0029045923
-0.0124894315 0.0084395874 0.0001519860
-0.0172207225 0.0115596540 0.0004159601
-0.0178892966 0.0111485533 -0.0003120659
-0.0094522657 0.0087607298 -0.0003566949
-0.0143029997 0.0115964133 -0.0007047264
-0.0134852352 0.0112935137 -0.0009367599
-0.0134214358 0.0117307622 -0.0010179712
-0.0125095369 0.0112436656 -0.0009211509
-0.0117350118 0.0113014560 -0.0009367748
0.0124620702 0.0119329747 -0.0032419323
0.0134845478 0.0119271837 -0.0033231436
0.0157952122 0.0118524153 -0.0050754379
0.0259480160 0.0113821179 0.0053415094
0.0366818793 0.0100585371 0.0340779051
0.0242870413 0.0123048332 0.0064972136
0.0265068300 0.0122520048 0.0079886932
0.0275182854 0.0122552663 0.0080641750
0.0267024618 0.0113261342 0.0035611035
0.0275618471 0.0113224331 0.0034361572
0.0281212050 0.0113570970 0.0045293961
0.0055826949 0.0105592571 -0.0024398027
0.0065692058 0.0105270203 -0.0024999438
0.0075010536 0.0105764251 -0.0025922193
-0.0304761510 0.0128410589 0.0133064929
-0.0150165902 0.0096603334 0.0009061040
-0.0155917862 0.0096272659 0.0014777125
-0.0147362808 0.0100760050 0.0002189295
-0.0194400866 0.0121868514 -0.0013865663
-0.0185005907 0.0121848155 -0.0012256934
-0.0242710728 0.0114924144 0.0015230046
-0.0242684353 0.0117116459 0.0024053992
-0.0172774885 0.0122338720 0.0003334598
-0.0164171923 0.0122410357 0.0007030831
-0.0558638163 0.0144270454 0.0406997725
0.0135941533 0.0102132261 -0.0029288887
-0.0044296095 0.0119585898 -0.0017832427
-0.0135739939 0.0057558585 0.0015464218
-0.0004598732 0.0095690396 -0.0015727414
-0.0290887747 0.0122052711 0.0092927609
-0.0277478639 0.0124240834 0.0091522057
-0.0560963638 0.0134260412 0.0406763479
0.0254963953 0.0123658124 0.0080277342
0.0254967455 0.0122385230 0.0079652611
0.0271803644 0.0123642478 0.0079808850
0.0285205208 0.0122412760 0.0076919664
0.0294951405 0.0122630149 0.0075162593
0.0304146186 0.0122324396 0.0074290577
0.0215350203 0.0095722340 -0.0031961261
-0.0558688901 0.0137702432 0.0395544842
-0.0628207326 0.0126246493 0.0424176976
-0.0012817393 0.0118290614 -0.0020300134
-0.0014237083 0.0075804368 -0.0005359186
0.0089680543 0.0121554546 -0.0029982983
0.0084521240 0.0121585447 -0.0029670580
0.0095838737 0.0121523663 -0.0030232875
0.0106178848 0.0121449158 -0.0031232371
0.0115460698 0.0121382400 -0.0032169430
0.0124668675 0.0121330675 -0.0032794161
0.0134881539 0.0121272895 -0.0033543764
-0.0275129471 0.0095973834 -0.0006634651
0.0303026196 0.0125673767 0.0074186493
0.0145125864 0.0121196266 -0.0034793227
-0.0237102788 0.0054779742 0.0006249936
-0.0302462596 0.0085593387 -0.0004018752
-0.0295154881 0.0086373631 -0.0004745035
0.0085399961 0.0115534663 -0.0028783365
0.0092691546 0.0119532011 -0.0029670580
0.0097858431 0.0119499080 -0.0030087067
0.0278301258 0.0119748451 0.0065596793
-0.0630612150 0.0142238196 0.0412932411
-0.0624550320 0.0143787581 0.0414598361
-0.0020377589 0.0122463610 -0.0019987656
0.0289502684 0.0108843427 0.0031238066
0.0272011645 0.0110107865 0.0001564638
-0.0603479482 0.0144887064 0.0409184173
0.0154784927 0.0115300361 -0.0047193449
0.0166301467 0.0118373819 -0.0049161445
-0.0240604561 0.0089466348 0.0010778995
0.0368225835 0.0106178597 0.0340779051
-0.0064220177 0.0116671734 -0.0015564992
0.0265067592 0.0125881564 0.0079652686
0.0283211153 0.0111168306 0.0037485154
-0.0303749051 0.0125334766 0.0115573201
-0.0304096062 0.0130900051 0.0134314243
-0.0152882542 0.0109528098 0.0009998099
-0.0155983390 0.0104973912 0.0011693628
-0.0184953976 0.0123956986 -0.0012413098
-0.0024063969 0.0073920973 0.0000783743
0.0225639921 0.0122540575 0.0036681832
0.0254964028 0.0125906486 0.0080277342
0.0254967120 0.0125886928 0.0079808775
0.0275151487 0.0125832278 0.0078403298
0.0285196695 0.0125751998 0.0076372940
0.0295238420 0.0125713069 0.0075279642
-0.0285205413 0.0086329263 -0.0005463345
0.0235740915 0.0096868947 -0.0043301713
0.0245699864 0.0096834693 -0.0045225751
0.0255615376 0.0097799860 -0.0046600159
0.0086626327 0.0123587344 -0.0030061065
0.0081450259 0.0123623144 -0.0029670580
0.0095885536 0.0123534016 -0.0030545203
0.0106232567 0.0123453643 -0.0031607209
0.0115478579 0.0123393778 -0.0032325594
0.0124698440 0.0123335812 -0.0033044054
0.0134917498 0.0123272911 -0.0033856167
0.0303028319 0.0127910431 0.0074186493
0.0145209506 0.0123173576 -0.0035542755
0.0155166565 0.0122406594 -0.0052472334
-0.0624046959 0.0146543849 0.0405279770
-0.0624716245 0.0147820059 0.0397939458
-0.0182077568 0.0115385167 -0.0005798026
-0.0608049370 0.0147891473 0.0405123606
0.0275149457 0.0128068905 0.0078215916
0.0266266707 0.0103537124 -0.0044780653
0.0161977038 0.0106549785 -0.0036854653
0.0054972591 0.0066350494 -0.0003794713
-0.0054000290 0.0123799667 -0.0017527847
-0.0034395894 0.0123615209 -0.0019050671
-0.0197099689 0.0100811701 -0.0010148643
-0.0219392162 0.0099131688 0.0010310502
-0.0131634111 0.0069699753 0.0013590173
-0.0148598487 0.0107235108 0.0005104558
-0.0074191848 0.0116762668 -0.0014646708
0.0375785083 0.0105968807 0.0342710093
0.0436177962 0.0054473951 0.0197766367
0.0227190200 0.0126223844 0.0036339776
-0.0585435145 0.0149634574 0.0379823074
-0.0564958565 0.0149258170 0.0377167985
0.0247526318 0.0123882610 0.0076477099
0.0254967194 0.0128134582 0.0079808775
0.0265068095 0.0128128957 0.0079652686
0.0285196491 0.0127989370 0.0076294858
0.0295239817 0.0127951819 0.0075279791
0.0079457844 0.0125643555 -0.0029982983
0.0085606584 0.0125614759 -0.0030107929
0.0095921149 0.0125546213 -0.0030795021
0.0106266560 0.0125462618 -0.0031857102
0.0115519771 0.0125397500 -0.0032637997
0.0124746086 0.0125334356 -0.0033418818
0.0134953270 0.0125271846 -0.0034168495
-0.0271979552 0.0124069117 0.0088086147
0.0175302010 0.0109765790 -0.0045574438
-0.0265357252 0.0120635498 0.0057319496
0.0381600596 0.0094936341 0.0333907381
-0.0172919538 0.0126638059 0.0003577487
-0.0245554689 0.0117475241 0.0034673975
0.0218938645 0.0119425412 0.0027489827
0.0221147537 0.0118290205 0.0025615783
-0.0148317115 0.0124934744 -0.0006712733
-0.0135848382 0.0124590825 -0.0012562259
-0.0056427764 0.0091782659 -0.0009523912
-0.0641470477 0.0146427806 0.0396377668
0.0301943198 0.0130182412 0.0074967388
0.0144132664 0.0125211161 -0.0034980534
0.0149898687 0.0124909636 -0.0041227620
0.0154368514 0.0124302190 -0.0054190215
-0.0626278594 0.0150690470 0.0392004773
0.0275150426 0.0130313691 0.0078215916
0.0044396864 0.0072876681 -0.0009680076
0.0053823935 0.0072866753 -0.0009680076
0.0245480612 0.0118545089 0.0062993933
0.0286041871 0.0112717431 0.0065076221
0.0115380501 0.0118378028 -0.0031583740
0.0370953530 0.0108958445 0.0339842066
-0.0241837744 0.0129285995 0.0051540975
0.0225187615 0.0128183570 0.0032050179
-0.0637292117 0.0138196182 0.0406685397
0.0248251129 0.0130303185 0.0078090895
0.0254967567 0.0130381044 0.0079777557
0.0265068524 0.0130373035 0.0079574604
0.0285200290 0.0130233895 0.0076372940
0.0295250621 0.0130202416 0.0075529609
-0.0173408780 0.0095378049 0.0013456212
-0.0084615508 0.0106459688 -0.0012416302
-0.0159054864 0.0131012369 0.0008123980
-0.0005002703 0.0125558805 -0.0021615236
0.0135428905 0.0067912042 -0.0015927239
0.0145010063 0.0105718002 -0.0031045212
-0.0264597293 0.0123832766 0.0083296839
-0.0171697531 0.0130903032 0.0003282519
-0.0147130052 0.0130079780 -0.0009680076
-0.0135920579 0.0129764248 -0.0014365299
-0.0275378767 0.0105675813 -0.0006306677
-0.0265342165 0.0105578452 -0.0007431118
-0.0236553159 0.0066832062 0.0012739913
-0.0302733313 0.0096634421 -0.0003879278
-0.0295387786 0.0096119028 -0.0004428758
0.0254964102 0.0128155109 0.0080277342
0.0095956838 0.0127557646 -0.0031044914
0.0279462300 0.0120978970 0.0068720374
-0.0563371442 0.0126027111 0.0415431336
-0.0558910407 0.0126023497 0.0416680649
0.0045777941 0.0115779731 -0.0025797246
0.0065006083 0.0115917157 -0.0027402474
0.0227761269 0.0096889287 -0.0042227041
0.0168037638 0.0123172719 -0.0049452912
-0.0203944985 0.0059143417 0.0017221288
-0.0202206206 0.0099988524 -0.0010367243
0.0155984899 0.0120497607 -0.0050910544
0.0175473318 0.0116634965 -0.0047610234
-0.0642965883 0.0141980927 0.0401531681
-0.0633235499 0.0143289883 0.0404231176
-0.0156412628 0.0070665181 0.0027255581
-0.0147577869 0.0114633013 0.0002501698
-0.0074346075 0.0126169082 -0.0015302582
-0.0243393164 0.0133970510 0.0054664481
-0.0023322953 0.0127218049 -0.0020112677
-0.0014616895 0.0125309359 -0.0020704328
-0.0114489617 0.0106719732 -0.0008155911
0.0229430851 0.0130395573 0.0033424513
-0.0074400464 0.0106193125 -0.0013115762
-0.0279109124 0.0120930038 0.0062473286
-0.0264705289 0.0120833796 0.0063410345
-0.0255559254 0.0120803472 0.0064867977
0.0228633583 0.0114032868 0.0059974510
0.0244190302 0.0118125733 0.0051228646
-0.0582743920 0.0153541919 0.0377219990
0.0234442838 0.0131087396 0.0047792736
-0.0094340751 0.0115911197 -0.0012627749
-0.0084218504 0.0115813706 -0.0013693629
0.0292161088 0.0104411934 0.0024886893
0.0294256508 0.0105444454 0.0032425018
0.0365175121 0.0143764298 0.0336926654
-0.0005133610 0.0130516496 -0.0022049232
0.0231410377 0.0132844876 0.0039359201
0.0015411534 0.0126025844 -0.0023661538
-0.0054303864 0.0075020026 0.0000814961
-0.0173482504 0.0132535379 0.0003438757
0.0216915943 0.0124649089 0.0024991052
0.0227486975 0.0126886647 0.0027177499
-0.0144231217 0.0131952781 -0.0014053045
-0.0135406526 0.0131873805 -0.0014052971
-0.0643102452 0.0152520407 0.0393254235
0.0096003050 0.0129565131 -0.0031357317
-0.0182185452 0.0126417670 -0.0003620370
-0.0093994187 0.0131533984 -0.0013896807
0.0124781411 0.0128342118 -0.0033731295
0.0161537323 0.0118204001 -0.0050337892
-0.0048335074 0.0130957756 -0.0018738268
-0.0155442627 0.0075839143 0.0022469924
0.0377596617 0.0115517173 0.0340952352
-0.0642975494 0.0136949029 0.0406268910
-0.0032041194 0.0130786505 -0.0019987656
-0.0024574855 0.0130726006 -0.0020237623
-0.0014873232 0.0130627286 -0.0021002872
0.0233407710 0.0133158918 0.0045606289
-0.0570112728 0.0158146825 0.0371389613
-0.0564504154 0.0155647900 0.0375048593
-0.0565709732 0.0154991765 0.0369827822
-0.0613143928 0.0147918779 0.0404249057
-0.0597891696 0.0146127436 0.0402937159
-0.0265383180 0.0133687574 0.0095061976
-0.0312240887 0.0130078774 0.0132127870
-0.0557578392 0.0147268046 0.0405123606
-0.0294577833 0.0129767079 0.0132690165
-0.0288215484 0.0130740609 0.0134158079
0.0248247217 0.0133686047 0.0078403298
0.0254967790 0.0133748930 0.0079683829
0.0265068822 0.0133739170 0.0079457406
0.0275149960 0.0133675393 0.0078090969
0.0285202488 0.0133596156 0.0076373015
0.0294754691 0.0133435298 0.0075488035
0.0239351559 0.0136859287 0.0074655060
0.0075367549 0.0131736193 -0.0030107929
0.0085719274 0.0131654236 -0.0030857532
0.0096049067 0.0131571572 -0.0031669645
0.0106366957 0.0131484885 -0.0032606779
0.0115595013 0.0131418947 -0.0033262654
0.0124807665 0.0131351855 -0.0033981113
0.0015266676 0.0132340845 -0.0024204461
-0.0172761288 0.0135189723 0.0003022270
-0.0147949839 0.0134405289 -0.0007805957
-0.0142364027 0.0134076905 -0.0013272075
-0.0134938518 0.0134045128 -0.0012553690
-0.0264031012 0.0113850199 -0.0005983992
-0.0253862310 0.0116136204 -0.0004552363
0.0135042919 0.0131269041 -0.0034980534
0.0145178000 0.0131218415 -0.0035417883
0.0435958989 0.0044734925 0.0198221449
-0.0610676073 0.0156905930 0.0397835448
-0.0604732074 0.0160126071 0.0402312502
0.0152779119 0.0130485874 -0.0049036425
0.0154454606 0.0127892476 -0.0053284373
0.0175292492 0.0125869643 -0.0049131643
-0.0576480813 0.0139164347 0.0387944207
-0.0564034320 0.0139476191 0.0386278406
0.0219559595 0.0125339869 0.0066533852
0.0122591890 0.0060298778 -0.0002808331
-0.0574494489 0.0127556603 0.0410745963
-0.0164688732 0.0116302315 0.0006762238
-0.0155341337 0.0117528271 0.0007616447
0.0232361518 0.0135262590 0.0044200663
0.0365184434 0.0149348173 0.0336926803
0.0374994576 0.0146590900 0.0337226018
0.0382229127 0.0148135033 0.0339842066
0.0385186188 0.0151023474 0.0341403857
0.0248239748 0.0137087200 0.0079027954
0.0254968293 0.0137116667 0.0079590175
0.0265069567 0.0137109216 0.0079418365
0.0275152531 0.0137046631 0.0078153405
0.0285204798 0.0136959050 0.0076372940
0.0293016750 0.0136918705 0.0075488035
0.0069196960 0.0133798402 -0.0029982983
-0.0285313148 0.0096048303 -0.0005365743
0.0242635105 0.0102895293 -0.0040290561
0.0256594308 0.0102794804 -0.0044585373
0.0238230284 0.0139115062 0.0074967388
0.0075406646 0.0133750532 -0.0030357747
0.0085745370 0.0133669283 -0.0031044988
0.0096105626 0.0133573543 -0.0032044484
0.0105362711 0.0133502167 -0.0032716079
0.0114588868 0.0133434702 -0.0033356382
0.0124836499 0.0133353230 -0.0034230931
-0.0608496852 0.0150791202 0.0400126055
-0.0592072494 0.0144368242 0.0399188921
-0.0586658828 0.0142645109 0.0396065339
-0.0171559509 0.0137311574 0.0002814026
-0.0143480198 0.0136330668 -0.0010617136
-0.0135214152 0.0136183631 -0.0011928959
-0.0238586087 0.0070960764 0.0011559890
-0.0237276312 0.0076427348 0.0006562264
-0.0302251969 0.0105455052 -0.0003502576
-0.0294976179 0.0105755739 -0.0004057868
0.0265069492 0.0139349122 0.0079262201
-0.0560584404 0.0135243963 0.0413453057
-0.0558343567 0.0135288443 0.0415535346
0.0227715019 0.0104307812 -0.0040959921
0.0234821923 0.0103454683 -0.0040826034
0.0244320557 0.0105651114 -0.0034105985
0.0245412756 0.0107248370 -0.0026859401
0.0258534960 0.0107379947 -0.0022018014
0.0171384700 0.0129730124 -0.0050077569
-0.0641721636 0.0158464070 0.0388256535
-0.0164266508 0.0127300750 0.0006517710
-0.0155945355 0.0126601588 0.0006187351
0.0237758234 0.0120105427 0.0045710448
0.0375148840 0.0125724766 0.0339477435
-0.0576126836 0.0155149680 0.0370140150
-0.0032062503 0.0133884083 -0.0019987656
-0.0024540434 0.0133810472 -0.0020425080
0.0232317057 0.0137522351 0.0045762453
-0.0643350631 0.0164734367 0.0383508876
-0.0034496235 0.0120532308 -0.0018660186
-0.0634059384 0.0164328497 0.0384508446
-0.0561060123 0.0133798402 0.0392395183
0.0248239525 0.0139334742 0.0079027954
0.0254968461 0.0139362011 0.0079527665
0.0275154635 0.0139295924 0.0078215916
0.0285205804 0.0139201451 0.0076373015
0.0291902963 0.0139164049 0.0075592119
0.0068163658 0.0135832522 -0.0029982983
-0.0104550393 0.0116014015 -0.0011475889
0.0144811003 0.0115379915 -0.0033470823
0.0151568959 0.0112032443 -0.0038104116
0.0161664188 0.0110994373 -0.0038728847
0.0372163989 0.0116546452 0.0339841917
0.0224705394 0.0136405099 0.0025164576
-0.0649558157 0.0123977307 0.0426051244
-0.0258750562 0.0126045551 0.0081526805
-0.0274234805 0.0114528723 -0.0004796071
0.0301979296 0.0141415428 0.0075592119
0.0096108178 0.0135592092 -0.0032106920
0.0351436697 0.0113447011 -0.0314410925
0.0217124969 0.0125564467 0.0071843881
-0.0194314625 0.0127143059 -0.0014162122
0.0154659757 0.0134491306 -0.0048203524
-0.0310788918 0.0128327664 0.0129316691
-0.0557478778 0.0146867875 0.0395232514
0.0055589164 0.0133933928 -0.0028655513
-0.0250552688 0.0127825011 0.0069657359
-0.0104774320 0.0134604964 -0.0013317897
0.0224744752 0.0120079238 0.0044877473
0.0368028320 0.0128455479 0.0337967947
-0.0032037543 0.0136973206 -0.0020143895
-0.0024543507 0.0136901680 -0.0020487516
-0.0014833390 0.0134734046 -0.0021237119
-0.0005085143 0.0134613607 -0.0022319912
0.0375019498 0.0154977646 0.0337304100
0.0382245146 0.0155135524 0.0339842066
-0.0124395164 0.0117386151 -0.0010282306
-0.0237944331 0.0131154228 0.0043419842
0.0228763409 0.0135328118 0.0031758712
-0.0568954237 0.0165316705 0.0336406156
0.0067129740 0.0137867276 -0.0029982983
-0.0612786449 0.0150664952 0.0395753011
-0.0005066089 0.0138715934 -0.0022486506
0.0134636490 0.0075391512 -0.0018242283
0.0015315384 0.0136421528 -0.0024490713
0.0063822316 0.0134141166 -0.0029469712
-0.0172626805 0.0141744483 0.0005156638
0.0222196653 0.0140709188 0.0025771947
-0.0147989439 0.0141055901 -0.0002495928
-0.0206139069 0.0098776892 -0.0007805957
-0.0193465035 0.0099487416 -0.0008821024
0.0275052730 0.0097059850 -0.0047284719
0.0096143028 0.0137599576 -0.0032356887
-0.0194279496 0.0136492904 -0.0014052822
0.0154069392 0.0136781987 -0.0042997655
-0.0204161499 0.0115954913 -0.0013827516
-0.0194659438 0.0115547348 -0.0013190864
0.0106092496 0.0118440893 -0.0030638857
-0.0555091836 0.0152818467 0.0392004922
-0.0293475967 0.0136411097 0.0134805012
-0.0172126871 0.0139529910 0.0004063414
-0.0034725955 0.0128351059 -0.0019456728
-0.0561983921 0.0146070179 0.0383649394
-0.0558258705 0.0148609262 0.0387840196
0.0373573154 0.0135414917 0.0337238982
0.0025616949 0.0115935989 -0.0023688956
-0.0223355461 0.0114847962 0.0012497024
-0.0105014415 0.0140008312 -0.0013662560
-0.0034169154 0.0139054302 -0.0020143895
-0.0024539912 0.0138961393 -0.0020549952
-0.0014839201 0.0138849486 -0.0021315201
0.0234493967 0.0141877737 0.0045762453
0.0005664238 0.0135513935 -0.0023423492
0.0375025347 0.0159168448 0.0337265059
0.0382255316 0.0159337055 0.0339842066
-0.0114426138 0.0116559751 -0.0010527654
0.0208976455 0.0138923097 0.0013121606
-0.0054301890 0.0116583556 -0.0016458242
-0.0641532391 0.0168664660 0.0376855657
-0.0024782168 0.0119421370 -0.0019300564
-0.0015414647 0.0114043746 -0.0019389077
0.0239819046 0.0125782955 0.0051228572
-0.0594014116 0.0161648747 0.0373888388
-0.0573969819 0.0166722666 0.0374032781
0.0035218904 0.0115856286 -0.0024822785
0.0385235883 0.0159454551 0.0341716185
0.0436217450 0.0159747470 0.0344110802
0.0223706011 0.0105741527 -0.0035662188
0.0067140507 0.0139891151 -0.0030087067
-0.0094093094 0.0125283133 -0.0013490526
0.0045741489 0.0066610705 -0.0006206913
-0.0084242681 0.0125091057 -0.0014313294
-0.0615801476 0.0150439721 0.0389401987
-0.0014809362 0.0140900146 -0.0021471365
-0.0005080152 0.0140772182 -0.0022486506
-0.0605308600 0.0156182703 0.0397127494
0.0248318389 0.0117763449 0.0072312374
0.0254484229 0.0118041839 0.0076737422
-0.0287310947 0.0136873517 0.0134860966
-0.0145288529 0.0142926555 -0.0006400405
0.0284377076 0.0099829249 -0.0044351276
-0.0299858060 0.0112439673 -0.0003120659
-0.0294046011 0.0114387851 -0.0002240448
0.0265069939 0.0143831018 0.0079001952
-0.0559622534 0.0141367037 0.0411683097
-0.0556464680 0.0142896157 0.0412151590
0.0046165800 0.0136054959 -0.0027958809
-0.0105005177 0.0142097976 -0.0013740642
0.0061931880 0.0139942374 -0.0029670580
-0.0173535254 0.0144023392 0.0007186921
0.0005536888 0.0126315225 -0.0022736399
0.0024964446 0.0126292687 -0.0024764000
0.0218337215 0.0117948297 0.0016401352
-0.0636433437 0.0170485359 0.0355772004
-0.0164504834 0.0135798361 0.0005100013
0.0222594664 0.0125485789 0.0044200663
-0.0156167271 0.0136654694 0.0005406530
-0.0064596916 0.0092742797 -0.0009055345
0.0015996833 0.0116014089 -0.0022648929
-0.0576330684 0.0169957783 0.0364517793
-0.0034184875 0.0141120572 -0.0020143895
0.0229205843 0.0143745076 0.0040608663
0.0233409870 0.0144041013 0.0045502130
0.0005697169 0.0140629355 -0.0023673458
-0.0634946004 0.0173500944 0.0356084332
0.0055720964 0.0115432795 -0.0026703014
0.0075039016 0.0115592796 -0.0028083606
0.0385213755 0.0162241217 0.0341403857
-0.0311374683 0.0133475158 0.0135563705
-0.0304921921 0.0134649631 0.0135875959
0.0436323620 0.0162606779 0.0344839618
0.0248245057 0.0143799912 0.0078507382
0.0254971851 0.0143828150 0.0078986157
0.0274470057 0.0143627059 0.0078403223
0.0290787779 0.0143645834 0.0075592119
0.0075429240 0.0141844060 -0.0030670075
0.0085823229 0.0141732674 -0.0031669645
