# .PCD v0.7 - Point Cloud Data file format
VERSION 0.7
FIELDS x y z
SIZE 4 4 4
TYPE F F F
COUNT 1 1 1
WIDTH 1193
HEIGHT 1
VIEWPOINT 0 0 0 1 0 0 0
POINTS 1193
DATA ascii
0.0067098374 0.0073010810 -0.0012012054
-0.0063713780 0.0053937770 0.0009879838
0.0016617746 0.0065825228 -0.0006265049
0.0127105806 0.0076539647 -0.0014982154
0.0209901240 0.0081274565 -0.0043122252
0.0207823031 0.0081305411 -0.0042185192
0.0136576165 0.0075743701 -0.0015263413
-0.0023140451 0.0055415276 0.0004221345
0.0355102941 0.0079910979 0.0374180228
-0.0083568050 0.0085243918 -0.0008384292
-0.0073586209 0.0084453411 -0.0008561541
-0.0063710874 0.0083961710 -0.0009006639
-0.0124961091 0.0081938840 -0.0002578949
-0.0054006381 0.0052513368 0.0010255273
0.0006324098 0.0066123772 -0.0006835391
0.0076802326 0.0045675486 0.0002949606
-0.0053933496 0.0087293442 -0.0010762666
-0.0043293862 0.0084072370 -0.0009763171
0.0195190478 0.0051835552 0.0021690796
-0.0103647104 0.0079194140 -0.0003843983
-0.0093560992 0.0079137236 -0.0004015719
-0.0164242648 0.0065796804 0.0023994367
-0.0579780266 0.0107997395 0.0384175479
-0.0575208813 0.0107882880 0.0382301360
0.0295532104 0.0090020746 0.0087440908
-0.0180818178 0.0091126561 0.0012944932
-0.0113251982 0.0066286176 0.0003168280
0.0337606892 0.0098670311 0.0328576863
0.0201775692 0.0086815134 -0.0002204110
-0.0103142811 0.0074920021 -0.0002037366
-0.0013208158 0.0075462889 -0.0008295109
-0.0052101472 0.0068584792 -0.0003245403
0.0277061239 0.0083909109 0.0040588076
0.0281858295 0.0084325001 0.0053706910
0.0236434806 0.0066936258 -0.0047682528
0.0116759185 0.0088452846 -0.0018696343
-0.0073801344 0.0089552477 -0.0010387828
-0.0063838465 0.0089485776 -0.0010637646
0.0087005412 0.0085447971 -0.0016915803
0.0106106419 0.0085371751 -0.0017680977
0.0016686738 0.0039205458 0.0009754444
0.0006731757 0.0076406151 -0.0010188003
0.0016562798 0.0076357704 -0.0010778238
0.0086205369 0.0046707541 0.0003306563
0.0096647013 0.0046542604 0.0003376524
-0.0008143756 0.0061673876 -0.0002516513
-0.0045586182 0.0045265257 0.0020711045
0.0036561852 0.0067859292 -0.0008846899
0.0205980502 0.0052926745 0.0028219069
-0.0152481934 0.0066064633 0.0012297924
-0.0182521679 0.0056248140 0.0031998376
0.0197439175 0.0090571065 0.0040900479
0.0347907878 0.0096063055 0.0334511548
-0.0033299187 0.0068676714 -0.0004416634
-0.0023422008 0.0067933761 -0.0005039354
-0.0003576773 0.0070120785 -0.0007748459
-0.0586570203 0.0111154206 0.0383863151
0.0026816139 0.0065507498 -0.0006265049
-0.0565515682 0.0110897906 0.0383342654
0.0046693785 0.0066545755 -0.0008277823
-0.0013928703 0.0091218501 -0.0014011119
-0.0039677164 0.0047222320 0.0014428566
-0.0566251203 0.0110103339 0.0361373872
-0.0173745677 0.0067711361 0.0025317590
-0.0210729092 0.0077020600 -0.0004479964
-0.0214197077 0.0073755328 -0.0000017663
-0.0195953511 0.0078871567 -0.0003828336
-0.0184648074 0.0064606722 0.0010321210
0.0210134014 0.0091181006 0.0000919397
-0.0133567257 0.0092292167 -0.0005015288
-0.0123188300 0.0092191882 -0.0005718102
0.0076172827 0.0077697374 -0.0014587943
0.0257535353 0.0095546618 0.0110554993
0.0246552601 0.0075076558 -0.0046308343
0.0256692860 0.0075074285 -0.0046445657
0.0116821649 0.0090526454 -0.0019196128
-0.0053615207 0.0091512762 -0.0011887033
-0.0560007691 0.0111360028 0.0397606641
-0.0242057294 0.0056016743 0.0012606676
-0.0238326117 0.0058250632 0.0018098722
-0.0237723291 0.0056010280 0.0016849334
0.0142968325 0.0078995060 -0.0018368368
0.0086292336 0.0090616252 -0.0019071181
0.0096374499 0.0086642578 -0.0017702659
0.0106296344 0.0090558641 -0.0019071181
-0.0033739088 0.0091366768 -0.0012824093
0.0333260559 0.0103321522 0.0303900987
-0.0585904717 0.0114084035 0.0379802585
-0.0575486720 0.0113625005 0.0371056795
-0.0564683527 0.0113576837 0.0373086929
-0.0273283012 0.0069192778 -0.0010012914
0.0295535084 0.0093489382 0.0087440908
-0.0301269330 0.0093584303 -0.0009735231
0.0213913005 0.0065009203 -0.0041373153
-0.0013839725 0.0093321800 -0.0014385884
-0.0576193333 0.0110614821 0.0372306108
0.0337602384 0.0102895014 0.0328420699
0.0218902156 0.0072284378 -0.0044309204
0.0226875618 0.0075487029 -0.0045211171
-0.0203872360 0.0077156778 -0.0004702960
0.0126384562 0.0092555061 -0.0020164405
-0.0122942273 0.0094319284 -0.0006420915
0.0279495288 0.0084176082 0.0049021612
0.0056578005 0.0074078627 -0.0012699221
0.0256368555 0.0098012015 0.0113053843
0.0287844911 0.0097463578 0.0099622682
0.0116917817 0.0092587657 -0.0019945805
0.0126322163 0.0052704662 -0.0002204035
0.0066176755 0.0086706039 -0.0017756526
-0.0003082632 0.0077514760 -0.0009798263
0.0006484416 0.0038291700 0.0011299099
0.0279174782 0.0087456219 0.0080256835
0.0126837436 0.0089344848 -0.0019071181
-0.0222449452 0.0057835300 0.0020701657
-0.0023191040 0.0062914230 -0.0001579379
-0.0083559072 0.0092798322 -0.0010911082
-0.0073567880 0.0092725605 -0.0011168798
-0.0063501140 0.0092640445 -0.0011769985
-0.0596027598 0.0114515945 0.0387923717
0.0086376378 0.0092688929 -0.0019617756
0.0095866052 0.0092656501 -0.0019695838
0.0106381895 0.0092626214 -0.0019695838
-0.0654479191 0.0109264553 0.0396357328
-0.0043553961 0.0052849893 0.0009144763
-0.0033555096 0.0093462430 -0.0013511335
0.0142282592 0.0092447791 -0.0021882360
0.0204730891 0.0052924883 0.0026844586
0.0630193874 -0.0017259866 0.0300777555
-0.0192786083 0.0053078085 0.0020519416
-0.0563988686 0.0116581693 0.0371837616
0.0294386335 0.0096961893 0.0087544993
-0.0013735119 0.0095420964 -0.0014823158
0.0076901773 0.0093762893 -0.0019727205
0.0236409009 0.0075081438 -0.0046145846
-0.0193234868 0.0086171404 -0.0006447141
0.0117005771 0.0094648749 -0.0020632898
0.0126448497 0.0094621219 -0.0020710980
-0.0004170510 0.0083824806 -0.0011991267
-0.0003038730 0.0088127665 -0.0013448824
-0.0074019572 0.0073338859 -0.0002620523
-0.0565285087 0.0099157691 0.0404009819
0.0036566658 0.0085844286 -0.0015580063
0.0046624308 0.0085596088 -0.0016337936
0.0056829182 0.0085648019 -0.0017196913
0.0076533882 0.0086507220 -0.0017496799
0.0259954631 0.0098245963 0.0118676126
0.0265393090 0.0100275427 0.0110659078
0.0271738283 0.0100397617 0.0113366172
0.0288630705 0.0099299997 0.0088221878
-0.0151409721 0.0094563700 -0.0005640094
-0.0660043582 0.0118892193 0.0399168432
0.0142633887 0.0087816119 -0.0020242487
-0.0083384430 0.0095980056 -0.0011496623
-0.0073315157 0.0095891915 -0.0012012054
-0.0063312342 0.0095810145 -0.0012433683
-0.0273314714 0.0075761713 -0.0010044281
-0.0263645314 0.0075686891 -0.0010356759
0.0026864382 0.0085557140 -0.0014747535
0.0096675660 0.0059315432 -0.0003922065
-0.0654872879 0.0109481327 0.0402604342
-0.0113675995 0.0085397530 -0.0005110358
-0.0033407090 0.0095561072 -0.0014073555
-0.0187240914 0.0067205466 0.0006041969
-0.0172752887 0.0072475038 0.0021886001
-0.0103256060 0.0085863546 -0.0006506373
-0.0164458007 0.0073904060 0.0021534557
0.0204619709 0.0090111084 0.0028874869
-0.0562960878 0.0119676888 0.0372930914
0.0245830771 0.0099554695 0.0094416812
0.0294396579 0.0099284463 0.0087753311
-0.0013597097 0.0097512715 -0.0015385379
-0.0033479827 0.0087331533 -0.0011310582
-0.0561973527 0.0115822032 0.0391945243
-0.0560624748 0.0116191693 0.0401589125
0.0230262782 0.0081255659 -0.0043434654
0.0236372128 0.0081242602 -0.0043809493
0.0260774028 0.0083270762 -0.0044059311
-0.0256545953 0.0078912005 -0.0010403399
-0.0646597445 0.0122165866 0.0406352580
0.0211937129 0.0081273336 -0.0043122252
0.0236336049 0.0083356947 -0.0041456451
0.0281126127 0.0102640912 0.0110554993
0.0276298206 0.0102406815 0.0105557367
0.0284474026 0.0102347508 0.0104151815
0.0288638100 0.0101622120 0.0088378042
0.0196610112 0.0039958023 0.0015495787
-0.0158324987 0.0095084123 0.0005917023
-0.0561536849 0.0120942928 0.0403072834
0.0126512432 0.0096685328 -0.0021257629
0.0208032615 0.0067756437 0.0000606994
0.0056893984 0.0078251977 -0.0014385884
-0.0093419729 0.0095187612 -0.0010506217
-0.0083190380 0.0098088272 -0.0012121354
-0.0073147221 0.0098000020 -0.0012574275
-0.0063227965 0.0097927228 -0.0012746011
0.0252802819 0.0101921149 0.0095249712
0.0266752355 0.0101896524 0.0094625056
0.0166043602 0.0079639591 -0.0030878042
0.0207495857 0.0091656316 0.0012788768
-0.0241755322 0.0098558180 -0.0007358049
-0.0053619435 0.0065032560 -0.0001646210
-0.0113430722 0.0095262565 -0.0007982780
0.0036327345 0.0073798988 -0.0011991267
0.0214033742 0.0077893753 -0.0017665555
0.0260019749 0.0098616518 0.0127421990
-0.0122720255 0.0097523183 -0.0007084613
-0.0180153511 0.0087848101 0.0014194394
-0.0173596963 0.0085534230 0.0012437622
0.0267261807 0.0097205751 0.0132003203
0.0284171104 0.0097733103 0.0134840384
0.0197303407 0.0070307627 0.0022705938
-0.0186445788 0.0076370873 0.0002377029
-0.0173636377 0.0077156909 0.0013725902
-0.0148418453 0.0037905853 0.0028406377
-0.0195674337 0.0030689985 0.0057455148
-0.0111646159 0.0079249758 -0.0003349413
-0.0113919629 0.0074985549 -0.0001423140
0.0198718589 0.0094420835 0.0044752727
0.0208840407 0.0095187649 0.0032466943
0.0204742942 0.0095795691 0.0042306106
0.0212729461 0.0097437799 0.0046210433
0.0347926989 0.0101734996 0.0334667712
-0.0333274454 0.0106446110 0.0071823285
-0.0572140291 0.0121517070 0.0342632681
-0.0590607822 0.0113888718 0.0373243243
-0.0013509515 0.0099611543 -0.0015760218
-0.0566098094 0.0116234794 0.0362623334
-0.0033221310 0.0098710805 -0.0014791940
-0.0026145736 0.0091326851 -0.0012824093
0.0056202626 0.0067958012 -0.0009120558
0.0227113143 0.0102019086 0.0049021612
-0.0003442514 0.0095059127 -0.0015237709
-0.0133984489 0.0100848749 -0.0007045572
-0.0125946356 0.0100762211 -0.0007514139
-0.0570271239 0.0106147006 0.0393546075
-0.0559755415 0.0105128437 0.0397294313
0.0047078179 0.0094965622 -0.0018721079
0.0066340351 0.0095895268 -0.0019758199
0.0249692909 0.0098242797 0.0100039169
0.0233415868 0.0103149116 0.0072448025
0.0286345184 0.0103965886 0.0089002624
0.0208303854 0.0077290274 -0.0039864858
0.0013774995 0.0082670897 -0.0012719934
0.0174913313 0.0068062283 -0.0023756404
0.0117103113 0.0097747147 -0.0021413793
0.0266827457 0.0075064451 -0.0046883007
-0.0023219595 0.0075521953 -0.0007416685
-0.0292753726 0.0085800849 -0.0009700661
-0.0283089355 0.0085711628 -0.0009798263
0.0168481227 0.0087580141 -0.0032346104
-0.0273272544 0.0085610747 -0.0010286425
0.0163636710 0.0088084769 -0.0033796285
0.0176402051 0.0085798595 -0.0031390493
-0.0564972907 0.0098880678 0.0394483209
-0.0103745228 0.0096002109 -0.0009433036
0.0274642017 0.0083612707 0.0031217556
-0.0142603507 0.0088229850 -0.0004416485
-0.0068592271 0.0100076050 -0.0013136496
-0.0074177450 0.0100128949 -0.0012824093
-0.0600899607 0.0111761950 0.0396044850
-0.0600585639 0.0111951493 0.0401354879
-0.0063094785 0.0100035593 -0.0013214578
-0.0570180044 0.0115804896 0.0350753814
-0.0574698299 0.0116162859 0.0358250290
0.0204384718 0.0101308301 0.0034028734
-0.0043521570 0.0075819232 -0.0006228168
-0.0033169026 0.0075572915 -0.0006905277
-0.0591777340 0.0126019157 0.0369182676
0.0028580083 0.0079778619 -0.0013344665
-0.0564509630 0.0124274828 0.0372540355
0.0237765089 0.0103940666 0.0088846534
0.0247494522 0.0102804378 0.0092840269
0.0256277937 0.0104085281 0.0091813877
0.0266700666 0.0104043707 0.0090876743
0.0277117044 0.0104015544 0.0090174004
0.0294420216 0.0102780499 0.0088273883
0.0204829704 0.0079865251 -0.0021882360
-0.0301559903 0.0102513507 -0.0007201736
-0.0042942213 0.0097142756 -0.0013850485
-0.0242878459 0.0106165633 0.0037152241
-0.0023263311 0.0095949210 -0.0014646132
0.0066425065 0.0101110414 -0.0020320569
0.0225978848 0.0104288794 0.0049750428
0.0077056317 0.0101047158 -0.0020757844
0.0086659612 0.0100975111 -0.0021491875
0.0096182106 0.0100922659 -0.0021882360
0.0106676696 0.0100888759 -0.0021882360
0.0117157791 0.0100857355 -0.0021882360
0.0126580326 0.0100831203 -0.0021882360
0.0227980055 0.0103318095 0.0060370485
-0.0053793406 0.0089406595 -0.0011262377
0.0036285101 0.0095045008 -0.0017933999
-0.0241070874 0.0102602541 0.0029280926
0.0286331121 0.0106255449 0.0088456050
-0.0661549941 0.0124896392 0.0400652140
0.0106555363 0.0096752532 -0.0020966013
-0.0224979743 0.0065290257 0.0020962055
-0.0625887141 0.0127729326 0.0396044850
-0.0084121739 0.0102339163 -0.0012719934
-0.0604044646 0.0126850307 0.0383550823
-0.0204009898 0.0059257746 0.0003973390
-0.0215134025 0.0101357028 -0.0011887033
-0.0593121126 0.0106691159 0.0402708501
-0.0063011264 0.0102150291 -0.0013526906
-0.0112960888 0.0100572929 -0.0009388258
-0.0033053691 0.0101860352 -0.0015447889
-0.0557603240 0.0099135526 0.0405727774
-0.0083101271 0.0100209564 -0.0012433683
-0.0181470327 0.0067451335 0.0025470327
-0.0294685066 0.0110743456 0.0071823285
-0.0598173589 0.0129269250 0.0371056795
-0.0562971756 0.0128859207 0.0372722596
0.0237762686 0.0106264725 0.0089002699
0.0247001499 0.0106406286 0.0091813877
0.0256274827 0.0106368437 0.0091032982
0.0266688112 0.0106313974 0.0089877322
0.0277087819 0.0106271878 0.0088924617
0.0293270592 0.0106258020 0.0088377967
0.0256361179 0.0100288615 0.0111023486
0.0230457615 0.0106483325 0.0049021612
0.0077091912 0.0103128515 -0.0021007811
0.0086703980 0.0103050694 -0.0021804278
0.0096213892 0.0102999844 -0.0022132252
0.0106715737 0.0102961697 -0.0022194688
0.0117194010 0.0102929473 -0.0022194688
0.0126614049 0.0102902576 -0.0022194688
0.0232559536 0.0106860027 0.0056205685
-0.0634418428 0.0131228827 0.0401042551
-0.0200246722 0.0058042128 0.0007166411
-0.0263583325 0.0085517000 -0.0010637869
0.0200744905 0.0083979163 -0.0023444076
0.0277089421 0.0108588971 0.0088924617
0.0175769869 0.0075847358 -0.0027667587
0.0286333170 0.0108571760 0.0088456050
0.0266337749 0.0081178620 -0.0045933430
-0.0240667872 0.0076027662 0.0012788768
-0.0152369766 0.0049069319 0.0026532258
-0.0307258219 0.0111615658 0.0086503923
-0.0293263793 0.0111264549 0.0082651600
-0.0086305281 0.0104486421 -0.0012824093
-0.0272942968 0.0111009404 0.0082052946
-0.0293254033 0.0095485672 -0.0009322618
-0.0283429734 0.0095800199 -0.0009894078
-0.0273542181 0.0095487759 -0.0009966199
-0.0263442174 0.0095338412 -0.0011106287
-0.0253926814 0.0095915124 -0.0010762741
0.0177365039 0.0092529263 -0.0032546823
-0.0203402042 0.0065632463 0.0001790668
-0.0210753493 0.0102834180 -0.0016384949
0.0212613344 0.0090818033 -0.0008138870
-0.0215098783 0.0094652623 -0.0007670303
-0.0123724630 0.0103790425 -0.0008867537
-0.0633282289 0.0127852969 0.0396461338
0.0106824217 0.0058353059 -0.0004390632
-0.0585337803 0.0130830109 0.0344506800
0.0247001667 0.0108729042 0.0091813877
0.0256274510 0.0108677298 0.0090798736
0.0266688634 0.0108629577 0.0089814812
0.0292115789 0.0108573139 0.0088377967
0.0211391766 0.0076535549 -0.0029691164
-0.0044328300 0.0092143323 -0.0012563844
-0.0093340715 0.0085282959 -0.0007231762
0.0230487958 0.0108631104 0.0047459821
-0.0256005973 0.0085810684 -0.0010811319
-0.0003504037 0.0103717707 -0.0017092829
-0.0013313378 0.0103800520 -0.0016593118
0.0361763462 0.0125134252 0.0347317904
-0.0286883600 0.0109021738 0.0087128580
-0.0054422030 0.0095168687 -0.0012568613
0.0046279216 0.0103302374 -0.0020164480
0.0124420226 0.0071825944 -0.0012615849
-0.0218801461 0.0054825060 0.0014506723
0.0286335275 0.0110888407 0.0088456050
0.0066464124 0.0104240254 -0.0020601754
0.0234477036 0.0105666816 0.0077133323
0.0232360587 0.0105179101 0.0067450400
0.0225716326 0.0106599368 0.0042712162
-0.0150807044 0.0104210973 -0.0007357975
-0.0155822886 0.0062359143 0.0017474066
0.0006281146 0.0095544942 -0.0015933965
0.0117230089 0.0105000548 -0.0022507017
-0.0624965429 0.0130777508 0.0394483209
-0.0013784553 0.0083679501 -0.0011158367
-0.0294373631 0.0102334879 -0.0009284099
-0.0281008184 0.0102168210 -0.0009544422
0.0272140633 0.0098975524 0.0135855526
0.0276836511 0.0096555054 0.0142380148
-0.0137329763 0.0044646244 0.0017474066
-0.0204184465 0.0097256750 -0.0014042337
-0.0563275591 0.0107137971 0.0394379050
-0.0124033783 0.0107094161 -0.0009778668
-0.0180838928 0.0096533522 0.0010133754
-0.0103336526 0.0104684308 -0.0011522775
0.0126546444 0.0098758787 -0.0021569957
-0.0583536103 0.0122247897 0.0355751514
-0.0575602204 0.0124832094 0.0348255038
-0.0531475693 0.0135726854 0.0395107865
-0.0563261136 0.0127772540 0.0350233316
-0.0156084811 0.0084249042 0.0010081748
-0.0587999448 0.0133679062 0.0340446234
-0.0564681068 0.0133365877 0.0341175050
-0.0043470832 0.0105351210 -0.0015340229
0.0358774140 0.0125042871 0.0345756263
-0.0023401650 0.0105118416 -0.0016370122
0.0229420122 0.0110737644 0.0045273448
-0.0003382444 0.0107911341 -0.0017665555
-0.0013195454 0.0108001158 -0.0017134626
0.0364792123 0.0128111318 0.0349192023
0.0361541733 0.0127838850 0.0344506800
0.0046356572 0.0107475482 -0.0020632898
0.0286337435 0.0113205388 0.0088456050
0.0292119421 0.0112048239 0.0088377967
0.0209618863 0.0048587099 0.0014038156
0.0066491375 0.0107372701 -0.0020820354
-0.0083760945 0.0089616850 -0.0010247161
-0.0660854355 0.0131576732 0.0400105566
0.0096362000 0.0065608695 -0.0008876105
0.0117266029 0.0107070617 -0.0022819419
0.0126213878 0.0105861127 -0.0022640903
0.0006196060 0.0083765872 -0.0012511839
-0.0260413364 0.0102564320 -0.0011782949
0.0284777563 0.0100454092 0.0114459395
-0.0185124017 0.0071912371 0.0007895227
-0.0210672766 0.0108204521 -0.0018342366
-0.0193996802 0.0066125654 0.0004079561
0.0207578931 0.0100461096 0.0063389833
-0.0023442442 0.0085010305 -0.0010725190
-0.0103105335 0.0108927749 -0.0012277518
-0.0165055394 0.0095098987 0.0011890973
-0.0073362878 0.0105181262 -0.0013570269
-0.0655171946 0.0116207562 0.0401310325
-0.0565498322 0.0125357546 0.0362623185
-0.0093300892 0.0100320242 -0.0011637141
-0.0179809928 0.0071403049 0.0022003124
-0.0571541935 0.0118580796 0.0344506800
-0.0254186280 0.0106603168 0.0043815668
0.0208917074 0.0106979534 0.0030436586
0.0216537137 0.0107576028 0.0032060887
0.0215883236 0.0106032304 0.0040379832
-0.0043809703 0.0089332312 -0.0011809026
-0.0628538951 0.0139615908 0.0382926166
-0.0012387215 0.0088696033 -0.0013261442
0.0201509371 0.0110915117 0.0048084552
0.0350330099 0.0127992891 0.0347630382
-0.0242281891 0.0113198869 0.0040900479
-0.0305772088 0.0111706778 0.0088690370
-0.0013142350 0.0110101290 -0.0017384444
-0.0003335393 0.0110009760 -0.0017899801
0.0363889486 0.0130335987 0.0338259786
0.0211309306 0.0101454295 0.0084942132
0.0266815647 0.0067953952 -0.0047495146
0.0273907222 0.0064917114 -0.0047463928
0.0195513088 0.0056766961 0.0011789273
-0.0239903517 0.0060497280 0.0018879618
0.0136424173 0.0086523220 -0.0018446301
0.0086292187 0.0065917186 -0.0008792062
-0.0322043374 0.0121193491 0.0125964358
0.0286342222 0.0115527287 0.0088534206
0.0292123165 0.0115524046 0.0088377967
0.0333237574 0.0100541078 0.0303588659
-0.0231262892 0.0086596105 0.0021326463
-0.0617150441 0.0139367543 0.0381676704
0.0223435368 0.0084154736 -0.0017821719
-0.0211648457 0.0086058620 -0.0007607793
-0.0203473754 0.0086100809 -0.0008243104
0.0281593502 0.0101064816 0.0128359050
-0.0185741223 0.0088332705 -0.0005223607
-0.0239800178 0.0092249624 0.0030905153
0.0330494791 0.0099168904 0.0304057151
0.0115166120 0.0109164827 -0.0022819419
0.0256728455 0.0082228277 -0.0040311147
-0.0104316389 0.0058042221 0.0006445567
-0.0223015063 0.0074206740 0.0010602321
0.0268706083 0.0094618723 0.0148349628
0.0276030600 0.0094642751 0.0148896277
-0.0261728354 0.0110643022 0.0077133323
0.0201055072 0.0109212324 0.0057767476
-0.0562517270 0.0116343237 0.0381614268
0.0216084272 0.0103242025 0.0062530930
-0.0123878224 0.0109218657 -0.0010247161
-0.0172549747 0.0099626705 0.0006854082
0.0127350325 0.0108688027 -0.0023194184
-0.0144346831 0.0095987804 -0.0014519771
0.0203725994 0.0098667145 0.0048631201
0.0006503210 0.0087953396 -0.0013839309
0.0016638272 0.0086341687 -0.0014220555
-0.0562416390 0.0134048536 0.0371636897
0.0347955152 0.0131256841 0.0354502052
0.0247002039 0.0113375708 0.0091814026
0.0256275758 0.0113319978 0.0090798959
0.0266689155 0.0113261081 0.0089689940
0.0277090129 0.0113216750 0.0088794529
0.0077178339 0.0111465752 -0.0021694978
0.0086788191 0.0111376457 -0.0022507017
0.0095242159 0.0111324191 -0.0022819419
0.0106779132 0.0111281611 -0.0022819419
-0.0024018260 0.0112307668 -0.0017072116
-0.0290953852 0.0111740343 0.0092750937
-0.0606867075 0.0123992749 0.0388236046
-0.0561063737 0.0125011653 0.0401146710
0.0036760299 0.0111731663 -0.0020508026
-0.0013089898 0.0112200752 -0.0017634337
-0.0003289051 0.0112107545 -0.0018134122
-0.0284047835 0.0111485012 0.0089158863
0.0363610238 0.0132972598 0.0334823877
0.0403165743 0.0133705400 0.0345131457
0.0046400176 0.0111655146 -0.0020945300
0.0066507692 0.0111554563 -0.0021007811
0.0147556318 0.0085939392 -0.0028910269
0.0106823910 0.0111262687 -0.0023131748
0.0117295003 0.0111226924 -0.0023131748
0.0292137284 0.0117860809 0.0088690370
0.0219795704 0.0103063323 0.0070573906
-0.0616234168 0.0142372176 0.0380114913
0.0202392265 0.0084271636 -0.0014698212
0.0136205582 0.0111120306 -0.0023943861
0.0120440731 0.0109129734 -0.0023131748
0.0269762371 0.0096647702 0.0138041973
0.0209596958 0.0100748315 0.0069636847
-0.0173691958 0.0106427073 0.0006229202
-0.0170392059 0.0101818778 0.0007166411
-0.0100623621 0.0113139488 -0.0013136496
-0.0103749065 0.0111770071 -0.0012615924
-0.0634703562 0.0137815364 0.0391359627
-0.0610454753 0.0144839250 0.0370744318
-0.0294171870 0.0122213289 0.0124967843
-0.0217955522 0.0085457731 -0.0000486230
-0.0157521069 0.0107007772 0.0003652419
-0.0093888259 0.0111995749 -0.0013409783
-0.0074526360 0.0112140514 -0.0014281799
-0.0652408302 0.0124717802 0.0400819331
-0.0642175749 0.0125084631 0.0402135849
-0.0542051122 0.0145196132 0.0395420194
-0.0564259589 0.0142480321 0.0343023092
-0.0567145795 0.0141834244 0.0331075639
0.0347652435 0.0133869648 0.0350129157
0.0407973044 0.0133985952 0.0349504501
0.0247001946 0.0118033066 0.0091970041
0.0256279185 0.0117992051 0.0091267228
0.0266695451 0.0117919445 0.0090002269
0.0227148011 0.0082352199 -0.0041039889
-0.0565393418 0.0128252991 0.0341695547
0.0077202013 0.0113548078 -0.0021882360
0.0086805727 0.0113458112 -0.0022663181
0.0093134725 0.0113422498 -0.0022819419
-0.0013071235 0.0114307441 -0.0017759283
-0.0003262620 0.0114209689 -0.0018290286
0.0363357142 0.0135614872 0.0331700295
0.0405955911 0.0136528909 0.0344350636
0.0046437671 0.0113739558 -0.0021179547
0.0066521084 0.0113643482 -0.0021132682
0.0016801943 0.0105365850 -0.0018486981
0.0096911564 0.0071879160 -0.0012511765
0.0106816934 0.0113350973 -0.0023131748
0.0286348239 0.0119009241 0.0088612214
-0.0232580937 0.0094059817 0.0020597572
-0.0224218741 0.0093501601 0.0007791142
-0.0202513561 0.0093368161 -0.0012199436
-0.0192846134 0.0095343851 -0.0011399095
-0.0185402930 0.0095791891 -0.0008785953
-0.0250055604 0.0099945590 -0.0002516513
0.0117304623 0.0113306567 -0.0023256694
-0.0193512514 0.0058038570 0.0011773626
-0.0123056015 0.0066904090 0.0005292217
-0.0124261593 0.0062871575 0.0007791142
0.0204739776 0.0088919643 0.0026219930
-0.0133701023 0.0113770887 -0.0010191505
-0.0101677096 0.0115276687 -0.0013344665
-0.0106293065 0.0115350410 -0.0012824093
0.0056603728 0.0095115975 -0.0019482006
-0.0149296401 0.0109396093 -0.0011262377
-0.0164898932 0.0106875896 0.0006749923
-0.0164661203 0.0105839372 0.0008085961
-0.0562566295 0.0136966743 0.0362154692
-0.0561425164 0.0135064758 0.0351503491
-0.0594752058 0.0146145932 0.0345443934
-0.0566344857 0.0144723617 0.0329670012
0.0247002169 0.0120357908 0.0091970041
0.0256281495 0.0120340101 0.0091657713
0.0153236026 0.0087356046 -0.0032111858
-0.0301589444 0.0098930821 -0.0008388688
-0.0543612614 0.0147030540 0.0374076068
-0.0537667125 0.0145499259 0.0375585854
-0.0063722311 0.0107616335 -0.0014139344
-0.0322926566 0.0117435083 0.0125157461
-0.0310587995 0.0116158389 0.0127265826
0.0275196508 0.0075198561 -0.0046714325
-0.0219224729 0.0077861100 0.0002377029
0.0286309421 0.0098564401 0.0125860274
0.0197936762 0.0064707156 0.0010602321
-0.0240492187 0.0065291859 0.0021964083
0.0135924891 0.0095620342 -0.0021194969
0.0247002300 0.0122688226 0.0092048123
0.0145602068 0.0097588748 -0.0027660807
0.0148673812 0.0095026307 -0.0036354666
0.0168247540 0.0091946833 -0.0032710512
0.0278254729 0.0122491196 0.0088794529
0.0286354385 0.0122492202 0.0088690370
-0.0240936168 0.0098300353 0.0012944932
-0.0234590285 0.0098207444 0.0012164111
0.0117323352 0.0115381926 -0.0023444076
-0.0189408958 0.0101065040 -0.0012824093
-0.0190947130 0.0027754046 0.0087753311
0.0025800643 0.0075199455 -0.0011361097
-0.0560789257 0.0125790015 0.0381520689
-0.0123280874 0.0075346660 -0.0000500386
-0.0182054341 0.0107211843 0.0006117742
-0.0180792920 0.0101911314 0.0007166411
-0.0103942705 0.0117443651 -0.0013261442
-0.0144295609 0.0065471940 0.0005604620
-0.0093791811 0.0116247497 -0.0013800194
-0.0592315197 0.0137129091 0.0347317904
0.0097494293 0.0114314705 -0.0023131748
0.0106809260 0.0115439706 -0.0023131748
-0.0545938835 0.0151504725 0.0396044850
-0.0033834456 0.0114511549 -0.0016806503
-0.0573561490 0.0127659179 0.0344819129
0.0206920411 0.0115388893 0.0031201164
0.0215383880 0.0113378055 0.0033456008
-0.0288806111 0.0110598914 0.0070261578
-0.0564627498 0.0147668868 0.0329513848
-0.0248292834 0.0125858411 0.0058704535
-0.0320703201 0.0131269805 0.0128359050
-0.0317396931 0.0131144971 0.0127109662
-0.0033799456 0.0118736513 -0.0017040898
-0.0260891691 0.0125035606 0.0080360845
-0.0543246716 0.0150041878 0.0373347253
0.0364748836 0.0141254254 0.0331231803
-0.0063763624 0.0115919821 -0.0014948105
0.0393414907 0.0141523480 0.0334042907
0.0405494273 0.0141970888 0.0340133905
0.0248162951 0.0125012398 0.0092022121
-0.0281218812 0.0114798248 0.0107431486
-0.0003213800 0.0117359683 -0.0018563573
0.0150908018 0.0058041345 -0.0024068807
0.0166090336 0.0096531734 -0.0034915810
-0.0241282471 0.0097428523 0.0001600827
0.0118702203 0.0043114051 0.0002293731
0.0148829808 0.0088819023 -0.0034454544
-0.0184544697 0.0105436891 -0.0010975976
0.0198249090 0.0059286542 0.0004667635
-0.0236686729 0.0096192919 -0.0010481481
-0.0033355569 0.0106888600 -0.0016190489
-0.0103919310 0.0119576938 -0.0013386388
-0.0634480864 0.0145990402 0.0383706987
0.0055878134 0.0105337277 -0.0020545279
0.0116269952 0.0117473155 -0.0023444076
-0.0165605992 0.0117103830 0.0006354372
0.0206289012 0.0104952157 0.0040666158
0.0205911193 0.0105777085 0.0049438099
0.0218111891 0.0104397386 0.0051832790
-0.0123618823 0.0115616955 -0.0011106287
-0.0654570982 0.0132424124 0.0397814959
-0.0641984493 0.0131369606 0.0401667207
-0.0634039715 0.0134197399 0.0397502482
0.0106828799 0.0117516182 -0.0023319130
0.0385932103 0.0141252875 0.0330346972
-0.0043743616 0.0115677156 -0.0016306792
-0.0285037346 0.0107840225 0.0062765176
-0.0285086296 0.0108331814 0.0073072757
-0.0652048439 0.0148509070 0.0385945588
-0.0643712506 0.0146714412 0.0385781974
-0.0606835037 0.0143232197 0.0370588303
0.0016762194 0.0095193498 -0.0016522338
0.0026543448 0.0095117167 -0.0017243777
-0.0310824998 0.0133551434 0.0127265826
-0.0552626029 0.0155083761 0.0401667207
-0.0083684688 0.0121451542 -0.0014510830
-0.0260614306 0.0129731968 0.0079632103
0.0364756100 0.0144087747 0.0331231803
0.0393373966 0.0144332200 0.0333574414
0.0405521840 0.0144836754 0.0340290070
-0.0238884240 0.0079019591 -0.0000798558
-0.0237772167 0.0079484042 0.0003418247
-0.0218870826 0.0082233064 0.0001544054
0.0256768577 0.0081599094 -0.0032502343
0.0249323212 0.0127356760 0.0092282444
-0.0003206014 0.0120519698 -0.0018680696
0.0226293150 0.0067961253 -0.0047120308
0.0277793668 0.0125735290 0.0088752806
-0.0242707841 0.0102940053 0.0016537006
-0.0163878128 0.0079199597 0.0014975290
-0.0243388899 0.0102335364 0.0003168280
-0.0281830616 0.0106556676 0.0036527510
-0.0132994903 0.0087849107 -0.0003899713
-0.0123404888 0.0090058688 -0.0005093371
-0.0183609761 0.0115915053 -0.0008416479
0.0088753505 0.0118438303 -0.0023131748
-0.0311739370 0.0131028369 0.0126484931
0.0096335476 0.0118604526 -0.0023287912
0.0265550520 0.0120294839 0.0090876818
-0.0043810150 0.0110392198 -0.0015947674
-0.0246115141 0.0115985647 0.0049021612
0.0216621216 0.0117110759 0.0040310542
-0.0153941615 0.0121673532 -0.0005640020
-0.0585777909 0.0119396597 0.0359499753
-0.0182245038 0.0115835294 0.0004250999
-0.0256408341 0.0107054897 0.0052769850
-0.0103918565 0.0121714473 -0.0013448824
0.0279406663 0.0119007416 0.0088690370
-0.0148636466 0.0117893517 -0.0013136496
-0.0565099046 0.0152166039 0.0341305137
-0.0623030737 0.0142460056 0.0379698426
-0.0132677332 0.0118946508 -0.0010911082
-0.0053702900 0.0121097006 -0.0015869592
-0.0555601195 0.0105784424 0.0399668217
-0.0652109459 0.0144450851 0.0388027877
0.0201448333 0.0105409548 0.0049490179
-0.0573458523 0.0153468512 0.0324516296
-0.0615854710 0.0155645199 0.0345756263
-0.0366589502 0.0145103931 0.0249239355
-0.0563442260 0.0153657086 0.0330138505
0.0076996563 0.0097925030 -0.0020351862
0.0086509679 0.0096837282 -0.0020502810
0.0096051907 0.0096784681 -0.0020966013
0.0255819727 0.0124548152 0.0092001408
0.0153652215 0.0095133260 -0.0031252881
-0.0083705066 0.0123587251 -0.0014510830
-0.0582808703 0.0148428231 0.0312646925
-0.0546273887 0.0153871588 0.0384487957
-0.0539842770 0.0152658373 0.0367308557
0.0066517210 0.0109458119 -0.0021007811
-0.0063719964 0.0122288205 -0.0015260433
-0.0252873711 0.0131235197 0.0068387459
0.0203201491 0.0072270054 0.0012788768
0.0135749355 0.0102718621 -0.0022395630
0.0142365182 0.0101787113 -0.0022819419
0.0146489358 0.0106265247 -0.0024785404
0.0016284612 0.0116118640 -0.0019508307
0.0264170915 0.0097870566 0.0123829991
-0.0250906311 0.0102340132 0.0001544054
-0.0209549628 0.0116043761 -0.0019320999
-0.0203256942 0.0116045065 -0.0018046503
-0.0133650741 0.0123229176 -0.0011418615
0.0197597332 0.0065104049 0.0004071291
-0.0053748889 0.0115800276 -0.0015576710
-0.0250509903 0.0128524750 0.0063389833
-0.0164065883 0.0123601109 0.0005214135
-0.0153099326 0.0124769658 -0.0007826467
-0.0580592528 0.0116172731 0.0356688499
-0.0360442251 0.0144572370 0.0242680013
-0.0102804257 0.0123839974 -0.0013526906
-0.0162921250 0.0114208274 0.0007374655
-0.0642927811 0.0153016299 0.0381364375
-0.0560670942 0.0125130825 0.0392452776
0.0288066585 0.0083045997 0.0060578664
-0.0053697629 0.0123218261 -0.0015947674
-0.0203881450 0.0105554387 -0.0015986566
0.0292139966 0.0120179541 0.0088690370
0.0077141104 0.0107295960 -0.0021382500
-0.0626405254 0.0159622803 0.0356688499
-0.0612132624 0.0158214122 0.0339821577
-0.0561069921 0.0156514719 0.0328889191
-0.0525951385 0.0156060383 0.0331387967
-0.0083725853 0.0125723332 -0.0014510830
-0.0578502938 0.0155804902 0.0313583910
-0.0102798520 0.0125976354 -0.0013604988
-0.0534516498 0.0156828016 0.0340446234
-0.0063709458 0.0125474483 -0.0015385379
-0.0537930876 0.0147422105 0.0381989032
0.0016318661 0.0123469867 -0.0019852077
-0.0302369744 0.0117824674 0.0125391781
-0.0293623134 0.0117558688 0.0123941600
-0.0284875520 0.0119622461 0.0120550320
-0.0209587589 0.0124660991 -0.0019487669
-0.0202978328 0.0124614052 -0.0018904437
-0.0193237364 0.0124572031 -0.0017691557
-0.0119999526 0.0100671388 -0.0008451198
-0.0182718076 0.0123405270 -0.0009075855
-0.0181594938 0.0124607421 0.0002282257
-0.0133373840 0.0106150322 -0.0008763676
-0.0185134411 0.0083011407 -0.0001214971
-0.0319610834 0.0105357207 0.0051208059
0.0204205755 0.0121363252 0.0037464569
0.0216464829 0.0121111199 0.0033872570
-0.0144674620 0.0124334171 -0.0015578424
0.0175352506 0.0097232983 -0.0034022261
-0.0235045105 0.0117087066 0.0030488665
-0.0632270351 0.0154541917 0.0371577442
0.0393438749 0.0138703063 0.0334355235
-0.0638071299 0.0152456276 0.0386362076
0.0355993286 0.0129026733 0.0340550393
-0.0556172132 0.0111404359 0.0399949253
-0.0540706217 0.0152390637 0.0362935513
-0.0149215525 0.0113687515 -0.0011574705
0.0152661009 0.0079643056 -0.0031409119
-0.0604205802 0.0160404183 0.0329982489
-0.0083768172 0.0127864704 -0.0014448320
-0.0536848530 0.0160545036 0.0350129157
-0.0571965948 0.0157919750 0.0324672610
-0.0102821244 0.0128118843 -0.0013604988
0.0055938670 0.0115793906 -0.0021107499
0.0066551352 0.0117819197 -0.0021403362
0.0364923365 0.0152721554 0.0332949758
-0.0063709272 0.0127600357 -0.0015447889
-0.0239767320 0.0082438905 0.0003418173
0.0221005864 0.0084533542 -0.0006577079
-0.0197591968 0.0098240115 -0.0013240580
-0.0186090283 0.0056470688 0.0020776014
0.0333602391 0.0097985566 0.0309523344
0.0159071144 0.0106524788 -0.0039582257
0.0274228342 0.0100674517 0.0119613186
-0.0316229686 0.0105247647 0.0049646343
-0.0164244436 0.0085271057 0.0013795416
0.0349367671 0.0087585542 0.0335240364
-0.0193273276 0.0128881931 -0.0017743711
-0.0185183585 0.0125750415 -0.0015822579
-0.0173590183 0.0125546083 0.0004110853
-0.0634404570 0.0158707835 0.0363716483
0.0193911977 0.0032987576 0.0045273448
-0.0592591092 0.0128350146 0.0353565067
-0.0339422971 0.0109663382 0.0088065639
-0.0566007420 0.0162352026 0.0325765610
-0.0283899345 0.0108698905 0.0081037730
-0.0536097810 0.0161596015 0.0323110670
-0.0627738908 0.0156725161 0.0358874947
-0.0580562353 0.0134724453 0.0333886743
-0.0568966791 0.0138894208 0.0331387967
-0.0643963367 0.0128000788 0.0396357328
-0.0240104385 0.0122342594 0.0041212807
-0.0626074150 0.0162639096 0.0356063843
-0.0661518201 0.0158978589 0.0383550823
-0.0083789928 0.0130001791 -0.0014448320
-0.0573458001 0.0162385106 0.0324203968
-0.0530043244 0.0162578970 0.0338259786
0.0076685166 0.0072634369 -0.0012095277
0.0006317840 0.0105734244 -0.0017821570
0.0146314157 0.0114482604 -0.0027879556
0.0166295003 0.0115817040 -0.0037698676
0.0282090697 0.0094590038 0.0147412568
-0.0571408123 0.0134085640 0.0324516296
-0.0172813572 0.0095405057 0.0008586044
-0.0567853004 0.0137588158 0.0335136354
-0.0564085543 0.0137956478 0.0342866927
-0.0173289627 0.0132479891 0.0004979963
-0.0063729612 0.0129731297 -0.0015447889
-0.0093844188 0.0104563348 -0.0012444933
-0.0181125589 0.0130341239 0.0004459391
0.0393371284 0.0148582198 0.0333418250
-0.0559408292 0.0132152364 0.0378240794
-0.0346170217 0.0152154639 0.0237057656
0.0358095728 0.0130249783 0.0337010324
-0.0533664301 0.0163991824 0.0316082686
-0.0629208013 0.0168381296 0.0349816829
-0.0071557118 0.0110689849 -0.0014385884
-0.0653206557 0.0155642144 0.0382874161
-0.0642480552 0.0159325935 0.0370744467
-0.0024055662 0.0110201538 -0.0016884734
-0.0530492514 0.0163717270 0.0333262086
0.0026448322 0.0105838552 -0.0019198810
0.0036644218 0.0105466247 -0.0019820561
0.0046394551 0.0109560862 -0.0020867218
-0.0272375010 0.0136199221 0.0101809204
0.0086739957 0.0107216425 -0.0022116606
0.0096257776 0.0107158907 -0.0022507166
-0.0573380142 0.0165346600 0.0323969722
-0.0102951070 0.0132424310 -0.0013370742
-0.0532994792 0.0165994838 0.0343257338
-0.0063750362 0.0131862685 -0.0015447889
0.0148298116 0.0075576808 -0.0029191379
-0.0123442849 0.0058509111 0.0008693482
-0.0303911082 0.0124306828 0.0125458688
-0.0293186679 0.0127720237 0.0125048235
-0.0285605304 0.0126861818 0.0124688968
0.0200052038 0.0090262052 0.0032779272
-0.0564339980 0.0137939155 0.0315614194
-0.0158672519 0.0096582100 0.0006749923
-0.0092294132 0.0108256787 -0.0013136496
-0.0619473979 0.0167472064 0.0340133905
-0.0321931727 0.0128786080 0.0128202885
0.0277907699 0.0100890249 0.0124454647
-0.0559507459 0.0142762810 0.0349192023
-0.0083162775 0.0106571689 -0.0013337289
-0.0133258943 0.0096574612 -0.0005910774
0.0153605817 0.0109606460 -0.0031096716
0.0266905911 0.0100064725 0.0105869696
-0.0305255167 0.0116097219 0.0127265826
-0.0113414777 0.0106050782 -0.0010687117
-0.0148489950 0.0090156216 -0.0007201810
0.0284399278 0.0093609765 0.0142883435
-0.0294208564 0.0108090676 0.0065888609
0.0349907912 0.0134775378 0.0341617465
0.0356845073 0.0136009045 0.0334113985
-0.0140055930 0.0131836534 -0.0012511765
-0.0134323267 0.0132068098 -0.0012121429
-0.0663843527 0.0155305266 0.0390943140
-0.0264240243 0.0114796869 0.0080569163
0.0152957784 0.0059080906 -0.0023756479
0.0396785773 0.0136169977 0.0339079648
0.0405680537 0.0139228590 0.0341851860
-0.0555616394 0.0170618072 0.0358874947
-0.0528226122 0.0167834237 0.0329201519
0.0106753651 0.0107119754 -0.0022548889
-0.0587984771 0.0174521655 0.0401979685
-0.0555472672 0.0174213424 0.0406040251
-0.0221375264 0.0068166889 0.0014819051
-0.0574825406 0.0168319121 0.0323475152
-0.0103003001 0.0134575143 -0.0013292660
0.0055968082 0.0126257129 -0.0021544700
0.0066597341 0.0126173086 -0.0021882062
0.0006552142 0.0116209909 -0.0019033556
-0.0063771484 0.0133994482 -0.0015447889
-0.0610438660 0.0144515075 0.0365122110
-0.0193668269 0.0105342865 -0.0014535268
-0.0186596699 0.0108312033 -0.0014198502
-0.0589272752 0.0144880004 0.0325765610
-0.0576589853 0.0148197189 0.0310772806
-0.0564814135 0.0140784383 0.0313583910
-0.0622250214 0.0139280893 0.0378553122
-0.0636439249 0.0172012933 0.0355439186
0.0349630602 0.0150165409 0.0337322652
-0.0013006564 0.0125901029 -0.0018321355
0.0152653670 0.0125101618 -0.0034883996
0.0176564436 0.0125854760 -0.0034391885
0.0055948375 0.0132549480 -0.0021632467
0.0136543037 0.0107734427 -0.0023500849
-0.0652092621 0.0138022117 0.0393046290
-0.0643532202 0.0135978460 0.0392640233
-0.0643265620 0.0166452751 0.0361634046
0.0036812229 0.0126401149 -0.0021144976
0.0116352653 0.0132013895 -0.0024459292
0.0125820739 0.0131937079 -0.0024943431
-0.0596314520 0.0162173063 0.0314833373
-0.0602986962 0.0165648386 0.0319830924
-0.0141219376 0.0135082304 -0.0012511765
-0.0133513501 0.0135018751 -0.0012137000
0.0353986695 0.0161632076 0.0338103622
-0.0553405732 0.0177016035 0.0402292013
-0.0543232784 0.0176849514 0.0402604342
-0.0644859746 0.0160800777 0.0368870348
0.0205983426 0.0122033358 0.0047459821
-0.0530307069 0.0174091011 0.0370588303
0.0146383485 0.0124269910 -0.0028954898
-0.0210239924 0.0097298175 -0.0014385884
-0.0293992907 0.0139128789 0.0139291435
-0.0586057976 0.0150458738 0.0320455730
-0.0570723712 0.0148856342 0.0322954506
-0.0093754483 0.0119441748 -0.0013995473
-0.0625523105 0.0173957944 0.0343882143
0.0349614695 0.0152988806 0.0337010324
0.0356634669 0.0155188441 0.0335760862
0.0364839546 0.0148401633 0.0332090855
-0.0013065833 0.0133307762 -0.0018321355
-0.0294553079 0.0134464875 0.0125678107
0.0016251978 0.0132957473 -0.0019852002
0.0025472762 0.0133174025 -0.0020368625
-0.0564084351 0.0146965198 0.0342593640
-0.0193299055 0.0134266987 -0.0017860685
-0.0184976794 0.0134292804 -0.0016045203
-0.0181311406 0.0135862604 0.0004719491
-0.0209697746 0.0128985122 -0.0019383510
0.0116344001 0.0134102553 -0.0024459292
0.0125836870 0.0134008192 -0.0025130813
-0.0203106254 0.0128940269 -0.0018758778
-0.0589840934 0.0166811347 0.0299215764
-0.0583240911 0.0172127485 0.0293905586
-0.0575006753 0.0172167867 0.0296716988
-0.0643056780 0.0177255161 0.0351847112
-0.0636516437 0.0175085515 0.0355439186
0.0349557027 0.0144415982 0.0336489826
-0.0552050546 0.0179917030 0.0399793088
-0.0545226932 0.0180289485 0.0406040251
-0.0313578844 0.0117785037 0.0126068518
0.0055929003 0.0135700554 -0.0021632467
0.0066608740 0.0134539753 -0.0022194539
0.0203876030 0.0069195721 0.0021534557
-0.0530992597 0.0164435208 0.0322746187
0.0076926118 0.0117571913 -0.0022127707
-0.0415097103 0.0176526420 0.0387611389
0.0116272904 0.0119555742 -0.0023522233
-0.0302646495 0.0133370198 0.0126211643
0.0148660420 0.0116702393 -0.0033439402
-0.0286163837 0.0107481107 0.0054956297
-0.0589506626 0.0153499059 0.0320455730
-0.0270543210 0.0107742436 0.0064014490
-0.0132964915 0.0128032826 -0.0011887182
-0.0123422053 0.0126311406 -0.0011933972
-0.0102844415 0.0130261779 -0.0013604988
-0.0093763834 0.0125847124 -0.0014151637
-0.0663748011 0.0172787383 0.0371785462
-0.0654647350 0.0175539106 0.0356063843
-0.0053711617 0.0127467103 -0.0016025682
-0.0265695825 0.0137693658 0.0090252087
-0.0113593517 0.0115180276 -0.0012131562
-0.0193258300 0.0139639303 -0.0018134122
-0.0184826106 0.0139646269 -0.0016572331
-0.0418701917 0.0170554295 0.0388548523
0.0380198918 0.0142606534 0.0329670012
0.0386686027 0.0144820362 0.0330685228
0.0399591438 0.0146107599 0.0338337868
0.0404118225 0.0147698820 0.0340446234
-0.0552212149 0.0172289275 0.0361686200
0.0078928741 0.0128632821 -0.0023131748
-0.0588810444 0.0145150870 0.0330450982
-0.0578574836 0.0141985491 0.0330450982
0.0201493762 0.0095324740 0.0048709284
-0.0643633530 0.0180517510 0.0344506800
0.0356504358 0.0145709924 0.0334413648
-0.0023681661 0.0116782114 -0.0017431160
-0.0013034391 0.0118520372 -0.0018008952
0.0055909092 0.0138852522 -0.0021632467
0.0066583930 0.0138737224 -0.0022194688
0.0006589283 0.0125674568 -0.0019445871
0.0016289809 0.0127685517 -0.0019852077
0.0252811946 0.0098789558 0.0103683248
-0.0193480849 0.0116000250 -0.0016900157
-0.0186128393 0.0116002709 -0.0015468602
-0.0244256370 0.0102210268 0.0024814303
0.0344207995 0.0036310609 0.0364497304
-0.0567003340 0.0146475434 0.0323222280
-0.0594908819 0.0162366331 0.0317956805
-0.0143618276 0.0138368830 -0.0012238552
-0.0181341544 0.0142326690 0.0005667130
-0.0644938201 0.0174102709 0.0360280573
-0.0043698931 0.0125203989 -0.0016722162
-0.0114246299 0.0126163997 -0.0012636711
-0.0182681978 0.0142465085 -0.0008451198
-0.0140263578 0.0104668550 -0.0010183309
0.0026024589 0.0116019249 -0.0020145481
0.0036822530 0.0116957650 -0.0020929431
0.0046447376 0.0117927566 -0.0021335711
0.0084969224 0.0117380284 -0.0022780304
-0.0313233547 0.0125154182 0.0125815645
0.0106840748 0.0136278234 -0.0023943861
-0.0253924429 0.0101891235 -0.0009013494
0.0352647156 0.0133271515 0.0340133905
0.0143898251 0.0135883354 -0.0026880060
-0.0133554554 0.0138250627 -0.0012137000
-0.0639137551 0.0146329477 0.0388236046
-0.0043839673 0.0135842189 -0.0016572257
-0.0201850981 0.0143140182 -0.0018401896
-0.0193309486 0.0142878145 -0.0018134122
-0.0182985440 0.0144699812 -0.0007826467
-0.0569553673 0.0180965997 0.0298278630
-0.0202968046 0.0135160983 -0.0018391912
-0.0594941601 0.0181375593 0.0296092182
-0.0583265349 0.0180887654 0.0293593407
0.0153122889 0.0114747696 -0.0031565283
-0.0549022555 0.0183032528 0.0400417894
-0.0544696078 0.0182818994 0.0398856103
-0.0635963157 0.0146311261 0.0388860852
0.0055857608 0.0142020062 -0.0021476303
0.0066535557 0.0141901150 -0.0022038524
0.0136281112 0.0116279423 -0.0024724831
-0.0285817198 0.0134296641 0.0124923214
0.0266830698 0.0102167353 0.0100481659
0.0106802303 0.0142559111 -0.0023881351
-0.0542626455 0.0173016116 0.0353877395
0.0075551802 0.0125422254 -0.0022546132
-0.0565004796 0.0156339854 0.0325245112
-0.0619729459 0.0181309320 0.0323891491
-0.0140713966 0.0124789178 -0.0011762236
-0.0051962482 0.0098768175 -0.0013483544
-0.0108519187 0.0127140768 -0.0013136496
-0.0642020032 0.0184484012 0.0343673974
-0.0043968232 0.0143303908 -0.0016384874
-0.0156792589 0.0115630738 0.0001622136
-0.0140169328 0.0116636232 -0.0011200015
-0.0203320049 0.0146208480 -0.0018883799
-0.0193326958 0.0146110542 -0.0018212204
-0.0184949413 0.0143978894 -0.0016442169
0.0006499746 0.0135180950 -0.0019370844
0.0016184811 0.0138242319 -0.0019734954
-0.0143298274 0.0105917789 -0.0014958461
-0.0605284572 0.0177042931 0.0312334597
-0.0594270080 0.0176886469 0.0301350057
-0.0545461848 0.0144684352 0.0403541327
0.0079086451 0.0136970729 -0.0023131822
-0.0592733473 0.0184180848 0.0295155048
-0.0582147315 0.0183628201 0.0291719288
-0.0573717505 0.0183413811 0.0291562974
-0.0042950725 0.0146497786 -0.0016260003
0.0055818176 0.0145183392 -0.0021382575
0.0126290303 0.0115619861 -0.0023699780
0.0257501509 0.0102287866 0.0103162602
0.0106792105 0.0144652016 -0.0023881351
-0.0582492501 0.0166185126 0.0292968750
-0.0577799827 0.0167382509 0.0290782154
-0.0564406663 0.0121097229 0.0335448533
0.0613386929 -0.0039266925 0.0317644477
-0.0163269863 0.0049070921 0.0036423425
0.0143619059 0.0143265352 -0.0025864844
0.0149768582 0.0135186426 -0.0034688790
-0.0579935685 0.0158944651 0.0315770358
-0.0591472983 0.0192358792 0.0389485508
-0.0093496768 0.0144315213 -0.0013743793
-0.0053473888 0.0105994754 -0.0014613052
-0.0108615709 0.0135723241 -0.0013136496
-0.0114344535 0.0135826617 -0.0012668003
0.0201491714 0.0151097365 0.0047459821
-0.0103040254 0.0137792751 -0.0013292660
-0.0203184932 0.0148333684 -0.0019258563
-0.0193362795 0.0148270950 -0.0018212204
-0.0185064338 0.0148311555 -0.0016338085
-0.0164663456 0.0149308071 0.0007541250
-0.0164965801 0.0144493952 0.0006187628
-0.0156924240 0.0146200135 0.0000997479
-0.0593454912 0.0186764225 0.0290938318
-0.0587714091 0.0186525397 0.0289845169
-0.0575163588 0.0186329149 0.0291094482
0.0206483193 0.0148817748 0.0035121958
0.0106781740 0.0146745369 -0.0023881351
-0.0557854399 0.0188702419 0.0322329849
0.0142539917 0.0146421194 -0.0025630523
0.0074099051 0.0135493279 -0.0022819419
-0.0581961349 0.0156980827 0.0322694033
-0.0150447255 0.0145182498 -0.0009466340
-0.0143985068 0.0145985633 -0.0011574780
-0.0133819086 0.0145836920 -0.0011712243
-0.0123442663 0.0135971867 -0.0012179990
-0.0113800531 0.0145787485 -0.0012511839
0.0026334478 0.0125941634 -0.0020504971
0.0166526716 0.0106145740 -0.0036900197
-0.0164260343 0.0129113942 0.0005526613
-0.0202935785 0.0150432698 -0.0019883220
-0.0185100473 0.0150473937 -0.0016338085
0.0352520421 0.0158740357 0.0337635130
-0.0157224499 0.0151725039 0.0001544054
-0.0255384222 0.0133991688 0.0073697413
-0.0033801636 0.0125086531 -0.0017212485
-0.0024112714 0.0125147961 -0.0017730524
-0.0003189157 0.0125785396 -0.0018895348
0.0116330413 0.0125776380 -0.0024115820
0.0125789763 0.0125710964 -0.0024518599
0.0136318672 0.0125617273 -0.0025293161
-0.0591957197 0.0191931985 0.0384487957
0.0166556519 0.0125185326 -0.0034634327
-0.0236320943 0.0087627731 0.0028718705
-0.0582765341 0.0139446184 0.0337322652
-0.0574386939 0.0178276747 0.0292843729
0.0143574430 0.0148504823 -0.0025630523
0.0166240018 0.0144438818 -0.0034657349
-0.0578828827 0.0161755010 0.0313896239
-0.0626018494 0.0191860050 0.0322486013
-0.0546880290 0.0173361450 0.0396981984
-0.0534786731 0.0177862160 0.0378397107
-0.0545172840 0.0187518224 0.0312334597
-0.0123629821 0.0145676807 -0.0012012054
-0.0571928993 0.0172595941 0.0380739719
-0.0153012751 0.0127994865 -0.0008138870
-0.0144516630 0.0129523166 -0.0015361984
-0.0202773213 0.0152548775 -0.0020320569
-0.0193436034 0.0152593479 -0.0018212204
-0.0185205229 0.0152652860 -0.0016181921
-0.0312717706 0.0141755641 0.0173025429
0.0106839007 0.0119596533 -0.0023444076
0.0080430219 0.0142767318 -0.0023131748
-0.0596940294 0.0192472041 0.0288283378
-0.0580924302 0.0192406774 0.0292031616
-0.0576119870 0.0192314386 0.0292343944
-0.0642405152 0.0187097490 0.0350441635
0.0203823168 0.0148653947 0.0045273374
-0.0562542081 0.0175162069 0.0376366675
0.0046447450 0.0126310624 -0.0021569734
0.0081533426 0.0122886077 -0.0022819419
0.0264777746 0.0123385340 0.0090772808
0.0106732743 0.0150952563 -0.0023693969
-0.0572156236 0.0176017992 0.0301589519
-0.0237985998 0.0078102089 0.0007166411
-0.0578652173 0.0165079720 0.0318893939
-0.0631967559 0.0196374618 0.0320768058
-0.0157211758 0.0154996812 0.0001387889
-0.0132916225 0.0153404921 -0.0011418615
-0.0123838587 0.0153248832 -0.0011730944
-0.0261526220 0.0132245868 0.0081506222
-0.0586743131 0.0190557614 0.0370119661
0.0025889250 0.0138130262 -0.0020195697
-0.0193473957 0.0154755563 -0.0018212204
-0.0185344182 0.0154841170 -0.0015947600
-0.0003706916 0.0152346380 -0.0017743637
-0.0582147315 0.0195288323 0.0291198641
-0.0576996505 0.0195381865 0.0293593407
-0.0599811375 0.0203031264 0.0368245542
-0.0227408074 0.0083777048 0.0014819051
0.0116354479 0.0138262808 -0.0024667461
0.0125841759 0.0138167888 -0.0025297408
0.0136341732 0.0135998726 -0.0025792872
-0.0608326197 0.0205647349 0.0393546075
0.0166252684 0.0135155730 -0.0034513851
-0.0559111685 0.0201894790 0.0399168432
-0.0237659812 0.0095886886 0.0027989964
-0.0164827257 0.0155833885 0.0008832286
0.0143490369 0.0152745657 -0.0025005867
0.0066445796 0.0147182941 -0.0021736478
-0.0540797636 0.0145192891 0.0382613838
0.0076514138 0.0145785138 -0.0022522514
-0.0634500906 0.0199305415 0.0319206268
-0.0405401587 0.0169766732 0.0381052047
-0.0604576916 0.0204425864 0.0381676704
-0.0587740019 0.0192852020 0.0279225111
-0.0193477310 0.0156909861 -0.0018290286
-0.0073161973 0.0146076716 -0.0014599566
-0.0003767099 0.0154483840 -0.0017587473
