# .PCD v0.7 - Point Cloud Data file format
VERSION 0.7
FIELDS x y z
SIZE 4 4 4
TYPE F F F
COUNT 1 1 1
WIDTH 1191
HEIGHT 1
VIEWPOINT 0 0 0 1 0 0 0
POINTS 1191
DATA ascii
0.0161701515 0.0088124406 -0.0106308628
-0.0206879638 0.0097912289 -0.0141187999
-0.0202967227 0.0095426720 -0.0135565642
-0.0186034031 0.0098167490 -0.0137127507
-0.0182344578 0.0099911280 -0.0138533060
-0.0029851848 0.0078460388 -0.0182540584
-0.0019370595 0.0078674480 -0.0183742736
-0.0008984597 0.0078644007 -0.0183517877
0.0225604121 0.0087722074 -0.0121197496
-0.0175315216 0.0093694422 -0.0110889915
-0.0169845521 0.0093684196 -0.0109952781
-0.0157455839 0.0093713384 -0.0105892215
0.0101062376 0.0094051547 -0.0053104702
-0.0130394278 0.0091021378 -0.0118542481
0.0118955253 0.0094132442 -0.0048731733
-0.0185505822 0.0105877966 -0.0084339920
-0.0182553530 0.0105911866 -0.0082778130
-0.0173764005 0.0105919130 -0.0080747847
0.0190293472 0.0079368576 -0.0196532253
0.0297154393 0.0056068283 -0.0219783653
-0.0178199150 0.0106773470 -0.0058102319
0.0200361051 0.0098376218 -0.0018995944
-0.0169164278 0.0105397776 -0.0051022340
-0.0173510686 0.0107545257 -0.0035925303
0.0429575779 0.0092283152 -0.0077858586
-0.0177609436 0.0090689324 -0.0161865745
-0.0143018663 0.0107553340 0.0003587212
0.0218105502 0.0083416961 -0.0121665988
0.0543183386 0.0102572069 -0.0085589308
0.0549791567 0.0099193603 -0.0086620022
0.0560700186 0.0099175964 -0.0088790823
-0.0090289898 0.0107665658 0.0010481309
0.0629910156 0.0104893502 -0.0097021405
-0.0123399161 0.0088980794 -0.0109640453
-0.0123079298 0.0089235175 -0.0098083410
0.0131269731 0.0102463234 -0.0005939547
0.0140893348 0.0101243053 -0.0006056670
0.0261099674 0.0096891373 -0.0221366528
0.0189401750 0.0098872446 -0.0010874663
0.0291784443 0.0097362008 -0.0212647263
-0.0030096692 0.0106588360 0.0005097073
0.0519757532 0.0104811043 -0.0082934368
0.0529859029 0.0104823895 -0.0083840210
0.0036279114 0.0088616535 -0.0096834023
-0.0128510073 0.0099427793 -0.0019604955
0.0083152875 0.0089760013 -0.0090118442
0.0088619366 0.0090135206 -0.0089337546
0.0107795615 0.0090802461 -0.0090430770
-0.0026611795 0.0108170807 0.0004368108
-0.0080402717 0.0101518817 0.0010586735
-0.0018972752 0.0108104348 0.0003509130
0.0242213458 0.0090239011 -0.0186354164
-0.0202982575 0.0107131153 -0.0115262810
-0.0186461061 0.0106992833 -0.0115262810
0.0234871544 0.0099479500 -0.0208343733
0.0237826426 0.0099472255 -0.0208499897
0.0248649623 0.0099447165 -0.0209072549
0.0191042311 0.0108939409 -0.0021453071
0.0200472828 0.0108942688 -0.0021119881
0.0211046655 0.0108974911 -0.0020073447
0.0218582805 0.0106321443 -0.0018612165
-0.0172309913 0.0109147094 -0.0008360241
0.0020908492 0.0107857846 0.0001348834
0.0169836301 0.0092774667 -0.0007813666
0.0001628867 0.0086217597 -0.0110993925
0.0283763800 0.0089271776 -0.0221774895
0.0383261926 0.0108879358 0.0274552759
0.0291774943 0.0089520756 -0.0212820787
0.0299630035 0.0089541469 -0.0212241728
-0.0120691396 0.0106547512 -0.0020776261
0.0226703603 0.0106063746 -0.0092773456
-0.0187598653 0.0108368285 -0.0079446379
-0.0182129368 0.0108376816 -0.0078092907
0.0490626805 0.0105915833 -0.0080201272
0.0500216559 0.0105797034 -0.0081077684
0.0510169826 0.0106053296 -0.0082049463
0.0519768111 0.0107063819 -0.0082934368
0.0529869981 0.0107076392 -0.0083840210
-0.0182764344 0.0109458081 -0.0049981195
-0.0171672814 0.0109494217 -0.0046857614
-0.0123357214 0.0108182244 -0.0009375382
-0.0143590309 0.0090056062 -0.0161803234
0.0570512675 0.0099161845 -0.0090723429
0.0040570199 0.0099303778 0.0001068842
0.0130466921 0.0107409693 -0.0006497297
0.0315617584 0.0082808379 -0.0206469614
0.0185613334 0.0106960777 -0.0011353660
0.0580544062 0.0092447065 -0.0091773961
-0.0186168179 0.0104744043 -0.0115887467
-0.0032902339 0.0110649839 0.0004680436
-0.0259162150 0.0101393145 -0.0167987812
-0.0070300177 0.0099979714 0.0009287652
-0.0059903190 0.0099894088 0.0007979777
-0.0172817856 0.0103659518 -0.0008594487
0.0192166958 0.0101885572 -0.0020463858
0.0309648830 0.0098532606 -0.0207859669
0.0550428815 0.0073330030 -0.0088166241
-0.0011722387 0.0092404522 -0.0039985869
-0.0209940858 0.0107486844 -0.0112043265
0.0234870575 0.0101448167 -0.0208343733
0.0237825569 0.0101440568 -0.0208499897
0.0248645730 0.0101422481 -0.0208864380
0.0257520117 0.0101273861 -0.0212560538
-0.0219833739 0.0106530245 -0.0163417030
0.0191032682 0.0111306310 -0.0021348912
0.0200488456 0.0111292489 -0.0021432210
-0.0112176389 0.0097906291 -0.0027491841
0.0211059768 0.0111326613 -0.0020385776
0.0218110327 0.0111357234 -0.0019526873
-0.0179232471 0.0113459118 -0.0008646566
-0.0171206482 0.0111894868 0.0001487564
0.0021110924 0.0112662055 0.0000307541
-0.0018546132 0.0088579487 -0.0106673110
-0.0170302056 0.0105276201 -0.0097771082
0.0030929188 0.0108987279 0.0000229236
0.0040919967 0.0108908489 -0.0000883434
-0.0279859155 0.0098732729 -0.0155946631
0.0470489450 0.0107042063 -0.0078197066
0.0480570123 0.0107043684 -0.0079154987
0.0490690880 0.0109307244 -0.0079966951
0.0499686114 0.0109317452 -0.0080669764
0.0509709530 0.0109311901 -0.0081903506
0.0519778989 0.0109316856 -0.0082934368
0.0529881380 0.0109329149 -0.0083840210
0.0538780726 0.0107077509 -0.0084929857
0.0001040550 0.0078632943 -0.0182068590
0.0283782762 0.0068920217 -0.0220525432
0.0147080459 0.0084349550 -0.0183355529
0.0240103230 0.0103441048 -0.0207719076
0.0249630492 0.0103385635 -0.0208968464
0.0422873907 0.0098517928 -0.0078405160
0.0611274801 0.0078480076 -0.0096183289
0.0620210581 0.0079052616 -0.0097786728
0.0640488788 0.0082463883 -0.0099707637
0.0130188297 0.0112006702 -0.0007126424
-0.0268646926 0.0099279992 -0.0169924367
-0.0170379691 0.0101727117 -0.0000490788
-0.0250535868 0.0098261833 -0.0166835431
0.0470251255 0.0068721958 -0.0078889523
-0.0227358937 0.0100209117 -0.0162718017
-0.0090575330 0.0112374946 0.0009561013
0.0639963299 0.0107156094 -0.0098317731
0.0590655468 0.0092469901 -0.0092695300
0.0199270770 0.0090537220 -0.0000004787
0.0231457334 0.0105176847 -0.0166488532
0.0560603328 0.0092430152 -0.0089025218
-0.0035233365 0.0113074295 0.0004055779
-0.0028407441 0.0111981519 0.0003698748
-0.0018786804 0.0111720972 0.0002689194
0.0156521071 0.0082095023 -0.0194912571
0.0234879702 0.0103403963 -0.0208656061
0.0185841508 0.0111592263 -0.0014685337
0.0460454114 0.0107052438 -0.0076989327
-0.0094446391 0.0082189608 -0.0175234396
0.0156913418 0.0087744929 -0.0123071615
0.0150148012 0.0090716518 -0.0090743098
0.0613996126 0.0092505012 -0.0095740799
0.0550619029 0.0078950357 -0.0087521840
0.0570360087 0.0078966562 -0.0090957675
0.0590599366 0.0079011656 -0.0092695449
0.0460483916 0.0100292433 -0.0076697785
-0.0175623819 0.0093931556 -0.0101831648
0.0040155835 0.0078887139 -0.0184698496
-0.0156650096 0.0093883667 -0.0099176709
-0.0150890052 0.0093779843 -0.0101831648
0.0610104688 0.0107258521 -0.0094736833
0.0157473814 0.0094287600 -0.0040610600
0.0140027497 0.0080179535 -0.0191455949
-0.0061674751 0.0088687763 -0.0109640453
-0.0185344778 0.0113200061 -0.0073407609
-0.0179401375 0.0108601414 -0.0071533564
0.0163992886 0.0092742424 -0.0009375382
0.0201446284 0.0091886446 -0.0010208357
-0.0152842291 0.0095295478 -0.0044358829
-0.0190981589 0.0114569925 -0.0042172391
-0.0191139169 0.0114333034 -0.0047794674
0.0257504359 0.0103319064 -0.0210530255
-0.0247208029 0.0101759788 -0.0162829552
-0.0242220536 0.0101012569 -0.0163989682
-0.0233091451 0.0098583736 -0.0166939665
-0.0197357908 0.0116066113 -0.0008125994
-0.0220586695 0.0099610202 -0.0162922461
-0.0209821947 0.0103177857 -0.0165082980
-0.0169191249 0.0116264187 0.0001713093
0.0368803032 0.0061280672 0.0203648861
0.0109867863 0.0108739026 -0.0006106142
-0.0203512795 0.0117030814 0.0013426300
-0.0135348402 0.0116400532 0.0010615122
-0.0133979097 0.0116538554 0.0014051031
-0.0118243583 0.0116379149 0.0012801643
-0.0046510212 0.0115585476 0.0004368108
0.0050539766 0.0099240504 -0.0000024531
0.0001458453 0.0115173869 0.0000385623
0.0011313988 0.0115122981 0.0000229459
0.0021233896 0.0115056448 -0.0000317190
0.0031257181 0.0114963911 -0.0001488496
0.0309621636 0.0089657269 -0.0208268855
-0.0272579566 0.0109146610 -0.0165082980
0.0600783862 0.0099223759 -0.0093710739
0.0089985747 0.0100228544 -0.0003623012
-0.0190829486 0.0114939474 -0.0033426527
-0.0119448192 0.0099061113 0.0011656340
-0.0208006538 0.0106240883 -0.0139938537
-0.0099068917 0.0100220051 0.0012703817
-0.0186240114 0.0106170923 -0.0136815105
-0.0180126503 0.0107507668 -0.0138480905
-0.0199800730 0.0118442327 0.0047316607
-0.0049715489 0.0101050325 0.0007257443
-0.0039736442 0.0099783707 0.0007237922
-0.0201901160 0.0099605899 -0.0113326255
-0.0189386308 0.0102982055 -0.0103081036
-0.0011834742 0.0097165927 0.0004836675
-0.0172102600 0.0103183798 -0.0093398113
0.0234878678 0.0105372462 -0.0208656061
0.0240773689 0.0105378106 -0.0208468754
0.0096377507 0.0087864771 -0.0122759212
0.0424068831 0.0106931124 -0.0077051688
0.0118801687 0.0088401865 -0.0097302515
0.0130828284 0.0090831276 -0.0087463427
0.0141914785 0.0090827737 -0.0086838771
-0.0196259022 0.0117597021 0.0028106850
-0.0188973173 0.0117606856 0.0029668640
-0.0211015083 0.0097887591 -0.0128381569
0.0490766950 0.0111576430 -0.0079654623
0.0499765314 0.0111586414 -0.0080357362
0.0509777628 0.0111577027 -0.0081653688
-0.0188247450 0.0101154055 -0.0089649875
0.0130234333 0.0114383399 -0.0007563774
0.0422655828 0.0079887621 -0.0078509320
-0.0267334208 0.0107230283 -0.0171408150
0.0480447561 0.0092381276 -0.0079498384
-0.0236898512 0.0106589720 -0.0166176204
0.0140986498 0.0108393952 -0.0007032696
-0.0124907717 0.0101590399 -0.0026398543
-0.0229266845 0.0107706971 -0.0163011048
-0.0028747746 0.0115428194 0.0002884399
-0.0259376653 0.0107827634 -0.0167717058
0.0049975105 0.0091311242 -0.0075906385
0.0100711081 0.0094976313 -0.0019058306
0.0191043820 0.0113660172 -0.0021557156
0.0138849150 0.0088340901 -0.0098395739
-0.0176916197 0.0112496130 -0.0139782447
-0.0182505175 0.0107610561 -0.0132754538
0.0146131245 0.0091385730 -0.0064349342
0.0315724351 0.0105566904 -0.0204907898
0.0211504027 0.0086071659 -0.0097771082
0.0538795479 0.0111580193 -0.0084964577
0.0600054301 0.0108004548 -0.0093600471
0.0609811135 0.0111587755 -0.0094710086
0.0250610411 0.0105361473 -0.0208781082
0.0257497672 0.0105317943 -0.0209749285
0.0191075914 0.0115998983 -0.0022077728
0.0200500730 0.0116003454 -0.0021744538
0.0211078636 0.0116034225 -0.0020854259
0.0218133051 0.0116060935 -0.0020151529
0.0139057683 0.0087887868 -0.0118073914
-0.0175179988 0.0116263032 0.0000619870
-0.0168266408 0.0118756294 0.0002598148
-0.0069051050 0.0091862231 -0.0071408544
0.0283797998 0.0096117482 -0.0220213104
0.0286712665 0.0099033695 -0.0220338125
0.0291812420 0.0102297422 -0.0211779643
0.0299659614 0.0099366643 -0.0211642105
0.0470514409 0.0099157132 -0.0077917371
0.0549744368 0.0108178593 -0.0086963568
0.0000863636 0.0099505316 0.0003255513
0.0010749626 0.0099463165 0.0003060307
0.0119644310 0.0108253546 -0.0006380472
0.0160459559 0.0099015441 -0.0007438827
-0.0182830170 0.0110630989 -0.0079342294
-0.0118053742 0.0118821152 0.0012176912
-0.0055239089 0.0118075348 0.0004368108
-0.0048906840 0.0118021928 0.0003977623
0.0102678314 0.0095277354 -0.0007813592
-0.0197325386 0.0121157616 0.0051220935
-0.0193087235 0.0120942630 0.0047160368
0.0000279064 0.0117592588 0.0000120085
0.0011406916 0.0117524751 -0.0000239108
0.0021322931 0.0117455795 -0.0000785757
0.0031327086 0.0117363222 -0.0001878906
-0.0272704884 0.0112382434 -0.0164926816
0.0090076514 0.0108618475 -0.0004358310
-0.0139635243 0.0090796556 -0.0130021442
-0.0109182596 0.0110132135 0.0012430530
-0.0099513903 0.0109743625 0.0011167731
-0.0080221035 0.0109824054 0.0008682515
-0.0069816746 0.0109721348 0.0007452723
-0.0059532896 0.0109631270 0.0006496143
-0.0049426332 0.0109562427 0.0006047171
-0.0208834857 0.0111849494 -0.0110343192
-0.0198449530 0.0112791583 -0.0112295393
-0.0190115385 0.0108671449 -0.0101519320
0.0270252060 0.0083667990 -0.0211467240
0.0234877635 0.0107341222 -0.0208656061
0.0240791179 0.0107312538 -0.0209218357
-0.0178247094 0.0119402111 0.0015300419
0.0490909927 0.0113861822 -0.0079029892
0.0503228307 0.0113862455 -0.0080279354
0.0509860031 0.0113846399 -0.0081341360
0.0041202921 0.0116088726 -0.0002464745
0.0051145311 0.0116001628 -0.0003557894
-0.0187102482 0.0112717710 -0.0057477597
-0.0177437589 0.0109733865 -0.0057009105
-0.0180312470 0.0111795217 -0.0049981195
0.0237604324 0.0091829132 -0.0200743247
-0.0171281807 0.0108185560 -0.0028897393
-0.0170799419 0.0108126290 -0.0019370634
0.0315669328 0.0101574808 -0.0205844883
0.0315705165 0.0103576314 -0.0205220226
-0.0012845804 0.0091829076 -0.0063412283
0.0001920222 0.0089094620 -0.0080669764
0.0222746357 0.0083258133 -0.0129943285
-0.0159670487 0.0113815255 0.0003665294
-0.0155981891 0.0093313698 -0.0120885093
0.0599766858 0.0113816820 -0.0093554351
-0.0175672248 0.0113592707 -0.0004690085
-0.0173385590 0.0088040885 -0.0165239144
0.0640220344 0.0111673325 -0.0097693000
0.0590690114 0.0099202022 -0.0092695449
0.0121175172 0.0098108053 -0.0005262736
-0.0190838352 0.0115889125 -0.0116199870
0.0160299465 0.0108304061 -0.0008457769
0.0107105821 0.0101340450 -0.0005158652
-0.0187022872 0.0115864612 -0.0099645201
0.0179234799 0.0108575486 -0.0006897319
-0.0211932845 0.0100401081 -0.0118854810
0.0315760374 0.0107573532 -0.0204283167
0.0519823842 0.0112702437 -0.0082817245
0.0538807996 0.0113832690 -0.0084964577
0.0610553138 0.0113832019 -0.0094855744
0.0250608753 0.0107335635 -0.0208656136
0.0259958524 0.0107172485 -0.0212170128
0.0192291718 0.0118331872 -0.0022650305
0.0200501755 0.0118362978 -0.0021807039
0.0211083740 0.0118390769 -0.0021010507
0.0218137670 0.0118418820 -0.0020307694
-0.0167437531 0.0121264942 0.0003743377
0.0461478643 0.0112222992 -0.0076843444
0.0021412338 0.0119853504 -0.0001254249
0.0169732142 0.0098786242 -0.0006661806
0.0478082113 0.0118944757 0.0033104550
0.0480476730 0.0099141672 -0.0079467390
0.0001165906 0.0109165274 0.0001771878
0.0011110550 0.0109104924 0.0001264121
0.0100030415 0.0116905458 -0.0006538201
0.0109739462 0.0116852783 -0.0007084776
0.0119429743 0.0116801821 -0.0007631425
0.0385400467 0.0061300360 0.0198651161
-0.0216402821 0.0121194310 0.0048565920
-0.0209493302 0.0101260226 -0.0111291427
-0.0186834484 0.0102579966 -0.0114325751
-0.0008250193 0.0100359395 0.0003561210
0.0181493033 0.0098858308 -0.0003772620
0.0187554378 0.0096428301 -0.0004690085
-0.0160236023 0.0110187754 0.0005266126
-0.0150046237 0.0110547617 0.0005756449
-0.0134898201 0.0113876350 0.0009365734
-0.0039545242 0.0109245479 0.0005409475
0.0050841887 0.0108838230 -0.0001800973
0.0070289299 0.0100340806 -0.0001670737
0.0079864692 0.0099329669 -0.0002358053
0.0309670288 0.0103472471 -0.0207531620
-0.0272561088 0.0114519335 -0.0165239144
-0.0177330188 0.0114593059 -0.0141500402
-0.0216898024 0.0109250136 -0.0109890271
0.0620465167 0.0100210886 -0.0096365605
-0.0198388323 0.0107914433 -0.0117074419
-0.0187185854 0.0111513697 -0.0113701019
-0.0008817778 0.0109229945 0.0002338048
0.0270257406 0.0089574009 -0.0210630018
-0.0281558782 0.0108638965 -0.0153057519
-0.0167113692 0.0099799838 0.0006710719
-0.0119582042 0.0086846724 -0.0173880924
-0.0214993730 0.0107053854 -0.0120052118
-0.0187060460 0.0111271106 -0.0119323377
0.0041333567 0.0119674616 -0.0003206376
0.0051256027 0.0119586177 -0.0004221592
-0.0265763029 0.0114073418 -0.0173360277
-0.0253592059 0.0114284605 -0.0165551472
0.0141179543 0.0116688944 -0.0008958820
-0.0126440413 0.0108663924 -0.0029209722
-0.0141497850 0.0112280734 -0.0000785682
-0.0259575397 0.0114265978 -0.0167488102
-0.0125831058 0.0101717431 0.0016706046
-0.0236612931 0.0127084330 0.0116190221
0.0169820786 0.0108311772 -0.0007872079
-0.0206054188 0.0121835172 -0.0042172391
0.0185794551 0.0113997087 -0.0014060680
0.0315796472 0.0109583028 -0.0203658435
-0.0209674835 0.0121591426 0.0058717337
-0.0201948099 0.0121417604 0.0056218561
0.0590492971 0.0109519102 -0.0092639495
0.0234876554 0.0109310262 -0.0208656061
0.0240785740 0.0109289363 -0.0209030900
0.0250604469 0.0109316595 -0.0208406243
0.0258482341 0.0109203085 -0.0210738499
0.0190230440 0.0120761432 -0.0021348912
0.0200509652 0.0120716244 -0.0021994431
0.0211081598 0.0120754875 -0.0021010507
0.0218142550 0.0120776370 -0.0020463858
-0.0167517252 0.0123737417 0.0003899541
-0.0161863230 0.0115407407 -0.0166488532
-0.0068329498 0.0089189429 -0.0088556651
0.0175655540 0.0098803323 -0.0005861465
-0.0191631541 0.0116502196 0.0003222879
0.0471029095 0.0112530068 -0.0078048203
0.0480707325 0.0112707876 -0.0078592617
-0.0135961473 0.0124078318 0.0015925150
0.0100110471 0.0121673532 -0.0007188860
0.0109825302 0.0121613070 -0.0007813666
0.0119550359 0.0121542625 -0.0008672643
0.0285821166 0.0105015934 -0.0216777269
0.0231782552 0.0101727750 -0.0175859127
0.0242167450 0.0101383124 -0.0184604991
-0.0202076025 0.0098952074 -0.0162094850
-0.0159465596 0.0119935535 0.0002982225
-0.0109702721 0.0119893774 0.0009923484
-0.0100240298 0.0120026246 0.0008824375
0.0560598485 0.0109264180 -0.0089349840
0.0570608042 0.0109271370 -0.0090586711
0.0580524467 0.0109105036 -0.0091497619
-0.0065249726 0.0123022236 0.0004368108
-0.0060153194 0.0117593147 0.0005096998
-0.0051617548 0.0115633495 0.0004836675
-0.0048757121 0.0121651739 0.0003352892
0.0094074998 0.0094076041 -0.0052792374
0.0619580112 0.0108858384 -0.0095931757
0.0629671738 0.0110143460 -0.0096695367
-0.0019442567 0.0118887872 0.0001536366
0.0157742165 0.0094874240 -0.0019058306
0.0270268414 0.0099453609 -0.0208943505
-0.0281567909 0.0116256550 -0.0153213535
-0.0168920010 0.0110023282 0.0005867388
0.0533088483 0.0123775080 0.0076833796
-0.0183344297 0.0093454830 -0.0122134555
-0.0002151818 0.0093113948 -0.0010000113
-0.0058027171 0.0122137964 0.0003847536
-0.0028929652 0.0120044276 0.0002181735
-0.0230311826 0.0125008486 0.0072773229
-0.0127786994 0.0091655441 -0.0091732312
0.0119890943 0.0101427305 -0.0005731229
-0.0196779594 0.0120146610 -0.0075281728
-0.0185438991 0.0118096434 -0.0067472924
-0.0221497975 0.0130261146 0.0128371920
0.0200496446 0.0113646761 -0.0021619592
-0.0249883495 0.0048597641 -0.0090482701
0.0450278670 0.0101396162 -0.0076453034
-0.0125440173 0.0114496611 -0.0032177065
-0.0182697847 0.0100527443 -0.0130776186
0.0009137730 0.0084909406 -0.0173360277
-0.0064631812 0.0089240000 -0.0085589308
-0.0250454657 0.0090646371 -0.0167247076
0.0221516695 0.0088820793 -0.0073719937
-0.0224758945 0.0125921555 0.0093388464
-0.0251643136 0.0128296204 0.0139460471
-0.0038779338 0.0119151101 0.0003255513
-0.0208656825 0.0114532523 -0.0100269858
0.0160475485 0.0117770620 -0.0010546464
0.0170091037 0.0117717236 -0.0011288319
0.0179373194 0.0117247589 -0.0010066945
0.0185703654 0.0116433725 -0.0012811292
-0.0202693082 0.0111149587 -0.0151339490
-0.0218153037 0.0120812841 0.0039663892
-0.0191516317 0.0123620406 0.0049971547
0.0586433448 0.0116053447 -0.0091836397
0.0020628760 0.0099421106 0.0002806541
0.0030576161 0.0099367518 0.0002123322
0.0060461797 0.0100388154 -0.0001046006
0.0131184710 0.0098891538 -0.0005158652
-0.0183406547 0.0116432644 -0.0078092907
0.0150288660 0.0099640228 -0.0006732363
0.0471017994 0.0118387006 0.0021547507
-0.0258322693 0.0134350508 0.0148674753
-0.0249713026 0.0134288706 0.0148987230
-0.0240300782 0.0134115517 0.0147217121
0.0030279609 0.0124567933 -0.0002878476
0.0234865323 0.0111295320 -0.0208343733
0.0240756236 0.0111317672 -0.0207843874
0.0250587743 0.0111333542 -0.0207469184
0.0260433219 0.0111323372 -0.0207656566
0.0200517867 0.0123069026 -0.0022181813
0.0211094432 0.0123102926 -0.0021322910
0.0216979403 0.0123118162 -0.0020932425
-0.0226288252 0.0124203451 0.0056218561
-0.0193929709 0.0120715201 -0.0109328125
-0.0187733248 0.0116201863 -0.0092461053
0.0464939736 0.0117417611 0.0000932273
-0.0150896162 0.0038832743 -0.0049044136
-0.0239037499 0.0129966736 0.0147789922
0.0299749877 0.0109289959 -0.0209405739
-0.0110478140 0.0125977658 0.0008272585
0.0315934643 0.0112684220 -0.0201159660
-0.0172138326 0.0107713118 -0.0093398113
0.0103804804 0.0124028660 -0.0007813592
0.0109860906 0.0123993978 -0.0008125994
0.0119593572 0.0123916902 -0.0009063054
0.0140079428 0.0122621097 -0.0009968672
-0.0149986930 0.0113758631 0.0003951620
-0.0220350735 0.0116929561 -0.0163450260
0.0183709525 0.0122108236 -0.0018277410
0.0308346804 0.0108430684 -0.0206918735
-0.0204270743 0.0096689649 -0.0167009179
-0.0135987215 0.0120362304 0.0016081389
-0.0216242634 0.0117760301 -0.0080904011
-0.0248774625 0.0131322853 0.0090577286
-0.0199941397 0.0115426965 -0.0103705768
-0.0190699026 0.0121131204 -0.0100426022
0.0041384678 0.0122072138 -0.0003518853
0.0051304922 0.0121980421 -0.0004533920
-0.0149433091 0.0119881816 0.0003470238
-0.0100037716 0.0125850588 0.0007257368
0.0560520329 0.0115985200 -0.0089774895
0.0569768138 0.0116048753 -0.0089649875
0.0581064560 0.0116082020 -0.0090482850
-0.0068992749 0.0125487372 0.0004290026
-0.0048651211 0.0125286952 0.0002884399
-0.0124595016 0.0120299272 0.0016471799
0.0218121707 0.0113709606 -0.0019839201
0.0279748999 0.0099715590 -0.0208846275
-0.0281353965 0.0119501129 -0.0153682102
-0.0244912133 0.0130481683 0.0074647348
0.0110444715 0.0099090096 -0.0005627144
0.0041435491 0.0124468692 -0.0003831182
-0.0189857818 0.0116283596 -0.0056852940
-0.0211199969 0.0107198413 -0.0166082475
-0.0217225961 0.0119985789 0.0021235105
-0.0212533697 0.0119723827 0.0016237479
-0.0215060264 0.0121482238 0.0055281501
0.0101147275 0.0110762231 -0.0005805660
-0.0201886594 0.0117804557 -0.0159184355
0.0160586406 0.0123672225 -0.0011874232
0.0170253757 0.0123576373 -0.0013357867
0.0176338423 0.0123479888 -0.0014997739
-0.0188277103 0.0112400427 -0.0036550034
-0.0011151375 0.0089080278 -0.0083324704
0.0029100536 0.0126975924 -0.0003128294
0.0200526025 0.0125421397 -0.0022369195
-0.0236327946 0.0127278790 0.0038102176
-0.0208641477 0.0110961087 -0.0164302010
-0.0219381377 0.0112077482 -0.0163521115
0.0266552009 0.0125347599 -0.0023118872
-0.0166910253 0.0127810650 0.0003326889
-0.0205233432 0.0123813748 -0.0049981195
0.0180399157 0.0104803070 -0.0005314816
0.0290265549 0.0108603239 -0.0211248565
-0.0110343881 0.0128413513 0.0007803943
0.0070940517 0.0125439614 -0.0005978588
0.0150532611 0.0094910190 -0.0018121246
0.0090471227 0.0125300549 -0.0007266942
0.0099647325 0.0125421695 -0.0007635150
0.0109896325 0.0126373917 -0.0008438323
0.0119617069 0.0126298405 -0.0009297300
-0.0260989256 0.0118058138 -0.0177941490
0.0176359024 0.0125841387 -0.0015310068
0.0183896255 0.0125522465 -0.0020932425
0.0189915299 0.0125424154 -0.0022572223
0.0239752047 0.0115293153 -0.0207250509
0.0211110730 0.0125445724 -0.0021713320
0.0217004269 0.0125448816 -0.0021557156
-0.0248598233 0.0109286271 -0.0162874181
0.0105914250 0.0104938634 -0.0005314816
0.0030495955 0.0037026070 -0.0069971774
-0.0229388624 0.0111996159 -0.0162865240
0.0299818311 0.0115288422 -0.0207656566
0.0310923811 0.0115592331 -0.0202330966
-0.0202868357 0.0109367780 -0.0160977785
-0.0189241543 0.0100882668 -0.0132598374
0.0305783134 0.0115359835 -0.0206469614
-0.0149281248 0.0127229244 0.0002884399
0.0019164013 0.0125858486 -0.0002308581
-0.0183489174 0.0113570392 -0.0116824526
-0.0075285956 0.0127979591 0.0004368108
-0.0068895742 0.0127911605 0.0003899541
-0.0260144360 0.0134113207 0.0090889689
-0.0048581213 0.0127709135 0.0002572071
-0.0020857190 0.0126231238 0.0000776108
0.0256488193 0.0113340728 -0.0206781942
0.0270277001 0.0108369291 -0.0207641069
0.0280124098 0.0108225569 -0.0207094420
0.0312277731 0.0111339465 -0.0203693155
-0.0058747418 0.0126594491 0.0003352892
-0.0288684815 0.0095175337 -0.0169924442
0.0239765104 0.0113299936 -0.0207640920
0.0264214557 0.0124272294 -0.0042797048
-0.0234877616 0.0127535872 0.0126185473
0.0430180691 0.0108220205 -0.0076980386
-0.0159288906 0.0127283968 0.0002337825
-0.0239305831 0.0127972625 0.0051533338
0.0140122492 0.0126182027 -0.0010437313
0.0150961345 0.0126116760 -0.0011171419
-0.0238264985 0.0130864568 0.0033104550
0.0254024453 0.0117669068 -0.0163677353
-0.0170310475 0.0102003571 -0.0059351791
0.0316106491 0.0115833916 -0.0198036078
-0.0265415087 0.0121448189 -0.0195224974
-0.0263459682 0.0121454671 -0.0194600243
0.0029153528 0.0129374117 -0.0003440697
-0.0204021223 0.0122904032 -0.0153682102
-0.0199847296 0.0123996586 -0.0090586934
0.0190285090 0.0123081990 -0.0022181813
-0.0186717808 0.0130968802 0.0044193026
-0.0190640502 0.0116637014 -0.0049044136
-0.0231559910 0.0132183395 0.0147113111
-0.0249563083 0.0131489486 0.0148674902
-0.0122203007 0.0103457365 -0.0005314816
0.0281510111 0.0129854977 0.0036540385
0.0211065616 0.0113684200 -0.0020541940
0.0071052760 0.0129005462 -0.0006720368
0.0080762003 0.0126553364 -0.0006928612
0.0090530626 0.0128875114 -0.0007735509
0.0100234430 0.0128815211 -0.0008204076
0.0109931547 0.0128752925 -0.0008750726
0.0119650150 0.0128674842 -0.0009609628
-0.0261156708 0.0118729994 -0.0168220792
-0.0259137377 0.0120865926 -0.0164093766
-0.0128820762 0.0110170878 0.0010302793
0.0176354963 0.0128219649 -0.0015310068
0.0189927872 0.0127773322 -0.0022806469
0.0201700497 0.0127784275 -0.0022337977
0.0211119968 0.0127796121 -0.0021947566
0.0217015650 0.0127794966 -0.0021869484
0.0308973808 0.0117613934 -0.0201628152
-0.0188436545 0.0107473060 -0.0131934527
-0.0136830667 0.0126503706 0.0014675763
0.0200803224 0.0072032996 -0.0199035574
0.0040260218 0.0128076784 -0.0004127938
0.0050900988 0.0126291327 -0.0005064923
0.0301819835 0.0117301121 -0.0206990186
-0.0149200410 0.0130900331 0.0002572071
0.0281471498 0.0128458105 0.0033729207
0.0060731042 0.0108770579 -0.0002698991
-0.0275912583 0.0139146037 0.0131339189
-0.0270646252 0.0139161386 0.0132588800
0.0280173533 0.0109526776 -0.0204179008
0.0186323356 0.0092418958 -0.0021244753
0.0285618734 0.0087239016 -0.0225523133
0.0244079288 0.0117790811 -0.0180075858
0.0063533261 0.0091592669 -0.0063099954
-0.0143716559 0.0103939380 0.0005617496
0.0263180565 0.0119831823 -0.0104018096
0.0258153006 0.0115555339 -0.0164614413
-0.0170697495 0.0111745670 -0.0049356464
0.0219220873 0.0098407082 -0.0017574672
0.0140151028 0.0128554665 -0.0010749791
0.0429611206 0.0099039134 -0.0077741686
0.0549809337 0.0113809444 -0.0086838771
-0.0048511550 0.0130130351 0.0002259742
0.0057219975 0.0084751155 -0.0173672680
-0.0216882192 0.0100698341 -0.0110785682
-0.0217984281 0.0127722919 -0.0109015722
-0.0267486386 0.0123996399 -0.0187416170
0.0029189924 0.0131775998 -0.0003675018
-0.0203040205 0.0126701109 -0.0083402861
-0.0030881313 0.0128747486 0.0001264345
-0.0234733261 0.0105511490 -0.0165863875
-0.0239927545 0.0139688700 0.0147612896
0.0253252219 0.0123560913 -0.0096209291
-0.0239884518 0.0118541941 -0.0162896458
0.0019266030 0.0130662546 -0.0002894197
-0.0249802470 0.0140058100 0.0147613045
0.0252476372 0.0129755251 -0.0028428901
0.0302952845 0.0119491294 -0.0203346107
-0.0180907808 0.0116178654 -0.0091628153
-0.0212197304 0.0125978105 0.0096824374
0.0080849547 0.0131320693 -0.0007579345
0.0090557858 0.0131261498 -0.0007969830
0.0100260340 0.0131199807 -0.0008438323
0.0109977517 0.0131126344 -0.0009141136
0.0119693168 0.0131045729 -0.0010000113
-0.0259141661 0.0125160292 -0.0164197925
-0.0143013932 0.0122455023 0.0006866958
0.0529899038 0.0112708919 -0.0083840210
-0.0118359588 0.0122249089 0.0011489820
-0.0219343752 0.0124747232 -0.0162506048
0.0183890667 0.0129071884 -0.0020932425
0.0188758578 0.0130125172 -0.0023014713
0.0202868525 0.0130154975 -0.0022181813
0.0211125109 0.0130150430 -0.0022103731
0.0217013583 0.0130158551 -0.0021869484
-0.0207767934 0.0123907961 -0.0135878045
0.0279105622 0.0089622959 -0.0208890382
0.0090951193 0.0119143426 -0.0006329957
-0.0220045373 0.0121501088 -0.0163333807
-0.0209233314 0.0119259208 -0.0162965897
-0.0203649141 0.0122596361 -0.0159304459
0.0580601208 0.0099181663 -0.0091695581
0.0251540281 0.0121505819 -0.0132442135
0.0255805161 0.0119306855 -0.0133691598
0.0284300409 0.0132197551 0.0055906232
0.0061019119 0.0118330866 -0.0004494954
0.0070414934 0.0117769130 -0.0004757065
-0.0240007341 0.0109451041 -0.0163316969
-0.0167153627 0.0132296793 0.0002728235
-0.0169115067 0.0126255527 0.0004680436
-0.0178734735 0.0101202168 -0.0086057875
-0.0010728368 0.0128540844 -0.0000375900
0.0009293447 0.0128344074 -0.0001996253
0.0543218367 0.0109325610 -0.0085589383
-0.0265293419 0.0123298168 -0.0199597869
-0.0263197459 0.0123063363 -0.0203346107
0.0160634387 0.0128408670 -0.0012498815
0.0170284975 0.0128314532 -0.0013826434
0.0176350754 0.0130598322 -0.0015310068
0.0249794796 0.0120124109 -0.0156805608
-0.0172374398 0.0116926022 -0.0137127433
0.0260458160 0.0132237785 0.0027742442
0.0271581784 0.0133542828 0.0035915654
0.0286462866 0.0128580257 0.0035915654
0.0070522986 0.0108720846 -0.0003187079
0.0080294795 0.0108672902 -0.0003675092
0.0097461762 0.0109762661 -0.0005314816
-0.0257045552 0.0145276599 0.0145238992
-0.0250279605 0.0145282336 0.0146488305
-0.0241571963 0.0145196207 0.0146488305
-0.0236253664 0.0144996904 0.0143989529
-0.0119955353 0.0107602477 0.0015831422
-0.0184925608 0.0135781989 0.0039351564
-0.0206326470 0.0115887858 -0.0094803665
0.0239639003 0.0099681206 -0.0202877615
-0.0129213184 0.0111021213 0.0000307541
0.0259260964 0.0135073997 0.0020298045
-0.0221965723 0.0128539652 -0.0095272232
0.0253666528 0.0131971724 -0.0030615339
0.0250067525 0.0132390819 -0.0023743603
-0.0222621225 0.0135887265 0.0131183174
0.0102254935 0.0084442366 -0.0183043201
-0.0211144127 0.0141786076 0.0093700867
0.0150664654 0.0108343214 -0.0007872079
-0.0258544162 0.0130971782 0.0147862788
0.0283679478 0.0139868632 0.0098854657
0.0291113481 0.0137788020 0.0100416373
-0.0259400420 0.0127465390 -0.0161569063
-0.0221784338 0.0127473734 -0.0152901206
-0.0272760987 0.0116688758 -0.0164926816
-0.0249995925 0.0118665807 -0.0162835289
-0.0220507272 0.0127081946 -0.0159408618
0.0289463513 0.0129998140 0.0061840918
-0.0230519027 0.0118425153 -0.0163068268
-0.0205252133 0.0123322755 -0.0146185625
-0.0166923851 0.0135949180 0.0002025496
0.0260065589 0.0117048249 -0.0136190373
-0.0010033657 0.0118963420 0.0000703018
-0.0000865550 0.0121214651 -0.0000317115
0.0009737259 0.0121006593 -0.0000768248
0.0281635970 0.0131611414 0.0045598578
-0.0189225785 0.0108785555 -0.0091692228
-0.0182033926 0.0110512711 -0.0090185348
0.0510923751 0.0116459467 -0.0024264175
0.0287170876 0.0133297779 0.0075272080
0.0119746076 0.0133410580 -0.0010468606
0.0398961566 0.0093570966 -0.0069347043
-0.0179505460 0.0093203448 -0.0130880419
-0.0126592219 0.0109218061 0.0018290114
-0.0069515705 0.0119181983 0.0005367827
0.0450251512 0.0092372559 -0.0076453034
0.0009374584 0.0134367086 -0.0002503637
-0.0131543502 0.0114981197 -0.0021869484
-0.0134089924 0.0115922913 -0.0000317190
0.0160667636 0.0133151226 -0.0012967456
0.0170289073 0.0133069605 -0.0013982598
0.0176346507 0.0132977329 -0.0015310068
0.0183884893 0.0132622011 -0.0020932425
-0.0188712180 0.0128692612 0.0049502980
0.0295525435 0.0140095688 0.0102446731
-0.0268244632 0.0126810148 -0.0187520329
-0.0261973552 0.0127447844 -0.0190149192
0.0212947670 0.0046611577 -0.0120260436
-0.0040118247 0.0129123293 0.0001965594
-0.0130404122 0.0109871812 -0.0019110385
-0.0232540965 0.0138020255 0.0147380736
0.0271772407 0.0140738748 0.0071211513
0.0110068228 0.0135869384 -0.0009922031
0.0119768726 0.0135788657 -0.0010702852
0.0129391197 0.0135739706 -0.0011015255
-0.0239879079 0.0126448274 -0.0164078940
0.0279098321 0.0083715729 -0.0209280793
-0.0268160142 0.0098278802 -0.0202096719
0.0080893710 0.0136100054 -0.0007969830
0.0090623945 0.0136027522 -0.0008516405
0.0100323018 0.0135962181 -0.0008984972
0.0283735171 0.0142723136 0.0102602895
0.0291631613 0.0142826885 0.0104164686
-0.0260914750 0.0129677802 -0.0160991121
-0.0220792294 0.0129781626 -0.0150246266
0.0189958643 0.0134822130 -0.0023431126
0.0202891640 0.0134849772 -0.0022702385
0.0211142786 0.0134848431 -0.0022572223
0.0217022728 0.0134867132 -0.0022181813
0.0090596974 0.0133642517 -0.0008282159
0.0292640422 0.0118636601 -0.0106204543
-0.0130783021 0.0125528350 0.0017353129
-0.0124143176 0.0126422904 0.0014988091
-0.0119480714 0.0129864179 0.0008570682
0.0166020226 0.0091522262 -0.0057790000
-0.0197305977 0.0139736272 0.0061216261
-0.0193687305 0.0139349923 0.0055281501
-0.0213236064 0.0117673762 -0.0082153473
0.0281860661 0.0135072395 0.0061840918
0.0059322976 0.0124918856 -0.0005314816
0.0262434594 0.0102001168 -0.0218755547
0.0253570154 0.0134937502 -0.0020776261
0.0257141609 0.0134671554 -0.0024992991
-0.0169035345 0.0138355978 0.0000776034
-0.0159177780 0.0137093626 0.0001791175
-0.0000704189 0.0128442049 -0.0001176242
0.0019038583 0.0122264810 -0.0001644660
0.0030746425 0.0121098347 -0.0002434421
0.0290016346 0.0134096891 0.0089327898
0.0287702158 0.0141538382 0.0104633179
-0.0195915475 0.0102268737 -0.0125570390
-0.0080234446 0.0127508193 0.0005096998
0.0170291178 0.0135447122 -0.0014060680
0.0151033867 0.0135612749 -0.0012108479
0.0129859932 0.0120035261 -0.0009010900
0.0295542739 0.0142761096 0.0103071388
-0.0259215832 0.0129912384 -0.0192101393
-0.0204475448 0.0124305524 -0.0085589308
0.0050273426 0.0137569979 -0.0005877111
-0.0090020634 0.0119657665 0.0007608887
-0.0184594356 0.0138266906 0.0038414504
0.0251551326 0.0129699223 -0.0049044136
0.0264216661 0.0133510493 -0.0043421779
0.0260786489 0.0132899657 -0.0053104702
-0.0250137001 0.0149421655 0.0146019962
0.0250160228 0.0134317651 -0.0030615339
0.0242585763 0.0116555169 -0.0202252809
-0.0215367340 0.0142047964 0.0097449105
0.0080909021 0.0138491616 -0.0008125994
0.0090638287 0.0138417073 -0.0008672643
0.0100336615 0.0138349906 -0.0009141136
0.0110113304 0.0138239004 -0.0010312442
0.0119791357 0.0138166100 -0.0010937173
-0.0141154043 0.0130254477 0.0008343589
-0.0129902810 0.0130942985 0.0010771360
-0.0121852271 0.0133222118 0.0004211944
0.0189884063 0.0137250461 -0.0022416059
0.0199420769 0.0137139782 -0.0023899693
0.0209984872 0.0137181617 -0.0023056362
0.0218213387 0.0137209706 -0.0022494141
-0.0129903480 0.0138507523 0.0009088125
0.0262198821 0.0129501149 -0.0140563343
-0.0202375576 0.0145127960 0.0063715037
-0.0212088227 0.0126088597 -0.0079467241
0.0250233579 0.0130530037 -0.0090795178
0.0262755733 0.0106607918 -0.0217349846
-0.0259783454 0.0131866485 -0.0160241444
-0.0250488631 0.0127940550 -0.0161959473
-0.0243630931 0.0131485164 -0.0162740294
-0.0230419599 0.0127595179 -0.0161472578
-0.0222902782 0.0129220150 -0.0160085354
-0.0210685730 0.0126309432 -0.0161451865
0.0264313575 0.0129175931 -0.0145560969
0.0313567817 0.0125437751 -0.0102456305
-0.0087518059 0.0138560236 0.0004278850
0.0439928807 0.0102467109 -0.0077155922
-0.0225918218 0.0123851635 0.0048722159
0.0081418976 0.0120998658 -0.0005887467
0.0079986416 0.0116561539 -0.0004908759
-0.0159174465 0.0132179782 0.0001908373
-0.0149137564 0.0133345425 0.0002337825
0.0259836558 0.0132695474 -0.0091523994
0.0241488200 0.0090969484 -0.0184188429
-0.0020739639 0.0131059177 0.0000190418
0.0247486290 0.0113711283 -0.0199754033
-0.0247153603 0.0153539144 0.0145707484
0.0187550355 0.0132511556 -0.0022650305
-0.0222945847 0.0148235671 0.0109630879
-0.0276233442 0.0138577409 0.0137846675
-0.0268417522 0.0140011534 0.0135907438
0.0150864776 0.0119006373 -0.0010062549
-0.0257964171 0.0139462985 0.0146761741
0.0274532568 0.0146389119 0.0098542329
0.0281670000 0.0146797821 0.0101822000
0.0292943921 0.0146762431 0.0104008522
-0.0261562094 0.0133934505 -0.0162115637
0.0549839772 0.0116063282 -0.0086776335
-0.0089510828 0.0129377097 0.0005734842
-0.0199383050 0.0147186816 0.0055906232
0.0041708108 0.0141244233 -0.0005627144
-0.0259549506 0.0112122893 -0.0167488027
0.0248010382 0.0129411630 -0.0173360277
-0.0198010355 0.0096984077 -0.0118230153
-0.0010593084 0.0138201229 -0.0001176316
-0.0000587383 0.0138093568 -0.0001918096
-0.0262519196 0.0140922293 0.0140944179
0.0289024469 0.0146821775 0.0104945507
-0.0091563761 0.0136946961 0.0004867818
0.0039092228 0.0131682493 -0.0004455838
0.0439991169 0.0109241232 -0.0076906327
0.0080877878 0.0133708194 -0.0007813666
-0.0257483013 0.0087991636 -0.0179830361
-0.0260946862 0.0126259327 -0.0201315824
0.0249792635 0.0130524375 -0.0156805608
-0.0119104832 0.0101031326 0.0015690830
0.0264141560 0.0136007182 0.0035603326
0.0267876312 0.0137657374 0.0042162742
0.0262122247 0.0118114725 -0.0115887467
-0.0239121355 0.0150556341 0.0143781360
0.0243687350 0.0124795958 -0.0112763960
0.0041695442 0.0143655948 -0.0005627144
0.0242369100 0.0104056746 -0.0193038452
0.0266470518 0.0136764981 -0.0096834023
0.0282413643 0.0150527433 0.0101509672
0.0291623957 0.0150674768 0.0103539955
0.0269056633 0.0129660033 0.0022094082
0.0267853495 0.0133330487 0.0032323655
0.0073314589 0.0121841580 -0.0005627144
0.0253240187 0.0136872269 -0.0095272232
-0.0259770714 0.0109469742 -0.0179982129
-0.0182556845 0.0122774094 0.0033416878
0.0262175389 0.0134435482 -0.0130411927
-0.0275789276 0.0146416128 0.0137742516
-0.0268751159 0.0148338974 0.0136493053
-0.0261366926 0.0149259679 0.0141464826
-0.0242915787 0.0150739625 0.0146071818
0.0266548097 0.0136786327 -0.0028741229
0.0248454455 0.0117503330 -0.0179138798
-0.0231420733 0.0125246458 0.0023421627
-0.0078778863 0.0145058036 0.0003040563
0.0046125725 0.0132408999 -0.0005210657
0.0285087470 0.0150767416 0.0104945507
-0.0209099390 0.0126789473 -0.0151406396
-0.0116870999 0.0111944452 0.0013363864
0.0256917570 0.0134198405 0.0005929898
0.0261673275 0.0135778449 0.0031855088
0.0269084182 0.0140612349 0.0029980969
0.0088369176 0.0115201660 -0.0005158652
0.0250866562 0.0136980787 -0.0082986373
0.0297838617 0.0148334689 0.0102876183
0.0312964693 0.0149653442 0.0101093110
0.0319887660 0.0147455111 0.0097818282
0.0326896980 0.0145243257 0.0100260209
0.0035476706 0.0146146268 -0.0005002487
-0.0209013149 0.0126708299 -0.0138272662
0.0244371574 0.0114048496 -0.0193350855
0.0249241982 0.0125357024 -0.0121509824
0.0119827073 0.0145311877 -0.0011405665
0.0129427491 0.0145268776 -0.0011561830
0.0140250176 0.0145199932 -0.0012061689
0.0151080070 0.0145116039 -0.0012811292
0.0170233380 0.0140252337 -0.0013487879
-0.0229977928 0.0129605457 -0.0178774316
-0.0231173672 0.0129735246 -0.0171173830
0.0257770736 0.0135724023 -0.0111826900
0.0080928691 0.0145676136 -0.0008438323
0.0090681072 0.0145584233 -0.0009141136
0.0100433566 0.0145483576 -0.0010000113
0.0110172965 0.0145379715 -0.0010937098
0.0292942468 0.0153317042 0.0103696119
0.0296867862 0.0153287165 0.0103227552
-0.0141521841 0.0139238201 0.0007304233
-0.0126856044 0.0143312849 0.0007491615
-0.0121669648 0.0141068287 0.0006152969
-0.0117976358 0.0138081312 0.0003847536
0.0189848859 0.0144373737 -0.0022025658
0.0210026633 0.0144199692 -0.0024055932
0.0219424572 0.0144234188 -0.0023431201
0.0100297332 0.0133579001 -0.0008750726
-0.0184742920 0.0111779831 -0.0051230583
0.0264152270 0.0130347498 0.0023421627
-0.0103037357 0.0142897777 0.0004368108
-0.0089099258 0.0142760687 0.0004055705
-0.0010564791 0.0145462155 -0.0001488421
-0.0171638988 0.0107432790 -0.0057977233
-0.0268065259 0.0150188282 0.0133057293
-0.0264001265 0.0146055706 0.0133838113
0.0255147796 0.0139081664 -0.0063412283
-0.0150074549 0.0100979861 0.0008272585
0.0331794508 0.0154416449 0.0118376669
-0.0149040297 0.0139465369 0.0001908597
0.0262216218 0.0131238028 -0.0146185625
0.0262192860 0.0132459961 -0.0138480905
-0.0259425566 0.0100983363 -0.0180440266
0.0249706618 0.0140188634 -0.0079810861
0.0312571935 0.0153226890 0.0102134328
0.0319013894 0.0153042525 0.0099427234
0.0202871226 0.0132512264 -0.0022285897
-0.0175487585 0.0148261301 0.0000619870
0.0248950217 0.0131973997 -0.0102612469
0.0271178689 0.0143014193 -0.0040298272
0.0150992563 0.0130868778 -0.0011587758
-0.0256979801 0.0150814988 0.0144926663
-0.0040742438 0.0147036836 0.0000619721
0.0052429475 0.0132082030 -0.0005731303
0.0183903519 0.0134969577 -0.0021244753
0.0185816716 0.0142501183 -0.0014997739
0.0268900841 0.0146248341 -0.0027960334
-0.0160070620 0.0150051974 -0.0006460119
-0.0159737170 0.0147043206 -0.0002711881
-0.0149629377 0.0147931725 -0.0000213031
-0.0143045299 0.0148320049 0.0006294306
0.0061354581 0.0139860734 -0.0006876532
0.0262209475 0.0137733370 -0.0143686850
0.0197598487 0.0142084137 -0.0026398618
0.0247658696 0.0127698109 -0.0112659875
0.0061369836 0.0148263238 -0.0007188860
0.0178876445 0.0140351243 -0.0011789072
0.0190361328 0.0140649304 -0.0022092480
0.0295519046 0.0158416219 0.0101509672
0.0110181021 0.0148960240 -0.0011093412
0.0090666022 0.0141998269 -0.0008945856
0.0100391097 0.0141914822 -0.0009609554
-0.0110392272 0.0148845688 0.0004728567
-0.0171470568 0.0093224198 -0.0128069241
-0.0120496713 0.0148507655 -0.0022338051
-0.0099226646 0.0148982741 0.0004094969
-0.0089014173 0.0148858130 0.0003606882
0.0296123065 0.0135964528 0.0091618579
-0.0265872255 0.0125212073 -0.0202721376
0.0297068823 0.0155345500 0.0060903858
-0.0078176446 0.0132067800 0.0004159864
-0.0261644833 0.0122257173 -0.0178982634
0.0050279349 0.0142378844 -0.0006033275
-0.0050949231 0.0132571757 0.0002025496
-0.0194023661 0.0144116469 0.0049034487
0.0274062566 0.0145930760 0.0035290997
0.0244873408 0.0128805973 -0.0118073914
0.0276457109 0.0147770643 0.0026232731
0.0257802382 0.0133254156 -0.0116199870
-0.0040757395 0.0154337473 0.0000463706
-0.0169762559 0.0148960762 -0.0002023075
0.0268799309 0.0144007914 -0.0058414657
0.0287632365 0.0160914958 0.0099947881
-0.0143133700 0.0153265484 0.0006398465
-0.0118944496 0.0148964114 0.0005281325
-0.0050792098 0.0154447854 0.0000854190
-0.0130452849 0.0117425993 0.0018714126
0.0244054664 0.0125902481 -0.0130255613
-0.0099197626 0.0155099854 0.0003821459
-0.0302233212 0.0164856240 0.0101822000
-0.0300324932 0.0165226012 0.0107131954
0.0257528555 0.0133549981 -0.0078405235
0.0252556484 0.0113308355 -0.0207406599
0.0151088182 0.0149876662 -0.0013019387
0.0160650574 0.0148646906 -0.0013162438
0.0170126949 0.0148680098 -0.0012420658
0.0179527458 0.0148795396 -0.0010605175
-0.0169103406 0.0155314580 -0.0002920199
-0.0155471340 0.0154980682 -0.0005314816
0.0260143653 0.0135673992 -0.0150324348
-0.0143215582 0.0155747682 0.0006554630
-0.0175514668 0.0111332983 -0.0030927677
-0.0078858249 0.0138966814 0.0003470238
0.0029271527 0.0138986073 -0.0004252736
0.0278034694 0.0148865394 0.0059342142
0.0038564934 0.0137983561 -0.0005022008
0.0110188220 0.0152540840 -0.0011249501
0.0475178324 0.0118833072 0.0030918028
0.0110022798 0.0133498497 -0.0009531546
0.0129338019 0.0129796267 -0.0010429341
0.0140183065 0.0132117532 -0.0011124555
-0.0040756017 0.0156769380 0.0000385623
0.0201241653 0.0140019953 -0.0024914909
-0.0229478329 0.0146632716 0.0126497801
-0.0238654427 0.0097558461 -0.0166687313
0.0186923053 0.0149681456 -0.0019735117
0.0192045849 0.0149733163 -0.0027832557
-0.0266661346 0.0156388842 0.0143521037
0.0151055977 0.0140365809 -0.0012446810
0.0160658192 0.0139112137 -0.0013006274
-0.0120707387 0.0153355598 -0.0021869484
0.0309814308 0.0156236924 0.0018423926
-0.0110873915 0.0156514868 0.0004784521
0.0279081352 0.0153747424 0.0039976295
-0.0160198547 0.0156182311 -0.0006303955
-0.0099221654 0.0157555602 0.0003821459
0.0050282590 0.0149594210 -0.0006251875
-0.0282605067 0.0110922083 -0.0176796112
0.0266499575 0.0136280023 -0.0071221087
0.0295332093 0.0160435997 0.0093700867
0.0129432837 0.0154814310 -0.0011874232
0.0140261948 0.0154733434 -0.0012436453
0.0168935191 0.0154639855 -0.0012602974
0.0179474708 0.0154817589 -0.0010078121
-0.0120770857 0.0143765844 -0.0021400917
-0.0068894550 0.0138765424 0.0002764892
-0.0050857589 0.0138638727 0.0001537707
-0.0261510164 0.0128281154 -0.0179696623
0.0110178674 0.0154936239 -0.0011249501
-0.0314710066 0.0174134560 0.0148674902
-0.0040776711 0.0159207992 0.0000385623
-0.0160020255 0.0152482428 -0.0006668288
-0.0122986995 0.0150111876 -0.0000369269
0.0310480576 0.0159174614 0.0014363360
0.0248875972 0.0138156749 -0.0097979251
0.0284100622 0.0158920698 0.0042162742
-0.0030746961 0.0138435923 0.0000502523
0.0061331075 0.0153084770 -0.0007110778
0.0129433526 0.0157201029 -0.0011952315
0.0140254227 0.0157124661 -0.0012436453
0.0160650071 0.0155794621 -0.0013357867
0.0168955978 0.0157003514 -0.0012915377
0.0181738716 0.0157341175 -0.0008438323
-0.0105626844 0.0150288269 0.0004368108
-0.0182964019 0.0115549639 -0.0097536836
0.0129420543 0.0140498318 -0.0011379588
-0.0171634629 0.0114301555 -0.0146654192
0.0029308649 0.0149824433 -0.0004729200
0.0282279365 0.0155043714 0.0091514345
0.0110168988 0.0157332122 -0.0011249501
-0.0313912630 0.0176778659 0.0146800783
-0.0040797256 0.0161647052 0.0000385623
-0.0143307969 0.0160698444 0.0006658714
-0.0119667426 0.0159348622 0.0005263742
-0.0123441443 0.0156797953 -0.0001098085
-0.0030689330 0.0148138180 0.0000014510
0.0050208364 0.0158046670 -0.0006106142
0.0061268043 0.0157919936 -0.0006902535
0.0266504828 0.0145516731 -0.0068722311
0.0266510453 0.0150353052 -0.0064974073
0.0279168971 0.0134280883 0.0048409756
0.0178565402 0.0159364305 -0.0003440697
0.0255194642 0.0135331526 -0.0068409983
-0.0040821545 0.0138544254 0.0001147222
-0.0020658800 0.0138318576 -0.0000317339
0.0009688775 0.0140146241 -0.0002961922
0.0019337873 0.0139092468 -0.0003440697
-0.0320295878 0.0171066038 0.0117361601
-0.0036995949 0.0164020881 -0.0000004787
0.0285094194 0.0153422579 0.0105257835
0.0192164369 0.0157619305 -0.0029410589
0.0140222153 0.0139253065 -0.0011655483
0.0185790565 0.0144904815 -0.0014685337
-0.0160295926 0.0161087699 -0.0006199796
-0.0326462872 0.0173518062 0.0104008447
0.0051362999 0.0162879974 -0.0005939547
0.0061180573 0.0162769668 -0.0006564204
0.0318563096 0.0122718550 -0.0111826900
0.0197561588 0.0148601979 -0.0028491337
0.0202921368 0.0151328817 -0.0023639528
-0.0169014968 0.0159978531 -0.0036059190
-0.0262382440 0.0132429302 -0.0151651818
0.0371003374 0.0151872784 0.0269555207
-0.0229338631 0.0131021291 -0.0149465371
-0.0120535418 0.0158771761 -0.0020370288
-0.0105711184 0.0158890709 0.0004368108
-0.0099246278 0.0161236860 0.0003782343
0.0279185511 0.0151916929 0.0049034487
-0.0307389945 0.0168496817 0.0113066640
0.0080925636 0.0142081231 -0.0008321125
0.0129446043 0.0150031522 -0.0011848155
-0.0079549327 0.0119528621 0.0006242376
0.0035512003 0.0150952302 -0.0005314816
-0.0050876513 0.0164213777 0.0000854190
-0.0262516290 0.0175577328 0.0075584408
-0.0305372700 0.0168863386 0.0118220504
0.0110154096 0.0141804516 -0.0010702852
0.0119809406 0.0141739212 -0.0011171494
0.0266482774 0.0154977441 -0.0090586934
0.0051319301 0.0165308006 -0.0005783383
0.0061166771 0.0165181458 -0.0006564204
-0.0109670311 0.0139339045 0.0005461555
-0.0099217631 0.0138986968 0.0005138796
0.0100448113 0.0150261335 -0.0010234136
-0.0314863622 0.0173386969 0.0139147993
0.0193911139 0.0162554979 -0.0030615339
0.0140253827 0.0149968192 -0.0012228061
0.0045216065 0.0165359043 -0.0005627144
0.0262060817 0.0156897269 -0.0094022844
0.0266486015 0.0157394931 -0.0088400487
-0.0202404372 0.0138858110 0.0067463275
-0.0050833598 0.0159329958 0.0000854190
-0.0030700227 0.0159073770 -0.0000270400
0.0284648482 0.0136011057 0.0077770855
0.0264277179 0.0156235695 -0.0101519320
0.0242477134 0.0098187048 -0.0189258996
-0.0237577595 0.0127827115 -0.0168753061
-0.0121225566 0.0162800401 -0.0009687785
-0.0099272616 0.0166144334 0.0003704261
-0.0068773702 0.0131550021 0.0003391933
-0.0078758076 0.0165822022 0.0002337825
0.0219412763 0.0140715241 -0.0023066867
0.0151056275 0.0164205171 -0.0013123620
0.0040456634 0.0149690323 -0.0005679149
-0.0143394955 0.0168115422 0.0006658714
-0.0327316485 0.0179122873 0.0101241972
-0.0120017976 0.0167731456 0.0005279239
0.0051304530 0.0167723037 -0.0005783383
0.0061152689 0.0167593732 -0.0006564204
0.0264300704 0.0137641393 -0.0130411852
0.0308398716 0.0159965232 0.0024046283
-0.0050384589 0.0167701840 0.0000887644
-0.0041204449 0.0166759863 0.0000477787
0.0279579610 0.0149247758 0.0083080884
0.0282208957 0.0152081549 0.0086516719
0.0257370081 0.0125810951 -0.0056540538
0.0119827045 0.0150088482 -0.0011535753
0.0288600437 0.0152561925 0.0105466153
0.0302610081 0.0152552687 0.0105153825
0.0202909708 0.0157244541 -0.0023587439
-0.0260373838 0.0134618208 -0.0151027087
