# .PCD v0.7 - Point Cloud Data file format
VERSION 0.7
FIELDS x y z
SIZE 4 4 4
TYPE F F F
COUNT 1 1 1
WIDTH 1191
HEIGHT 1
VIEWPOINT 0 0 0 1 0 0 0
POINTS 1191
DATA ascii
-0.0267637987 0.0191347227 0.0158472117
0.0083653182 0.0162733644 -0.0020978320
0.0093625151 0.0163835362 -0.0021921936
0.0187567174 0.0176800527 -0.0036654416
-0.0166445281 0.0180543028 -0.0036498178
-0.0139310900 0.0163693577 -0.0008573774
-0.0115655344 0.0164352693 -0.0006370489
-0.0015086735 0.0173952095 -0.0012407918
0.0043336153 0.0175599530 -0.0016937125
0.0053457208 0.0172982849 -0.0017932896
0.0063490868 0.0172856227 -0.0018694345
0.0073531773 0.0172714964 -0.0019650850
0.0080603715 0.0173446164 -0.0020203758
-0.0004223192 0.0108022708 -0.0089285690
0.0093509629 0.0172454044 -0.0021427367
0.0103732534 0.0173005015 -0.0022338349
0.0196582414 0.0135798566 -0.0044806693
-0.0005042272 0.0182536393 -0.0012681354
0.0005113857 0.0182402506 -0.0013227928
0.0077446364 0.0160343535 -0.0020568240
0.0187841281 0.0177237429 -0.0057113413
0.0303724632 0.0132731535 -0.0235101972
0.0319933593 0.0130075179 -0.0235466529
0.0124720875 0.0104461592 -0.0114273895
0.0184330735 0.0160349309 -0.0022486914
0.0162370577 0.0101631507 -0.0130672399
0.0133202737 0.0133010000 -0.0024257917
-0.0179009978 0.0060861502 -0.0106340144
0.0164881423 0.0181559622 -0.0025643948
0.0268306676 0.0130353495 -0.0230468903
0.0307473801 0.0136818439 -0.0224378053
-0.0168878753 0.0179072693 -0.0042120535
-0.0156406853 0.0143002123 -0.0008835513
0.0280607603 0.0149659887 -0.0202825759
-0.0146471495 0.0166812912 -0.0008230302
-0.0213664118 0.0132171065 -0.0102092121
0.0103547983 0.0114935338 -0.0021479372
-0.0035376379 0.0182747170 -0.0010856856
-0.0025488769 0.0182835087 -0.0011379886
-0.0015295333 0.0182702057 -0.0011848379
-0.0005118268 0.0185043477 -0.0012447108
0.0085284635 0.0172069222 -0.0020693187
0.0192773324 0.0142959207 -0.0045119170
0.0005058480 0.0184899196 -0.0013071764
-0.0114930067 0.0182167180 -0.0040949229
-0.0076292995 0.0161983557 -0.0008453447
-0.0066158082 0.0164431036 -0.0009323526
0.0276551712 0.0075266678 -0.0237340573
0.0214081183 0.0181481279 -0.0037669707
-0.0167321134 0.0155364200 -0.0036498178
-0.0061931517 0.0052937604 -0.0108651537
-0.0095743816 0.0182792693 -0.0005926881
0.0272366647 0.0139893182 -0.0209541265
0.0164813846 0.0185283050 -0.0025019217
0.0005317127 0.0107959826 -0.0089910422
-0.0171915535 0.0178625584 -0.0047430489
-0.0138359694 0.0142703988 -0.0005404968
-0.0156486761 0.0173108205 -0.0009518806
-0.0042069014 0.0181800798 -0.0010729078
-0.0025658717 0.0187864602 -0.0010885242
-0.0015402286 0.0187702626 -0.0011588130
-0.0005212741 0.0187560096 -0.0012134705
0.0005003048 0.0187397115 -0.0012915600
0.0015242567 0.0183508396 -0.0013813395
0.0025012235 0.0184837617 -0.0014434773
0.0034204947 0.0185716897 -0.0015102047
0.0043050069 0.0185585059 -0.0015804935
0.0053239334 0.0182922333 -0.0017093066
0.0063304100 0.0182773285 -0.0017971788
0.0087199584 0.0178697556 -0.0020568240
0.0190206077 0.0177232064 -0.0057113413
0.0104608666 0.0104228482 -0.0122707430
0.0137692485 0.0103973597 -0.0128017385
0.0165054835 0.0164377615 -0.0027029980
-0.0215220954 0.0130083226 -0.0181221385
-0.0204999056 0.0130769424 -0.0181351546
0.0214085151 0.0186284110 -0.0037903730
-0.0036793107 0.0068848804 -0.0186583418
-0.0145618040 0.0115316100 -0.0009323601
0.0186551660 0.0174493864 -0.0022286121
0.0208210237 0.0172833987 -0.0040012095
-0.0025044975 0.0155421123 -0.0012264792
0.0133244572 0.0142717250 -0.0024843533
0.0208138414 0.0183769464 -0.0038996954
-0.0115930866 0.0163853690 -0.0041079391
-0.0156336892 0.0153016262 -0.0009304006
-0.0146344025 0.0152994916 -0.0008171815
-0.0046290737 0.0190697201 -0.0009479690
-0.0036051681 0.0190557502 -0.0009870175
-0.0029627418 0.0190456621 -0.0010260586
-0.0015481430 0.0190215707 -0.0011353809
-0.0005289463 0.0190070495 -0.0011900458
0.0004911741 0.0189912543 -0.0012603272
0.0015066770 0.0189766288 -0.0013227928
0.0133265499 0.0152432621 -0.0025272984
0.0263013095 0.0115973726 -0.0234998111
-0.0115196649 0.0152574256 -0.0027856473
-0.0212993864 0.0041494891 -0.0028626937
0.0171136800 0.0164353177 -0.0027127657
-0.0271319617 0.0141998380 -0.0166228432
-0.0167405400 0.0175672136 -0.0052428190
-0.0166916084 0.0165940970 -0.0022025872
-0.0194399673 0.0125183612 -0.0098031554
-0.0085338522 0.0191392601 -0.0006694738
0.0278632697 0.0150347203 -0.0194548387
0.0112668760 0.0072634183 -0.0221983362
0.0288863797 0.0140569024 -0.0200483073
0.0290866643 0.0143463314 -0.0203138087
-0.0162891727 0.0185704231 -0.0010260586
-0.0157424826 0.0184196606 -0.0009479616
-0.0056690145 0.0192136541 -0.0008659828
-0.0046400297 0.0193229020 -0.0009167362
-0.0036157665 0.0193086788 -0.0009557772
-0.0027151664 0.0192937963 -0.0010156501
-0.0015580150 0.0192738622 -0.0011041481
-0.0005329380 0.0192565918 -0.0011822376
0.0004873222 0.0192405060 -0.0012525190
0.0014995766 0.0192272663 -0.0012993682
0.0025168846 0.0190871283 -0.0013774429
0.0035326986 0.0190702006 -0.0014672671
0.0044173226 0.0190566592 -0.0015362371
0.0191079527 0.0178368390 -0.0069607515
0.0258334912 0.0120361894 -0.0230468903
0.0170945562 0.0183998570 -0.0025487784
-0.0053171720 0.0163935907 -0.0010572914
-0.0045613814 0.0164365172 -0.0011100043
0.0094111599 0.0182398818 -0.0020859856
0.0102998484 0.0183992982 -0.0021384005
0.0230646897 0.0102878306 -0.0156909917
-0.0164968316 0.0162658840 -0.0036498178
0.0220083836 0.0182687081 -0.0037591401
0.0291914418 0.0149700902 -0.0202435274
-0.0115287323 0.0173600651 -0.0041183475
-0.0162635017 0.0165575743 -0.0010260586
-0.0156268980 0.0165534876 -0.0009870175
-0.0164502505 0.0130969323 -0.0071481634
0.0195648894 0.0151052661 -0.0045556296
0.0025041702 0.0194640979 -0.0013306011
0.0035212899 0.0194462724 -0.0014243070
0.0320405513 0.0139437579 -0.0187988970
-0.0095423851 0.0172686763 -0.0006610174
-0.0084914956 0.0172512047 -0.0007430036
-0.0014768428 0.0144158378 -0.0012837369
-0.0066473540 0.0173773542 -0.0009115282
-0.0056426656 0.0174776204 -0.0009906609
-0.0049761403 0.0178175010 -0.0010260586
-0.0145535786 0.0199516155 -0.0008386467
-0.0116275381 0.0187080763 -0.0040871147
0.0144407619 0.0174159184 -0.0025154892
0.0145162772 0.0192807727 -0.0023847986
0.0115086185 0.0072965268 -0.0218303446
0.0273518227 0.0212756321 0.0138106700
-0.0035505721 0.0174210481 -0.0011392850
-0.0096141119 0.0199209638 -0.0005262960
-0.0085599441 0.0198991559 -0.0006121937
-0.0075096395 0.0198777616 -0.0006980840
-0.0064674933 0.0198584981 -0.0007683728
-0.0026017369 0.0196708217 -0.0009792093
-0.0014859530 0.0196092203 -0.0010676999
-0.0005472915 0.0196349509 -0.0011353809
-0.0137573052 0.0203052089 0.0025659855
-0.0115069766 0.0167303942 -0.0028689373
0.0084135905 0.0062355604 -0.0187114496
0.0267939828 0.0216616578 0.0173402485
0.0133744692 0.0177045204 -0.0024316404
-0.0136043411 0.0100954734 -0.0192075614
0.0173072480 0.0076561384 -0.0225705598
0.0185255315 0.0073322300 -0.0225818474
-0.0128643345 0.0165188275 -0.0026086438
-0.0125109050 0.0159440413 -0.0036185849
-0.0113766212 0.0162426122 -0.0036765952
0.0095751155 0.0189704783 -0.0020568240
0.0104090534 0.0192781948 -0.0020741764
0.0101794731 0.0196918920 -0.0020121951
-0.0166774858 0.0173326880 -0.0037396196
0.0207110383 0.0191668607 -0.0039264802
0.0214035679 0.0192412473 -0.0037064571
0.0220044255 0.0192414373 -0.0036966745
0.0259845164 0.0212613381 0.0111869182
0.0004743861 0.0196179971 -0.0012095589
0.0155056799 0.0184109919 -0.0024863053
0.0145118339 0.0197729766 -0.0023613665
-0.0029752960 0.0102668758 -0.0185177792
-0.0056401882 0.0184558444 -0.0009421203
-0.0046631601 0.0184762888 -0.0010015164
-0.0036712696 0.0187543184 -0.0010135639
-0.0139216613 0.0206619874 0.0034405794
0.0266314149 0.0128288679 -0.0231510047
0.0274266899 0.0124130435 -0.0234404523
0.0294091348 0.0124046504 -0.0235991273
0.0073344540 0.0182625577 -0.0018870030
-0.0036317443 0.0196884684 -0.0009089280
0.0014862922 0.0196048319 -0.0012525115
0.0024956486 0.0197156742 -0.0012993682
0.0035146868 0.0196966603 -0.0014008824
0.0045300107 0.0195551179 -0.0014945958
0.0054214783 0.0192900971 -0.0016019437
0.0281578600 0.0212517604 0.0110932048
-0.0166924614 0.0197756812 -0.0027752314
0.0190458931 0.0181598812 -0.0060861651
-0.0168714281 0.0174674764 -0.0022129957
0.0208096225 0.0198281631 -0.0038684625
0.0210467167 0.0198348314 -0.0038059969
0.0257136244 0.0215239413 0.0110932048
0.0092850327 0.0193947069 -0.0019846056
-0.0173755456 0.0220163390 0.0128423776
0.0285623539 0.0213613957 0.0108511355
0.0291029885 0.0213513523 0.0107574221
-0.0115184691 0.0153135546 -0.0037357230
0.0015777816 0.0100318640 -0.0186114851
-0.0183622744 0.0115363225 -0.0107818563
-0.0066362303 0.0192282572 -0.0008230377
-0.0056333933 0.0197011530 -0.0008163471
-0.0046555046 0.0197026432 -0.0008737911
-0.0046819095 0.0202119574 -0.0007957090
-0.0036521812 0.0201950632 -0.0008503664
-0.0011983718 0.0200230591 -0.0010572914
-0.0005108731 0.0201210193 -0.0010795984
-0.0152363610 0.0185536891 -0.0010572914
-0.0255148169 0.0085942280 -0.0244758967
-0.0115096737 0.0169770233 -0.0028689373
-0.0165482778 0.0203019492 -0.0024941135
-0.0018337833 0.0197831392 -0.0010260586
0.0045173187 0.0200556368 -0.0014477242
-0.0161777716 0.0216013342 0.0068452191
0.0288891457 0.0143761262 -0.0199233685
0.0164972227 0.0175386742 -0.0026450772
0.0171098560 0.0174104609 -0.0026971418
-0.0172542613 0.0183076225 -0.0034936387
-0.0167199168 0.0185706839 -0.0036732499
-0.0036931520 0.0062248893 -0.0145821441
0.0155966170 0.0107102729 -0.0101311300
0.0208091736 0.0200697146 -0.0038684625
0.0255786404 0.0217880458 0.0110151228
-0.0129065122 0.0133973956 0.0000234451
0.0188537203 0.0178651959 -0.0066796336
-0.0145171005 0.0209949948 0.0052053686
0.0115392236 0.0201850198 -0.0020919535
0.0063613933 0.0192374997 -0.0017065201
0.0075080879 0.0201502740 -0.0017189030
0.0277495533 0.0217760056 0.0109057929
0.0282917768 0.0217727795 0.0108745601
-0.0195750687 0.0124038421 -0.0105944518
-0.0014919246 0.0163991861 -0.0012778807
-0.0075121466 0.0192699581 -0.0007532854
-0.0158633459 0.0213598981 0.0047524553
-0.0133930910 0.0211767741 0.0034405794
0.0133197205 0.0163424835 -0.0025003571
-0.0055377726 0.0203776285 -0.0007418264
-0.0045697372 0.0205909945 -0.0007553566
-0.0004478468 0.0205145963 -0.0010572914
0.0004538150 0.0202474818 -0.0011431891
0.0014690832 0.0202323943 -0.0011978466
0.0024817588 0.0202176757 -0.0012525041
0.0035008716 0.0201982893 -0.0013514105
0.0045099761 0.0204300657 -0.0014243070
0.0055235401 0.0201644674 -0.0015154127
-0.0170170572 0.0222679079 0.0126237329
-0.0163524542 0.0204883553 -0.0030251164
0.0227243938 0.0098718088 -0.0152380858
0.0065328106 0.0201467872 -0.0016091112
-0.0143505242 0.0217829794 0.0063142162
0.0186210964 0.0170034431 -0.0017366577
0.0134209571 0.0184283182 -0.0023894776
0.0145255579 0.0184188858 -0.0024414081
0.0220940486 0.0201508179 -0.0035685990
-0.0003254952 0.0110326465 -0.0023691747
0.0208087191 0.0203113332 -0.0038684625
0.0214317814 0.0201172680 -0.0036384631
0.0254437644 0.0220518932 0.0109370258
0.0274780914 0.0220413134 0.0108433273
0.0284275413 0.0220444389 0.0108641591
-0.0172003489 0.0218561031 0.0065953340
0.0257144868 0.0220592394 0.0109995063
-0.0113561098 0.0173023604 -0.0036435742
-0.0164796244 0.0202052072 -0.0033582915
0.0322241746 0.0139106140 -0.0192674268
-0.0115644652 0.0190918036 -0.0039153192
-0.0025282425 0.0174079835 -0.0011900384
-0.0085786711 0.0204069763 -0.0005705599
-0.0075300653 0.0203857310 -0.0006486494
0.0188410450 0.0155522414 -0.0030875821
-0.0026309190 0.0204299241 -0.0008933116
-0.0016243866 0.0204350092 -0.0009802524
-0.0130054969 0.0213891417 0.0030657556
-0.0065102596 0.0208749138 -0.0006590430
-0.0054831821 0.0208603218 -0.0006824750
0.0004404226 0.0207501166 -0.0011041481
0.0014544820 0.0207354501 -0.0011510048
0.0024694151 0.0207193196 -0.0012134705
0.0034880212 0.0206998587 -0.0013071764
0.0045020469 0.0206817202 -0.0013930742
0.0055117961 0.0206648856 -0.0014711563
0.0089579094 0.0184855759 -0.0020255838
0.0164707508 0.0193930455 -0.0024140794
-0.0136708561 0.0186564438 -0.0010885317
-0.0066009816 0.0086688343 -0.0200108159
0.0083114728 0.0182725117 -0.0019797850
-0.0184230153 0.0221340135 0.0065172520
-0.0145616923 0.0221266598 0.0069389250
-0.0166200567 0.0162854008 -0.0045244042
0.0165533684 0.0101795029 -0.0125310291
-0.0085522365 0.0196460746 -0.0006278101
0.0134973032 0.0193908028 -0.0023379494
0.0221137162 0.0205976591 -0.0034780223
-0.0187302027 0.0227482319 0.0117179062
-0.0131327752 0.0216952227 0.0034405794
-0.0083303172 0.0060034711 -0.0135826189
0.0198194757 0.0206075534 -0.0034311730
0.0208099317 0.0205492638 -0.0038997028
0.0253082793 0.0223229900 0.0109214094
0.0266647618 0.0223212056 0.0109057929
0.0274782255 0.0223121978 0.0108277109
0.0282914117 0.0223090090 0.0107964631
0.0263025369 0.0221521519 0.0110151228
-0.0173943359 0.0225342587 0.0124519374
0.0166356508 0.0074336827 -0.0221605841
0.0267049875 0.0216366835 0.0137169566
0.0193722416 0.0072893240 -0.0223407019
-0.0096269380 0.0204271302 -0.0005054791
-0.0008100847 0.0206221268 -0.0010198150
-0.0086070467 0.0210444257 -0.0005028639
-0.0075610075 0.0210236907 -0.0005692337
-0.0065221805 0.0211299546 -0.0006278101
-0.0131199937 0.0208217427 0.0026284587
0.0004310069 0.0210031085 -0.0010729078
0.0014471245 0.0209872611 -0.0011275727
0.0024656283 0.0209689699 -0.0012056623
0.0034812561 0.0209510773 -0.0012837518
0.0044955965 0.0209326334 -0.0013696495
-0.0261766147 0.0092064291 -0.0249210019
-0.0114005972 0.0184282847 -0.0040038172
-0.0146538373 0.0184387751 -0.0008646790
-0.0129920412 0.0185302459 -0.0023067016
-0.0165810864 0.0132188536 -0.0037044827
-0.0163409244 0.0217554346 0.0106246825
-0.0168140549 0.0184468739 -0.0024004076
-0.0166265275 0.0182609111 -0.0013094041
-0.0025113446 0.0164110661 -0.0012251753
0.0193264335 0.0198034905 -0.0101467464
-0.0016238521 0.0211676396 -0.0009089280
-0.0135897268 0.0221273080 0.0048149284
0.0170660391 0.0209952556 -0.0023067016
0.0195638053 0.0208775550 -0.0032125209
-0.0171027947 0.0231380910 0.0128423776
0.0262418315 0.0215749331 0.0139980819
0.0270748418 0.0215716772 0.0139668491
-0.0111279953 0.0213858336 -0.0010885317
-0.0113904644 0.0211283639 -0.0007449407
-0.0106397253 0.0211861655 -0.0005939845
-0.0096497219 0.0211884454 -0.0004638303
-0.0026535222 0.0211872086 -0.0008347500
0.0226022508 0.0220923275 0.0067827459
-0.0005954204 0.0211475007 -0.0009909216
-0.0174227040 0.0216652043 0.0049086343
-0.0157221723 0.0211810991 0.0031906944
0.0073120240 0.0192579255 -0.0017893557
0.0083169751 0.0192406811 -0.0018948112
0.0014380404 0.0212401971 -0.0010963324
0.0024569093 0.0212216079 -0.0011744294
0.0034729040 0.0212034211 -0.0012525190
0.0194700137 0.0208106413 -0.0017444659
0.0241324939 0.0218093097 0.0088755097
-0.0096004959 0.0192896873 -0.0005458314
-0.0016354060 0.0215465948 -0.0008776952
0.0235438384 0.0036897846 -0.0103575829
-0.0166222472 0.0232890844 0.0118272360
-0.0236110967 0.0132766590 -0.0176984612
0.0170625560 0.0212443992 -0.0022754688
-0.0131945182 0.0157981887 -0.0023691747
0.0205825269 0.0210021287 -0.0041495804
0.0253085829 0.0228651613 0.0108901765
0.0268005915 0.0228711218 0.0109370258
0.0274789929 0.0228695124 0.0109214094
0.0282925051 0.0228623338 0.0108589437
-0.0075918864 0.0182396099 -0.0007918049
-0.0124640260 0.0155666396 -0.0037435237
0.0262575801 0.0228761658 0.0109786745
-0.0174560342 0.0233944431 0.0125925001
-0.0167617593 0.0231145099 0.0126861986
-0.0066843163 0.0183143616 -0.0008740518
-0.0026664340 0.0215671398 -0.0007996056
0.0223564357 0.0222987458 0.0063142162
0.0007175265 0.0213347226 -0.0010572914
-0.0172881875 0.0215337761 0.0037841629
-0.0146561693 0.0193175003 -0.0008913595
-0.0162998307 0.0193262622 -0.0010260586
-0.0158004444 0.0193254203 -0.0009661932
-0.0026751289 0.0218206495 -0.0007761810
-0.0016418303 0.0217987821 -0.0008620787
0.0145068299 0.0203882866 -0.0023379494
-0.0174979959 0.0236376226 0.0122801419
-0.0166211929 0.0235137269 0.0113847461
0.0272554792 0.0215745643 0.0123426076
0.0276153777 0.0214005634 0.0112064388
0.0272078905 0.0231484249 0.0109682586
-0.0045539271 0.0154414810 -0.0011080522
-0.0085131135 0.0182572752 -0.0007059146
-0.0014833825 0.0154068954 -0.0012837369
0.0238685124 0.0217947401 0.0087505635
-0.0118267369 0.0192664862 -0.0022546519
0.0144811720 0.0092863664 -0.0217399914
0.0214488674 0.0214486346 0.0004732367
0.0217690784 0.0214756280 0.0017226394
0.0215010755 0.0217723474 0.0020662304
0.0223348066 0.0215557367 0.0034405794
0.0229413100 0.0215466395 0.0044401046
-0.0055189077 0.0218757950 -0.0005965773
-0.0044869725 0.0218577199 -0.0006434266
-0.0044523645 0.0208433308 -0.0007293243
-0.0036686973 0.0207005851 -0.0008074213
-0.0001986100 0.0207615569 -0.0010572914
0.0065216143 0.0206465833 -0.0015648697
0.0075312257 0.0206268057 -0.0016741920
0.0154784257 0.0212454684 -0.0023145247
-0.0152467210 0.0193085968 -0.0010572914
-0.0196302887 0.0239122510 0.0142375436
-0.0145993736 0.0203700289 -0.0007932205
0.0211320445 0.0216762833 -0.0007137079
0.0282930750 0.0231393054 0.0108901765
0.0183621626 0.0164586045 -0.0017667804
0.0192505941 0.0204544887 -0.0057113413
-0.0142227579 0.0230329558 0.0067046639
-0.0167452414 0.0174763277 -0.0048992280
-0.0026798786 0.0220723040 -0.0007683728
0.0135243451 0.0203971229 -0.0022989083
-0.0166116823 0.0237869285 0.0113430824
0.0003149586 0.0215654783 -0.0010156501
-0.0132795777 0.0228956714 0.0046587493
0.0263881274 0.0211009942 0.0122176763
0.0263335593 0.0217049308 0.0113118645
-0.0174538624 0.0223134458 0.0105309691
0.0245244112 0.0232089832 0.0093127992
0.0242226608 0.0229631290 0.0087922122
0.0154859964 0.0203821138 -0.0023574699
0.0195005275 0.0211808681 -0.0022364277
0.0226306003 0.0226030052 0.0074824151
-0.0150487702 0.0216705911 0.0075948592
0.0253084470 0.0225940719 0.0109057929
0.0265291426 0.0225966759 0.0109266248
0.0274785738 0.0225897655 0.0108667519
-0.0176088382 0.0239592418 0.0125925001
-0.0035335885 0.0164232403 -0.0011724699
-0.0106572788 0.0203143992 -0.0005028863
0.0213963594 0.0223189071 0.0043776315
0.0221589431 0.0220933743 0.0046587493
-0.0044941064 0.0221109614 -0.0006278101
-0.0055020284 0.0213682726 -0.0006356407
-0.0045367870 0.0213318393 -0.0006720740
-0.0161585640 0.0216859803 0.0075948592
0.0135114258 0.0213878714 -0.0022266824
-0.0167719442 0.0201010741 -0.0013071764
-0.0156349409 0.0204178654 -0.0008026231
0.0234812256 0.0230742395 0.0082586017
0.0024503062 0.0215970278 -0.0011588056
0.0064974967 0.0218958557 -0.0014789719
0.0215502121 0.0228869617 0.0067827459
-0.0142030846 0.0234254077 0.0066265669
-0.0185757596 0.0225993842 0.0104685035
0.0003970118 0.0221390091 -0.0009714011
0.0143585410 0.0107087158 -0.0102404524
0.0257147681 0.0224651136 0.0109682586
0.0105069093 0.0220725015 -0.0018147472
0.0115058636 0.0220533609 -0.0019162688
0.0105196759 0.0214472935 -0.0018791948
0.0122171743 0.0217080228 -0.0020151753
0.0144965546 0.0213764906 -0.0022813398
0.0154725723 0.0217413045 -0.0022754688
0.0164538063 0.0213661678 -0.0023008604
0.0170586407 0.0216165110 -0.0022442359
0.0196397156 0.0215700343 -0.0044385139
0.0224425644 0.0231182352 0.0075558182
-0.0122485626 0.0219727531 0.0015352275
-0.0172949079 0.0217100270 0.0053146910
-0.0170653481 0.0217209868 0.0054396298
0.0282919724 0.0225855634 0.0108277109
0.0114463139 0.0099100992 -0.0214538891
-0.0052143428 0.0170689635 -0.0010572914
-0.0122599546 0.0201005563 -0.0003388841
-0.0116083194 0.0203001574 -0.0004806463
0.0103695132 0.0152674653 -0.0023379494
-0.0131937917 0.0225995854 0.0044088718
-0.0065412726 0.0215134136 -0.0005770419
-0.0036057176 0.0214302763 -0.0007425491
0.0216894001 0.0226005614 0.0066109505
0.0220737383 0.0226296037 0.0068452191
-0.0006105600 0.0216524154 -0.0009479690
0.0014868119 0.0215967521 -0.0010885242
0.0010415298 0.0217512324 -0.0010260586
-0.0173304137 0.0219911709 0.0077510383
-0.0170187745 0.0219758153 0.0076573249
-0.0168596562 0.0220131129 0.0080009159
0.0127526708 0.0220282041 -0.0020568240
0.0122517329 0.0220410489 -0.0019787345
-0.0162805300 0.0209920928 -0.0007917974
0.0241322462 0.0234178975 0.0088442769
0.0075047929 0.0220002905 -0.0015726853
-0.0139908139 0.0236051604 0.0059706327
-0.0213368181 0.0243963338 0.0144627150
-0.0183406714 0.0245337039 0.0125925001
-0.0173002537 0.0243668035 0.0125144180
-0.0163893942 0.0242236890 0.0115148779
0.0164615065 0.0203797147 -0.0023477096
0.0170713589 0.0203778967 -0.0023457501
-0.0205383059 0.0235099010 0.0143312719
0.0085069407 0.0221069232 -0.0016507525
0.0105009787 0.0223236755 -0.0017835144
0.0115013439 0.0223032013 -0.0018928293
-0.0105953310 0.0172859654 -0.0005848799
-0.0163441096 0.0203692541 -0.0009479765
-0.0148964729 0.0208192691 0.0000984054
0.0118188234 0.0206384063 -0.0020568240
0.0259859618 0.0226054788 0.0109995063
0.0124960346 0.0222862512 -0.0019787345
0.0144859161 0.0221223272 -0.0022130106
0.0114653790 0.0214640349 -0.0019832049
0.0224359296 0.0235402957 0.0077275988
-0.0096711237 0.0216990039 -0.0004169736
-0.0086313095 0.0215557963 -0.0004443023
-0.0212613512 0.0235168189 0.0142948087
0.0044840779 0.0214340389 -0.0013305862
0.0065092910 0.0212711096 -0.0015199576
0.0204828437 0.0213564634 -0.0045244042
0.0249089729 0.0236214921 0.0104060378
0.0253670458 0.0234466903 0.0108611640
0.0268007871 0.0234175846 0.0109370258
0.0275848452 0.0234751105 0.0109092649
0.0281574540 0.0235449150 0.0108589437
-0.0160327312 0.0236371458 0.0113274660
0.0103599485 0.0162481517 -0.0022989083
0.0154949902 0.0164212137 -0.0026778523
-0.0086639989 0.0223226696 -0.0003701393
-0.0076145399 0.0222994462 -0.0004423726
-0.0065686572 0.0222766958 -0.0005145986
-0.0055344980 0.0223833695 -0.0005627517
-0.0045049582 0.0224911124 -0.0006044004
0.0170803946 0.0193909332 -0.0024160240
0.0270722695 0.0234216824 0.0109682586
-0.0168620329 0.0228715613 0.0129985567
-0.0035276727 0.0155536830 -0.0011692215
-0.0106220003 0.0182961226 -0.0005360711
0.0205491781 0.0220423639 -0.0035873447
0.0276151244 0.0239564516 0.0108745601
0.0270725228 0.0239685699 0.0109682586
0.0281573534 0.0239485689 0.0108120944
0.0245214105 0.0236333832 0.0094611701
0.0241356194 0.0223274529 0.0087193307
-0.0106507819 0.0216923803 -0.0005809609
0.0125294821 0.0204166099 -0.0021720175
-0.0174626876 0.0247395039 0.0121239778
-0.0179201718 0.0247014686 0.0117803868
-0.0164430346 0.0246615633 0.0116554406
0.0212142132 0.0212211758 -0.0023795832
0.0084985513 0.0226062536 -0.0016195271
0.0095024295 0.0223404653 -0.0017054100
-0.0106451642 0.0193065703 -0.0005009342
0.0221131332 0.0214523077 0.0025816094
-0.0189753603 0.0234534144 0.0140605476
-0.0184972938 0.0232408270 0.0135295596
-0.0153942946 0.0211586133 0.0053771641
-0.0172126684 0.0195540823 -0.0013852660
0.0024570546 0.0223267451 -0.0011031050
-0.0157827903 0.0231267028 0.0105934497
0.0044666585 0.0223108679 -0.0012778807
0.0211381111 0.0209882483 -0.0032749940
0.0257147532 0.0231480896 0.0109682586
0.0262576621 0.0234232470 0.0109821614
0.0230953842 0.0224868730 0.0078343358
-0.0096078459 0.0223076716 -0.0003605206
-0.0035033540 0.0224131346 -0.0006739665
-0.0026214586 0.0225544199 -0.0007199664
-0.0016648507 0.0224336125 -0.0007957090
-0.0006335357 0.0224110782 -0.0008835513
0.0003813228 0.0226451792 -0.0009245444
0.0013207236 0.0224598907 -0.0009948257
0.0264515541 0.0240951665 0.0110396799
-0.0179563630 0.0243658125 0.0130860116
-0.0124705043 0.0195897743 -0.0016195271
-0.0119255651 0.0195728838 -0.0017132331
-0.0116538573 0.0193111300 -0.0005751122
-0.0152556952 0.0199380666 -0.0010572914
0.0241313968 0.0236910209 0.0088755097
0.0094462149 0.0204310194 -0.0018804614
0.0105027184 0.0204285234 -0.0019741599
0.0113558173 0.0207101628 -0.0020255838
0.0204048660 0.0215825588 -0.0052532200
-0.0140125621 0.0240123048 0.0060174819
0.0125832725 0.0213408135 -0.0021097008
-0.0168931168 0.0244541205 0.0121552106
0.0084918402 0.0228582993 -0.0015882943
0.0091154315 0.0228496194 -0.0016195271
0.0085014850 0.0100237448 -0.0180804897
0.0214768089 0.0219677687 0.0026128422
-0.0191770811 0.0245548934 0.0137482043
-0.0189680066 0.0240166038 0.0140136983
0.0277511422 0.0242320150 0.0108901765
0.0283396039 0.0243258141 0.0109057929
0.0124882199 0.0226625651 -0.0019318778
0.0133976610 0.0226889104 -0.0020047594
-0.0137686860 0.0224586688 0.0053459238
0.0034308101 0.0229637176 -0.0011197645
0.0113024637 0.0194451809 -0.0021290723
-0.0196162183 0.0234819278 0.0142167266
0.0284291077 0.0216544792 0.0110307392
0.0203657858 0.0219101943 -0.0045868773
0.0249130037 0.0239943899 0.0101405289
0.0265289098 0.0245426670 0.0111660864
0.0273896959 0.0244290158 0.0109994914
0.0281593315 0.0245165229 0.0109682586
0.0281305145 0.0136524849 -0.0228126291
0.0217906982 0.0233536735 0.0073137488
-0.0105901193 0.0231006071 -0.0004294533
-0.0094826315 0.0231073946 -0.0002568904
-0.0085678715 0.0230889618 -0.0002972353
-0.0076426398 0.0230648145 -0.0003818292
-0.0065919589 0.0230391696 -0.0004677270
-0.0055547599 0.0230188444 -0.0005184803
-0.0045195539 0.0229984522 -0.0005731378
-0.0035428682 0.0229975991 -0.0006244797
0.0255794656 0.0239620470 0.0109214094
-0.0185422916 0.0242551677 0.0133317318
-0.0058168937 0.0164971836 -0.0010017697
0.0074866023 0.0228774473 -0.0015024040
-0.0140344296 0.0244198926 0.0060643386
-0.0177225154 0.0225092843 0.0134202298
-0.0149803292 0.0225508213 0.0081883278
0.0154645918 0.0223629400 -0.0022208262
0.0164432526 0.0223584399 -0.0022247303
0.0170513876 0.0223608427 -0.0021895710
-0.0205831584 0.0243782215 0.0144171622
0.0084863324 0.0231094696 -0.0015648697
0.0094857793 0.0230937377 -0.0016273353
0.0104808807 0.0230806135 -0.0016741920
0.0114803724 0.0230613723 -0.0017678980
-0.0160546619 0.0240610614 0.0113743301
0.0103592593 0.0133213028 -0.0022169221
-0.0162478518 0.0211047307 0.0001921114
0.0203556791 0.0231856704 0.0021443125
-0.0146432761 0.0208182111 0.0024098139
-0.0128294956 0.0203778744 0.0009729918
0.0219543464 0.0219307169 0.0033468734
0.0054801740 0.0222906545 -0.0013676751
-0.0165449139 0.0224772505 0.0120614972
0.0289772749 0.0218276531 0.0113430824
0.0203291401 0.0222351141 -0.0039621685
0.0265286509 0.0248312950 0.0112702008
0.0274809338 0.0248093046 0.0111088213
0.0282960553 0.0247990862 0.0110307392
-0.0105989296 0.0234816447 -0.0004200954
-0.0094991457 0.0234922729 -0.0002217535
-0.0085827541 0.0234728977 -0.0002660025
-0.0076559950 0.0234476775 -0.0003545079
-0.0066048708 0.0234214701 -0.0004403982
-0.0055640545 0.0233990550 -0.0005028713
-0.0045306254 0.0233793259 -0.0005497206
-0.0035020781 0.0233611688 -0.0005887691
-0.0025200674 0.0232312717 -0.0006646309
-0.0016355681 0.0231766552 -0.0007271040
-0.0006614307 0.0231737867 -0.0007996131
0.0237420909 0.0241653919 0.0084069725
-0.0202867445 0.0255395398 0.0135295596
-0.0198397432 0.0253876001 0.0135139283
0.0074808020 0.0231289044 -0.0014789645
-0.0140181538 0.0246784315 0.0060018655
-0.0116221402 0.0176714621 -0.0006121937
-0.0105892848 0.0223549902 -0.0004835594
-0.0188798774 0.0250866115 0.0124519374
0.0135430302 0.0222142637 -0.0021099243
0.0144739579 0.0226264633 -0.0021231864
-0.0167567004 0.0193149783 -0.0012004543
0.0103687309 0.0142926797 -0.0023067165
0.0224163681 0.0218370296 0.0046899896
0.0200834796 0.0238679200 0.0024566706
0.0207994301 0.0208138414 -0.0037122909
0.0213242695 0.0206320249 -0.0036060829
-0.0192358103 0.0253794827 0.0124883857
0.0265276637 0.0251483768 0.0115721431
0.0274814963 0.0250977539 0.0112103280
0.0284336638 0.0250893608 0.0111452695
-0.0045530330 0.0174102373 -0.0010781158
0.0113189975 0.0185768194 -0.0022208262
0.0123119904 0.0185620524 -0.0023223329
-0.0035092549 0.0236150213 -0.0005731452
-0.0075856987 0.0215348676 -0.0005067680
-0.0202694032 0.0258149840 0.0134670790
-0.0198208969 0.0257468298 0.0130297896
-0.0137146814 0.0201543793 -0.0007199515
0.0245259386 0.0244078226 0.0091956612
-0.0096364375 0.0060102046 -0.0141292382
-0.0176508855 0.0231395066 0.0131807532
-0.0045496728 0.0238899551 -0.0005028713
0.0146376723 0.0231011249 -0.0020693187
0.0154812578 0.0232201330 -0.0020880643
0.0164310541 0.0232330002 -0.0021271054
0.0170413591 0.0232331678 -0.0021088738
-0.0085927527 0.0237290822 -0.0002451781
0.0196560286 0.0213582516 -0.0037357155
0.0204325505 0.0211874917 -0.0036342014
-0.0115307327 0.0183363371 -0.0028533209
0.0266646594 0.0253974795 0.0113899466
0.0274821874 0.0253822431 0.0112806167
-0.0055738706 0.0236545578 -0.0004794467
-0.0106127877 0.0239910111 -0.0004013572
-0.0095213410 0.0240061209 -0.0001748968
-0.0086028222 0.0239854380 -0.0002243537
-0.0076724421 0.0239579827 -0.0003232602
-0.0066207964 0.0239310265 -0.0004091654
-0.0055794660 0.0239079744 -0.0004716385
-0.0035205164 0.0238712877 -0.0005419124
0.0114924302 0.0226804353 -0.0018420760
-0.0205548089 0.0262137279 0.0142479595
0.0241338983 0.0243456066 0.0087427553
0.0194571055 0.0225305296 -0.0053365175
-0.0140351001 0.0250843242 0.0060330983
0.0155650377 0.0237396061 -0.0020568240
0.0164255165 0.0237313658 -0.0020880569
0.0170350559 0.0237334482 -0.0020568240
0.0245272554 0.0252047107 0.0091019627
-0.0076618735 0.0237016380 -0.0003466923
0.0196618009 0.0236304961 -0.0009948257
-0.0192135107 0.0258925855 0.0121239629
-0.0186062735 0.0258703791 0.0120406654
-0.0188775454 0.0263236016 0.0132172015
0.0228963885 0.0219737813 0.0058144536
0.0104695484 0.0235842131 -0.0016169194
-0.0116384197 0.0183030665 -0.0005848724
-0.0206609722 0.0265417024 0.0145290848
0.0074606482 0.0238865986 -0.0013930742
-0.0140521694 0.0254905298 0.0060643386
-0.0180197675 0.0261353925 0.0119990315
-0.0168731939 0.0263965540 0.0119990315
0.0164216682 0.0239825509 -0.0020568240
0.0170341060 0.0239800513 -0.0020568240
0.0245260354 0.0256178901 0.0091566201
0.0201216117 0.0230917037 -0.0003857408
0.0195071232 0.0226929821 -0.0024004076
0.0226317197 0.0217268541 0.0059393924
-0.0095345061 0.0243902653 -0.0001514722
-0.0095102135 0.0237491056 -0.0001983289
0.0084662400 0.0239905640 -0.0014789719
0.0194533318 0.0244758129 0.0023518037
0.0201422926 0.0241977945 0.0025269445
0.0274394322 0.0260022879 0.0117595550
0.0283040926 0.0259922445 0.0116866734
0.0074534360 0.0241399556 -0.0013618339
-0.0140464250 0.0257536545 0.0060330983
-0.0137974378 0.0182344168 -0.0007824320
0.0143776331 0.0235080197 -0.0019915123
0.0165431611 0.0242287405 -0.0020568240
0.0245256238 0.0258905329 0.0091722365
0.0153162321 0.0236847550 -0.0020177756
0.0197070036 0.0232804120 -0.0017132331
0.0034665822 0.0215784013 -0.0012368951
-0.0106108394 0.0237385109 -0.0003951062
-0.0066083577 0.0236739367 -0.0004403982
-0.0045380164 0.0236334354 -0.0005341042
-0.0023911165 0.0236750469 -0.0006460417
-0.0015813484 0.0237029791 -0.0006772745
-0.0006808208 0.0236836821 -0.0007410515
0.0230900850 0.0246365964 0.0079384502
-0.0135838222 0.0253969617 0.0054708701
0.0074461978 0.0243935287 -0.0013306011
-0.0198051576 0.0250597633 0.0142635759
-0.0194489155 0.0270751342 0.0144041386
0.0241340678 0.0254167728 0.0087037142
0.0020359850 0.0227400288 -0.0010260586
-0.0175224226 0.0262389481 0.0118012037
0.0266646445 0.0256746262 0.0114055630
0.0274840984 0.0257114172 0.0116554406
0.0284359120 0.0255242214 0.0113066491
0.0054999050 0.0212894492 -0.0014321003
-0.0106532695 0.0250170454 -0.0003263969
-0.0095526110 0.0247770958 -0.0001124311
-0.0084879231 0.0244936794 -0.0002035145
0.0217868462 0.0244246721 0.0073684063
-0.0205866080 0.0252770707 0.0142657962
-0.0064858329 0.0203651935 -0.0007241312
-0.0014675147 0.0244349763 -0.0006200243
0.0193750709 0.0231839232 -0.0041183475
-0.0142105091 0.0263629965 0.0065016281
-0.0140407588 0.0260167420 0.0060018655
0.0154294902 0.0243725106 -0.0019553248
0.0163730234 0.0245675743 -0.0019978154
0.0170268323 0.0244830661 -0.0019943584
-0.0059239659 0.0155335367 -0.0010135639
0.0191571228 0.0239032730 -0.0008386467
-0.0178927910 0.0271236748 0.0115773436
-0.0162277389 0.0270501003 0.0117491540
0.0016740226 0.0221144930 -0.0010650996
0.0034482407 0.0223328024 -0.0011783261
-0.0106335822 0.0245040655 -0.0003617797
-0.0075599160 0.0244667977 -0.0002937559
-0.0066376794 0.0244416371 -0.0003753323
-0.0056022536 0.0244214535 -0.0004143734
-0.0045675654 0.0244006068 -0.0004612375
-0.0035397892 0.0243825912 -0.0004924703
0.0104909521 0.0227019191 -0.0017288569
0.0043806396 0.0249768719 -0.0009557772
-0.0196607728 0.0267609507 0.0141854938
0.0064195003 0.0249244049 -0.0011744294
-0.0141017940 0.0265775248 0.0061580446
0.0205559693 0.0224415064 -0.0015102122
-0.0197532307 0.0244550407 0.0143238362
-0.0137985181 0.0193214156 -0.0007449556
0.0164785050 0.0187749676 -0.0024784971
0.0262524839 0.0254936144 0.0120614972
-0.0179643128 0.0273777917 0.0109370258
-0.0196414832 0.0263802633 0.0135217514
0.0123957768 0.0194459185 -0.0022524614
-0.0120547144 0.0257145017 0.0007543471
-0.0104988236 0.0255683362 -0.0000265334
-0.0106579904 0.0253811330 -0.0002295692
-0.0085208770 0.0252658799 -0.0001332406
-0.0075501297 0.0252673924 -0.0001920704
-0.0066433009 0.0251934975 -0.0002707187
-0.0159547906 0.0273367763 0.0109057929
0.0074292924 0.0250272080 -0.0012603197
-0.0140653383 0.0268258750 0.0060330983
0.0144411819 0.0243861824 -0.0018967632
-0.0212819483 0.0253244787 0.0143479165
0.0154170906 0.0251280963 -0.0018655006
0.0164048783 0.0251143277 -0.0019240696
0.0170203447 0.0251080021 -0.0019475017
-0.0154937124 0.0257547572 0.0023161080
0.0084525682 0.0202439167 -0.0018027890
0.0027100930 0.0230607688 -0.0010676999
0.0034678972 0.0234185234 -0.0010760296
-0.0106330942 0.0258253291 -0.0000265334
0.0223015007 0.0238131359 0.0077718552
0.0074389316 0.0246473104 -0.0012993682
-0.0194924045 0.0276630968 0.0144978520
0.0114666587 0.0235677771 -0.0016871933
0.0241312198 0.0261066593 0.0088130292
0.0223657470 0.0244341269 0.0076621231
0.0003561025 0.0234066769 -0.0008484144
0.0013738872 0.0233892240 -0.0008972157
0.0023262149 0.0234366506 -0.0009707976
0.0031544773 0.0237282030 -0.0010260586
-0.0158896688 0.0277194008 0.0106871482
0.0276242066 0.0262928382 0.0123191979
0.0154125690 0.0255038217 -0.0018381719
0.0170148164 0.0254864618 -0.0019006450
-0.0111294864 0.0242615677 -0.0012212787
-0.0153084565 0.0262099355 0.0002545845
-0.0113275815 0.0261118487 0.0000984054
-0.0106475595 0.0260853134 0.0000046995
-0.0096001197 0.0260626487 -0.0000265334
-0.0086943563 0.0260477141 -0.0000265334
0.0228243470 0.0241064504 0.0079696830
0.0236130282 0.0246787332 0.0082403924
0.0064393356 0.0242885910 -0.0012564082
-0.0111258654 0.0232598893 -0.0011822376
0.0134655591 0.0234000757 -0.0019162837
-0.0142093208 0.0274297148 0.0064391550
0.0242593065 0.0264837220 0.0090707298
-0.0157708619 0.0266789459 0.0015352275
-0.0156102087 0.0264151022 0.0023577567
-0.0112732220 0.0256440341 -0.0004482064
-0.0133521166 0.0233190097 0.0048617776
-0.0113422815 0.0263723955 0.0001296457
-0.0187061597 0.0224573277 0.0092399176
0.0043606088 0.0254901126 -0.0008776952
-0.0111417677 0.0216411576 -0.0010572914
-0.0015492457 0.0252901241 -0.0005151499
0.0066423174 0.0259376988 -0.0010729078
-0.0143278670 0.0277566463 0.0067827459
0.0144257350 0.0253910720 -0.0018010978
-0.0173260476 0.0272339806 0.0082820412
-0.0159649383 0.0284473374 0.0108745601
0.0154054780 0.0260071084 -0.0017913226
0.0163911041 0.0259984881 -0.0018147472
0.0170074012 0.0259918794 -0.0018381719
-0.0155418981 0.0268282145 0.0008792859
-0.0111448187 0.0250190496 -0.0012134705
0.0202183872 0.0265527293 0.0037425142
0.0236124620 0.0224145502 0.0083340909
-0.0134043116 0.0237351432 0.0050023403
0.0154942181 0.0193974189 -0.0024043191
0.0096161254 0.0228405222 -0.0016611759
0.0023180696 0.0254129693 -0.0007059146
-0.0174450073 0.0275503770 0.0094221290
0.0203859974 0.0235587731 0.0039403420
0.0216572825 0.0262699425 0.0072356518
0.0114511447 0.0244464092 -0.0016117040
0.0216847770 0.0253921673 0.0072450247
-0.0145600718 0.0281434692 0.0074699279
-0.0056519415 0.0253273174 -0.0002803002
0.0118978843 0.0211710557 -0.0020568240
0.0074146073 0.0255360603 -0.0011978466
-0.0115292501 0.0262134112 -0.0000889990
-0.0152906375 0.0269640982 0.0001608785
0.0202589519 0.0269028321 0.0037685540
0.0202428792 0.0272093602 0.0040496644
0.0228246450 0.0238391608 0.0079696830
0.0235340409 0.0234750137 0.0083980467
-0.0134814177 0.0244270265 0.0052053686
0.0074714143 0.0235069916 -0.0014399160
0.0084786564 0.0234860256 -0.0015336443
0.0015174338 0.0263281167 -0.0005445201
0.0197533518 0.0266229510 0.0036357995
0.0195652321 0.0232952237 -0.0033374671
0.0170036741 0.0262449197 -0.0018069390
0.0244364757 0.0273370892 0.0095845517
0.0013572910 0.0253931060 -0.0006713364
0.0224739742 0.0253220722 0.0076551046
0.0230915584 0.0250288248 0.0078759845
0.0013402739 0.0244066752 -0.0007918049
0.0023577998 0.0243881494 -0.0008445103
0.0033838490 0.0243618973 -0.0009518806
0.0042997971 0.0245641172 -0.0010026339
0.0195860639 0.0227526203 -0.0048888195
-0.0174513701 0.0289204828 0.0101873782
-0.0181644093 0.0246889368 0.0116554406
0.0169972703 0.0265034623 -0.0017444659
-0.0164301451 0.0289574824 0.0105309691
-0.0155191068 0.0273284763 0.0007855799
0.0202422403 0.0274696946 0.0040496644
0.0154105937 0.0257528275 -0.0018303636
0.0163973831 0.0256186128 -0.0018655080
0.0170111153 0.0257390589 -0.0018694121
-0.0163706560 0.0284776390 0.0114524122
-0.0025916060 0.0262911581 -0.0003154520
0.0016248935 0.0268407874 -0.0004846472
-0.0151987877 0.0287358686 0.0076885726
-0.0148375090 0.0286870413 0.0074386802
-0.0138367619 0.0281739794 0.0060955714
-0.0173764881 0.0292965062 0.0107808467
0.0063516423 0.0269722119 -0.0008933116
-0.0055792760 0.0263633132 -0.0001336057
-0.0184352081 0.0253539719 0.0115742292
0.0169935171 0.0267570168 -0.0017132331
-0.0168152917 0.0292200670 0.0103904065
-0.0175073538 0.0276162252 0.0115037169
-0.0157445017 0.0275702998 0.0006606411
0.0195263140 0.0273660719 0.0024098139
0.0199208818 0.0275361612 0.0029095765
-0.0095726084 0.0254176036 -0.0000811759
-0.0121692289 0.0261529163 0.0010823216
0.0054224674 0.0243137330 -0.0011470933
-0.0026266405 0.0270672180 -0.0002178494
0.0124164680 0.0264397077 -0.0015355740
0.0134128705 0.0264212787 -0.0016077999
0.0144089395 0.0264007077 -0.0016956422
0.0153967571 0.0265138596 -0.0017288346
0.0163824689 0.0265063494 -0.0017444510
-0.0169289131 0.0290022790 0.0115929600
0.0216974653 0.0272565112 0.0072877165
-0.0165175553 0.0253288187 0.0114172753
0.0124347378 0.0254297405 -0.0016312245
0.0134330448 0.0254078358 -0.0017307792
0.0063437112 0.0272286013 -0.0008620787
-0.0106517356 0.0264666304 -0.0000031162
-0.0026467869 0.0274577737 -0.0001592804
0.0169897527 0.0270107985 -0.0016820002
-0.0137316491 0.0285171047 0.0057519805
-0.0075014178 0.0257598758 -0.0001202393
-0.0065828990 0.0257360823 -0.0001827050
-0.0112749655 0.0276016518 -0.0001514722
-0.0159039032 0.0277719907 0.0018475782
0.0033390822 0.0253905430 -0.0007800926
0.0104110874 0.0263193101 -0.0013967026
-0.0164718535 0.0262215137 0.0116643514
0.0242418516 0.0289841220 0.0098281857
-0.0175061096 0.0290146619 0.0116007831
0.0104725994 0.0254142433 -0.0014767293
0.0114352489 0.0254505426 -0.0015414301
-0.0046151374 0.0253051892 -0.0003291238
-0.0163176823 0.0277027562 0.0045650434
0.0221695006 0.0263350420 0.0076612290
0.0215565432 0.0283956826 0.0064079221
0.0063357521 0.0274852104 -0.0008308385
0.0045065936 0.0241133608 -0.0010807160
-0.0026582924 0.0277171135 -0.0001280475
-0.0051833335 0.0270892754 -0.0000577588
-0.0184484255 0.0267066993 0.0126549657
0.0169859752 0.0272648036 -0.0016507674
0.0197150651 0.0271886736 -0.0020255838
-0.0085446332 0.0257823877 -0.0000811908
-0.0113102365 0.0278737880 -0.0000577662
0.0093873329 0.0271476880 -0.0011718217
-0.0182930771 0.0271871015 0.0114836451
0.0153857842 0.0271484256 -0.0016507674
0.0163724646 0.0271406956 -0.0016663838
0.0198663883 0.0274617523 -0.0004638229
-0.0038347819 0.0277520493 -0.0000265334
0.0223625917 0.0283119529 0.0083549228
0.0220352188 0.0286014974 0.0076052751
0.0004573354 0.0272527114 -0.0003740434
-0.0133628193 0.0272682235 0.0046899822
0.0052771103 0.0254030153 -0.0009766091
0.0060122572 0.0257009119 -0.0010260586
0.0063277688 0.0277420506 -0.0007996056
-0.0025466268 0.0279780775 -0.0000785831
-0.0016415174 0.0279564410 -0.0001280475
0.0003447404 0.0244009718 -0.0007345472
0.0094120856 0.0262533911 -0.0012895931
0.0199068673 0.0275908932 -0.0011509974
-0.0064876284 0.0263194926 -0.0000967998
0.0197874922 0.0271649882 0.0034655686
0.0202234574 0.0277389809 0.0035967585
-0.0169025343 0.0282830894 0.0001608785
-0.0159072261 0.0279056430 0.0010979380
0.0095253866 0.0235460289 -0.0015820507
0.0024813248 0.0264705792 -0.0005954746
0.0084581785 0.0271699801 -0.0010885242
-0.0175044108 0.0283456594 0.0115377065
0.0196386185 0.0276526436 -0.0008074138
-0.0166691858 0.0274658352 0.0063766893
0.0044235643 0.0274102017 -0.0006538574
0.0053218249 0.0273825601 -0.0007586200
-0.0036389360 0.0272972807 -0.0001224522
0.0217671618 0.0283484831 0.0076885726
-0.0016090794 0.0273052864 -0.0002256278
-0.0005743558 0.0272787139 -0.0002998356
0.0220614113 0.0290146843 0.0069076847
-0.0175979827 0.0252768584 0.0114560183
-0.0165502448 0.0290781930 0.0071419533
-0.0156492162 0.0292773880 0.0076156761
-0.0148933176 0.0291840434 0.0071575698
-0.0016546136 0.0282174274 -0.0000889990
0.0004762115 0.0254855566 -0.0006044079
-0.0126662981 0.0276967660 0.0033468734
-0.0045022983 0.0281577259 0.0000515413
-0.0023853125 0.0190986246 -0.0010650996
0.0163647216 0.0276485272 -0.0016078223
-0.0124827158 0.0281180963 0.0027534049
-0.0127439667 0.0281895734 0.0031438377
0.0244757161 0.0282249488 0.0097144004
0.0083535742 0.0279432684 -0.0009714011
0.0186216533 0.0279720351 -0.0004430059
0.0192304738 0.0280025378 -0.0002607945
-0.0165324602 0.0280711278 0.0051585119
-0.0168662835 0.0285437629 0.0066161584
0.0124483798 0.0244281441 -0.0016917381
0.0215148721 0.0285642967 0.0043620151
0.0214712042 0.0284781530 0.0053615402
0.0218071472 0.0287100673 0.0066890400
0.0224072486 0.0290765166 0.0075636115
0.0220682267 0.0292479172 0.0067202728
-0.0095941778 0.0265599675 0.0000416096
-0.0096751805 0.0273039825 0.0001478773
-0.0018034688 0.0284867287 -0.0000161175
0.0195387881 0.0280802995 -0.0012134705
0.0200224780 0.0277403109 0.0011291709
-0.0169574786 0.0290763602 0.0017226394
-0.0154763851 0.0290382579 0.0016914066
-0.0151962060 0.0289694369 0.0028158706
-0.0155197661 0.0290036872 0.0029720496
-0.0147256460 0.0291935354 0.0033937301
-0.0148846898 0.0290852450 0.0042683091
-0.0147933485 0.0295387805 0.0055906009
0.0186410546 0.0281704292 -0.0007345323
0.0191477761 0.0281383321 -0.0009011198
0.0209359489 0.0288362205 0.0029720496
-0.0085964520 0.0265675783 0.0000489485
-0.0085127931 0.0260398649 -0.0000577588
-0.0074345078 0.0261049718 -0.0000733901
-0.0076043103 0.0265960842 0.0000109430
-0.0167291667 0.0285678096 0.0049086343
0.0222396385 0.0273692161 0.0077128764
0.0221748836 0.0296334475 0.0073762145
-0.0111383414 0.0222648978 -0.0010963324
-0.0110303145 0.0273523554 -0.0000890065
-0.0146927852 0.0288271159 0.0005981755
-0.0123345982 0.0287838727 0.0006294083
-0.0025398338 0.0242875665 -0.0005642418
-0.0035068837 0.0284227580 0.0000526141
0.0114187738 0.0264576375 -0.0014691968
-0.0171970297 0.0289283097 0.0119677987
-0.0174306910 0.0291853696 0.0053042825
-0.0166620631 0.0292617641 0.0050648060
-0.0153921377 0.0291209817 0.0064204242
-0.0066491272 0.0267816409 -0.0000057090
-0.0046451632 0.0263175294 -0.0001743529
0.0217666794 0.0299482122 0.0076260921
0.0220320299 0.0299476981 0.0076260921
0.0063020848 0.0264017470 -0.0009635929
0.0070839152 0.0266104378 -0.0010156501
-0.0191410873 0.0261415988 0.0119053181
0.0193522181 0.0240207538 -0.0000265334
0.0043260884 0.0263900161 -0.0007449556
-0.0024839842 0.0290310495 0.0001218375
-0.0015732589 0.0290055126 0.0000567567
-0.0158341434 0.0271270052 0.0027013477
0.0203673672 0.0282242745 0.0017070230
-0.0122641381 0.0272273906 0.0021286961
-0.0056718495 0.0290518217 0.0002358463
-0.0168414209 0.0274219736 0.0122801419
0.0197790377 0.0282251313 -0.0031188224
0.0200832263 0.0278063416 0.0000671726
-0.0045323167 0.0276560038 -0.0000131521
0.0217712782 0.0301937051 0.0075011607
0.0220254622 0.0302454717 0.0077822711
-0.0024975666 0.0292934477 0.0001608785
-0.0015895980 0.0292700939 0.0001088213
0.0210591909 0.0291366503 0.0004419964
-0.0115128998 0.0266486034 0.0002389606
0.0204053968 0.0280032977 0.0033781063
-0.0162060242 0.0290792473 0.0003795307
-0.0155651178 0.0290088132 0.0000671726
-0.0143691795 0.0290445089 0.0004107635
-0.0131546687 0.0293275677 0.0006918814
-0.0123727191 0.0289887562 0.0003326740
0.0204568245 0.0284461081 0.0008168202
-0.0116818976 0.0288865119 -0.0029314104
-0.0167347845 0.0285769626 0.0018788185
0.0064651519 0.0232783854 -0.0013559628
0.0004944263 0.0263492540 -0.0004898626
-0.0066459831 0.0291317478 0.0003014486
0.0073220972 0.0283616483 -0.0007957090
0.0083353352 0.0284612402 -0.0008855034
0.0092999022 0.0284826532 -0.0009948257
-0.0169119705 0.0283304900 0.0122254845
0.0193227492 0.0278419405 0.0002545845
0.0217771530 0.0304328986 0.0073449817
0.0220298246 0.0304911397 0.0076573249
0.0124192527 0.0274326876 -0.0014112759
0.0215408430 0.0294662789 0.0008480530
0.0213355236 0.0292826369 -0.0001202393
-0.0151807163 0.0258979276 -0.0000889990
-0.0121421684 0.0297643095 0.0003795233
-0.0166404340 0.0283954442 0.0035108533
0.0207434781 0.0291219987 0.0017226394
-0.0116768014 0.0291308835 -0.0029626433
-0.0165212173 0.0292034596 0.0024931114
-0.0163386408 0.0292268209 0.0041433629
-0.0160613302 0.0291586742 0.0053146910
-0.0146999005 0.0290879346 0.0063989963
0.0063338280 0.0283590034 -0.0007262174
0.0212852452 0.0295708030 0.0027534049
-0.0160573702 0.0260210373 0.0031438377
-0.0005826036 0.0244479813 -0.0006579477
-0.0055803228 0.0274745859 0.0000239294
-0.0172314737 0.0291515961 0.0043620151
-0.0153214503 0.0289779454 0.0043620151
-0.0148079563 0.0297004133 0.0040028077
-0.0172466058 0.0286840871 0.0087817963
-0.0105607342 0.0272439718 0.0000761058
0.0210846215 0.0290902704 0.0034197550
-0.0086463299 0.0273538530 0.0001713093
-0.0075622629 0.0274006799 0.0001251902
-0.0065536294 0.0274302885 0.0000749882
-0.0121992920 0.0300524607 0.0005357023
-0.0117566306 0.0284748971 -0.0003232677
-0.0106631415 0.0300414860 0.0006450247
0.0024304169 0.0292751826 -0.0002490524
0.0034232533 0.0293002054 -0.0003388766
0.0044858009 0.0293421075 -0.0004326049
0.0055063628 0.0293167122 -0.0005054791
0.0064941552 0.0293104872 -0.0006029774
-0.0045291055 0.0286804512 0.0001218524
-0.0152687859 0.0286406279 0.0087505635
-0.0148724560 0.0287102982 0.0083913561
0.0081859510 0.0275895223 -0.0009948257
0.0186840259 0.0286430791 -0.0048055220
-0.0113429036 0.0271321423 0.0000879895
-0.0123029454 0.0303692222 0.0008324292
-0.0174157154 0.0271768868 0.0121447947
0.0185964033 0.0286324099 -0.0035873447
0.0197244585 0.0287137330 -0.0035665277
0.0065085646 0.0298085958 -0.0005184878
0.0193173382 0.0282561630 -0.0047014002
0.0197076816 0.0277011506 -0.0019318778
0.0200764742 0.0276971981 -0.0019475017
0.0113677625 0.0282560065 -0.0011822302
-0.0166318174 0.0295300409 -0.0027752314
-0.0076935906 0.0283036605 0.0002702158
-0.0066017378 0.0283442102 0.0001921337
-0.0055351127 0.0284213200 0.0001504924
-0.0126609225 0.0292864591 -0.0015570614
-0.0119368937 0.0291745365 -0.0014008824
-0.0045706946 0.0293409228 0.0002389830
0.0003186783 0.0301278792 0.0000749733
0.0054788981 0.0300958008 -0.0004013572
0.0064977389 0.0300706849 -0.0004716385
0.0075218696 0.0300369114 -0.0005887691
0.0093037728 0.0299827307 -0.0007761810
-0.0035105010 0.0294200256 0.0002067070
-0.0025171188 0.0296868458 0.0002155509
-0.0165264513 0.0284554400 -0.0002764110
-0.0114775207 0.0283443630 0.0002988335
-0.0105218645 0.0283058211 0.0003034007
-0.0095174145 0.0283184685 0.0003358033
-0.0086091924 0.0282398649 0.0002954435
-0.0126496535 0.0287031531 0.0015977006
0.0195996035 0.0292207822 -0.0045938212
0.0133903902 0.0274413303 -0.0014672447
0.0143858083 0.0274235532 -0.0015336219
0.0153742144 0.0276620239 -0.0015609730
0.0084826779 0.0301548876 -0.0006735567
0.0094233286 0.0302378088 -0.0007553566
