# .PCD v0.7 - Point Cloud Data file format
VERSION 0.7
FIELDS x y z
SIZE 4 4 4
TYPE F F F
COUNT 1 1 1
WIDTH 1183
HEIGHT 1
VIEWPOINT 0 0 0 1 0 0 0
POINTS 1183
DATA ascii
0.0274213813 0.0064658187 -0.0237944592
0.0269089229 0.0064809062 -0.0230760593
-0.0166836083 0.0066416003 -0.0215767641
0.0020390209 0.0065403599 -0.0223014150
-0.0122177228 0.0015939847 -0.0076614711
0.0290092491 0.0042367466 -0.0261620972
0.0210807621 0.0064819604 -0.0231447686
0.0200694147 0.0064794719 -0.0233071838
0.0220035184 0.0064805560 -0.0231775735
0.0229300428 0.0064772405 -0.0233071987
0.0239395313 0.0064835511 -0.0229823384
0.0249642599 0.0064822603 -0.0230260808
0.0259880498 0.0064817723 -0.0230385754
-0.0248378515 0.0068933107 -0.0223420206
-0.0242065713 0.0068963990 -0.0219828207
-0.0227154046 0.0068919212 -0.0217017028
-0.0223503709 0.0068887398 -0.0217329357
-0.0207981914 0.0068762358 -0.0218266416
-0.0200527571 0.0068637468 -0.0221780408
-0.0188093111 0.0068562813 -0.0221494008
-0.0180108026 0.0068564396 -0.0219078604
-0.0000051278 0.0066377129 -0.0224235822
-0.0225859396 0.0035885498 -0.0132994298
-0.0223737247 0.0035851561 -0.0129558388
0.0269088130 0.0066857766 -0.0230682436
-0.0166919194 0.0068557952 -0.0215611402
-0.0020570103 0.0036161244 -0.0204210598
0.0023071859 0.0035916250 -0.0182033498
0.0150901694 0.0058795810 -0.0228111837
0.0302540865 0.0038282406 -0.0241692830
0.0317467898 0.0042343568 -0.0247471351
0.0200672857 0.0066843871 -0.0232822020
0.0210802015 0.0066867433 -0.0231385250
0.0219998360 0.0066865422 -0.0231150929
0.0229289997 0.0066819191 -0.0232884455
0.0239385385 0.0066890344 -0.0229573566
0.0249642972 0.0066869166 -0.0230323244
0.0259877648 0.0066869743 -0.0230198298
-0.0248395912 0.0071081985 -0.0223420206
-0.0241973326 0.0071112178 -0.0220036451
-0.0225314461 0.0071082115 -0.0216079969
-0.0231862143 0.0068404358 -0.0213670451
-0.0222670957 0.0071048494 -0.0216704700
-0.0208150484 0.0070916414 -0.0217954088
-0.0200581066 0.0070775766 -0.0221702326
-0.0188108087 0.0070695765 -0.0221494008
-0.0180209726 0.0070704855 -0.0218891222
-0.0225288793 0.0035778098 -0.0120812524
0.0140682105 0.0058800131 -0.0228873882
-0.0036077872 0.0016139839 -0.0084267352
0.0329842120 0.0049416386 -0.0242375974
-0.0039972700 0.0059382617 -0.0221189950
0.0080328640 0.0036058519 -0.0206084717
-0.0071526505 0.0036214646 -0.0201711748
0.0150857344 0.0067027211 -0.0227865968
0.0279145855 0.0049280468 -0.0241751317
0.0200656522 0.0068892669 -0.0232634638
0.0210767593 0.0068926737 -0.0230885465
0.0220722053 0.0069047436 -0.0225762893
0.0230299644 0.0068867858 -0.0232634638
0.0239375364 0.0068944842 -0.0229386184
0.0249660295 0.0068899915 -0.0231010411
0.0259878896 0.0068914853 -0.0230323244
0.0269092359 0.0068883356 -0.0231541414
0.0057208613 0.0002340470 -0.0062402729
0.0175411981 0.0042327773 -0.0225762893
0.0120085636 0.0061911624 -0.0229386184
-0.0250730105 0.0069566574 -0.0262870286
-0.0217810497 0.0059264135 -0.0209950004
0.0311137289 0.0066818856 -0.0250188876
-0.0211670958 0.0058779567 -0.0211550836
0.0329857245 0.0066615418 -0.0242317487
-0.0107102059 0.0074362773 -0.0143301878
-0.0150393061 0.0063098781 -0.0217173118
0.0310988575 0.0058728456 -0.0250438694
-0.0248414092 0.0073231086 -0.0223420206
-0.0241991282 0.0073265787 -0.0220036451
-0.0030024201 0.0059335455 -0.0222014654
0.0068685096 0.0005370602 -0.0044910926
-0.0019976664 0.0059282631 -0.0223313961
-0.0223878510 0.0026399568 -0.0121124936
-0.0208930969 0.0073108412 -0.0216392297
-0.0200748406 0.0072921440 -0.0221389998
-0.0189461000 0.0072849039 -0.0221077595
-0.0181398503 0.0072850995 -0.0218813065
0.0025313888 0.0073982142 -0.0135493074
0.0052776132 0.0074194577 -0.0124248434
-0.0031014346 0.0036117006 -0.0197338779
-0.0080768839 0.0029658992 -0.0162230451
0.0150812715 0.0071149729 -0.0227574501
0.0313649140 -0.0030629840 -0.0201265533
0.0310413819 0.0039851516 -0.0241623465
-0.0123039670 0.0040668473 -0.0215455238
0.0257500317 0.0042264052 -0.0211394671
-0.0083734766 0.0074067302 -0.0149861295
0.0130362697 0.0068066977 -0.0229058061
-0.0150026605 0.0048965327 -0.0216690619
-0.0139937401 0.0049497895 -0.0216949228
0.0199336223 0.0028744023 -0.0142052490
0.0215008873 0.0072840378 -0.0162355397
-0.0226603262 0.0029946249 -0.0110906530
0.0234896634 0.0072707832 -0.0166728292
0.0238517690 0.0072437450 -0.0176567379
-0.0030074064 0.0048877001 -0.0221749190
0.0020413622 0.0063320361 -0.0223076660
0.0090658944 0.0068202410 -0.0227340106
0.0099894200 0.0067450162 -0.0227949340
0.0098692328 0.0071318354 -0.0225762893
0.0229315180 0.0048437919 -0.0233222041
0.0096043814 0.0072711986 -0.0174537096
0.0283264387 0.0048367307 -0.0247939918
0.0291207768 0.0050147660 -0.0241859350
-0.0158160552 0.0049672648 -0.0216363911
0.0300644953 0.0048574731 -0.0240157116
-0.0208948106 0.0075258575 -0.0216392297
-0.0079949610 0.0049014427 -0.0221546162
-0.0070123635 0.0048986133 -0.0221602190
-0.0143886833 0.0036226586 -0.0189217646
-0.0130142234 0.0074674543 -0.0217563678
-0.0204252228 0.0031020232 -0.0117689027
-0.0120164789 0.0074614752 -0.0217454303
0.0273414124 0.0031953845 -0.0162980128
-0.0109896660 0.0074530896 -0.0218188334
0.0279271305 0.0033357609 -0.0157670099
0.0219814572 0.0022867117 -0.0127371941
-0.0077211708 0.0036219973 -0.0201295260
-0.0152317360 0.0072743632 -0.0215455238
-0.0139618712 0.0069243349 -0.0216980372
0.0310140457 0.0067369863 -0.0242701937
0.0187337287 0.0039202403 -0.0220609102
-0.0120313913 0.0069462974 -0.0218964759
0.0329860970 0.0070663914 -0.0242317561
0.0056291521 0.0074023604 -0.0130183119
0.0043182317 0.0038245525 -0.0211707000
-0.0130038261 0.0040680729 -0.0214705635
0.0259882361 0.0070956219 -0.0230573136
-0.0009486563 0.0068795681 -0.0223527122
0.0004945901 0.0034012068 -0.0204835255
0.0222572144 0.0078670830 -0.0038351584
0.0102883764 0.0075205248 -0.0162980054
0.0120996013 0.0075293649 -0.0158450995
-0.0003337804 0.0050456319 -0.0226137731
-0.0039687678 0.0036102589 -0.0194215346
-0.0146372281 0.0080686752 -0.0008365754
0.0150761642 0.0073219109 -0.0227199737
0.0220889039 0.0068972632 -0.0228730235
-0.0223002397 0.0073220506 -0.0216079969
-0.0212488919 0.0075354390 -0.0213893522
0.0329849124 0.0058520138 -0.0242348630
-0.0120101869 0.0062895417 -0.0220218692
-0.0109600648 0.0062821414 -0.0221608672
0.0198628362 0.0074589420 -0.0177973006
-0.0040341169 0.0069505833 -0.0221050400
0.0279271454 0.0062556081 -0.0241692830
0.0286942907 0.0061750170 -0.0248876978
-0.0113026164 0.0077040344 -0.0130183119
-0.0118048051 0.0077751428 -0.0106131975
-0.0163424015 0.0064259376 -0.0215767641
0.0059763584 0.0063176285 -0.0224435423
-0.0040466227 0.0077083055 -0.0115814898
0.0212425403 0.0073021464 -0.0155795980
0.0216558892 0.0073154476 -0.0150798354
-0.0009997524 0.0059232451 -0.0224544648
0.0039314311 0.0077094436 -0.0104570258
0.0243632272 0.0027420633 -0.0129402224
-0.0000269990 0.0059193466 -0.0225050766
0.0080452114 0.0067901798 -0.0226665083
0.0290864334 0.0058052391 -0.0241593365
-0.0248359777 0.0076450091 -0.0223576445
-0.0241620094 0.0076353773 -0.0219515879
-0.0237904377 0.0076863170 -0.0213518608
-0.0229757652 0.0076557901 -0.0214322973
-0.0218042247 0.0076716729 -0.0213018898
-0.0211042576 0.0077480860 -0.0214518178
-0.0199184529 0.0076000728 -0.0221251193
-0.0189632997 0.0076061264 -0.0220765341
-0.0183270164 0.0075871684 -0.0218266416
-0.0180442706 0.0075734388 -0.0211004261
-0.0167748407 0.0074958261 -0.0216392297
-0.0169873647 0.0075105801 -0.0211628918
-0.0089558885 0.0049040951 -0.0222164411
-0.0171422921 0.0078229979 -0.0179378558
-0.0157506987 0.0078222658 -0.0176411215
-0.0161185972 0.0075586811 -0.0192263145
-0.0225713514 0.0031078551 -0.0119875465
-0.0149532109 0.0075271167 -0.0200774688
-0.0138754398 0.0074783377 -0.0215663482
-0.0136287631 0.0077374820 -0.0199837629
-0.0138337426 0.0077708587 -0.0189217646
-0.0129448352 0.0078563672 -0.0159044433
-0.0102516189 0.0074431300 -0.0220140535
-0.0019909721 0.0050931443 -0.0223451424
-0.0149064958 0.0083263144 -0.0008287672
-0.0098361783 0.0026868656 -0.0154234264
-0.0132694468 0.0083244909 -0.0005866904
-0.0121646449 0.0082659163 -0.0023046304
-0.0247095004 0.0071596727 -0.0288233329
0.0027108938 0.0040387176 -0.0215767641
-0.0130092837 0.0038440842 -0.0197901074
-0.0176110715 0.0072901174 -0.0215455238
0.0273538753 0.0070370100 -0.0239610542
-0.0029747095 0.0079602357 -0.0107615683
-0.0029572956 0.0076887812 -0.0120916609
-0.0020193774 0.0079555176 -0.0107771847
-0.0009179897 0.0079466924 -0.0109099317
-0.0010648817 0.0076792408 -0.0121437255
-0.0000574104 0.0076670386 -0.0124248434
0.0010472983 0.0076697823 -0.0121812019
0.0020499844 0.0076668151 -0.0121541340
0.0031635668 0.0076691620 -0.0119354976
0.0247746017 0.0033356883 -0.0157357771
0.0031007212 0.0080305859 -0.0077083204
0.0027563199 0.0082471985 -0.0007897262
-0.0118897036 0.0079565346 -0.0123936031
0.0099504981 0.0071996860 -0.0200618524
0.0273195915 0.0050441567 -0.0237684269
-0.0066760629 0.0077112932 -0.0119094644
-0.0058506690 0.0077189393 -0.0115034077
-0.0049185120 0.0079855751 -0.0102321301
-0.0223020278 0.0075375848 -0.0216079969
0.0329867527 0.0072690789 -0.0242239479
0.0116660744 0.0075499956 -0.0151735414
-0.0109743671 0.0069009624 -0.0220732484
0.0127299111 0.0075818636 -0.0140022133
0.0130204707 0.0078428090 -0.0128152836
0.0080203544 0.0058943480 -0.0227049831
0.0230358802 0.0080764107 -0.0049596224
0.0279847607 0.0067895688 -0.0242072139
0.0287070423 0.0066024885 -0.0249501634
-0.0119939819 0.0078968555 -0.0143770371
-0.0158970095 0.0068700109 -0.0216704626
-0.0077169016 0.0079676770 -0.0112691391
-0.0073036440 0.0079719219 -0.0110609103
-0.0068996772 0.0080008637 -0.0100509692
-0.0060904957 0.0080004316 -0.0099338312
-0.0039040521 0.0079748370 -0.0104257930
0.0250419993 0.0074943602 -0.0234092344
0.0259886123 0.0075040367 -0.0230947901
0.0268079471 0.0074992981 -0.0232426468
-0.0010351613 0.0079611987 -0.0104570258
-0.0049692057 0.0059418399 -0.0221186969
0.0004094318 0.0080444217 -0.0075833816
0.0099605769 0.0039482899 -0.0229280833
0.0030135121 0.0068684742 -0.0222676117
0.0039527640 0.0067410171 -0.0223451424
-0.0255048275 0.0046396945 -0.0267930422
-0.0252261050 0.0052688345 -0.0281673912
0.0060213935 0.0068884026 -0.0224175099
0.0190568585 0.0052537024 -0.0234133992
0.0059780646 0.0073852800 -0.0136117805
0.0060196500 0.0076606646 -0.0119042564
-0.0245660730 0.0075604953 -0.0288858060
0.0177320074 0.0074854940 -0.0169851873
0.0090779793 0.0058908388 -0.0227861945
0.0100245047 0.0061968658 -0.0228495989
0.0109643713 0.0061942190 -0.0228855256
-0.0104258768 0.0073969103 -0.0157670099
-0.0214305893 0.0038399752 -0.0165478904
-0.0087813884 0.0074044205 -0.0151527170
-0.0250150412 0.0074274000 -0.0264806915
0.0050517041 0.0067855325 -0.0223796908
0.0215402618 0.0077225454 -0.0087703196
-0.0058746748 0.0015971437 -0.0077603776
0.0026893076 0.0073405486 -0.0156733040
0.0324142948 0.0031087622 -0.0243343879
-0.0122813433 0.0085301269 -0.0019610394
-0.0169727392 0.0023442246 -0.0089889709
-0.0251103155 0.0067334473 -0.0278689135
-0.0251246430 0.0070704073 -0.0270463917
-0.0039751567 0.0085324831 -0.0006179307
0.0280171130 0.0042369496 -0.0262932796
-0.0229711346 0.0073314831 -0.0214362014
-0.0018955208 0.0085220523 -0.0006647799
-0.0009871926 0.0085174982 -0.0006908122
-0.0152307451 0.0084378347 -0.0053344462
0.0318437591 0.0045360643 -0.0248356406
-0.0189696215 0.0079267509 -0.0220687110
-0.0184272528 0.0079321358 -0.0217641685
0.0269576609 0.0026229508 -0.0125810150
-0.0170885324 0.0027565937 -0.0113003720
-0.0138786025 0.0085790213 -0.0007428769
-0.0128694521 0.0085650682 -0.0009927545
-0.0152550936 0.0083848163 -0.0069742966
0.0006518551 0.0039428230 -0.0226387624
0.0090449769 0.0073250942 -0.0155171249
0.0049136151 0.0074079540 -0.0128933731
0.0133125493 0.0081406105 -0.0106756706
-0.0090075061 0.0085800625 0.0001004767
0.0272592250 0.0075981542 -0.0239693839
0.0279613379 0.0075716134 -0.0241640750
0.0229308177 0.0061706863 -0.0233196784
0.0260410924 0.0077054724 -0.0231931824
0.0267077070 0.0076967403 -0.0234508757
0.0108216703 0.0040951539 -0.0227574501
0.0120998509 0.0041796602 -0.0229377244
0.0011573303 0.0084204525 -0.0033666287
0.0046219919 0.0071993787 -0.0206709374
0.0013290849 0.0084887408 -0.0012894813
0.0190570448 0.0058658123 -0.0234221611
0.0259884503 0.0072996747 -0.0230822954
0.0224553961 0.0078990925 -0.0027419198
0.0220092740 0.0082136448 -0.0022015516
0.0329879746 0.0075733420 -0.0242083315
0.0061249156 0.0076733716 -0.0114565510
0.0067322832 0.0063136779 -0.0225450564
0.0161731783 0.0081853792 -0.0091763753
0.0170133915 0.0081772245 -0.0093794111
0.0193630625 0.0081693213 -0.0095199663
0.0197175760 0.0081668161 -0.0095824394
-0.0157386698 0.0084537435 -0.0121437255
-0.0153101571 0.0083467178 -0.0081612337
-0.0133453719 0.0081076846 -0.0077083204
0.0300566778 0.0058539174 -0.0239956174
-0.0108770579 0.0078038201 -0.0094262604
0.0320741422 0.0058515742 -0.0242242385
-0.0084383637 0.0083026402 -0.0082705561
-0.0042912140 0.0082692541 -0.0086453799
-0.0185704529 0.0080995057 -0.0199603382
-0.0183792338 0.0077667329 -0.0201191250
-0.0020945445 0.0076808520 -0.0122374315
-0.0157264248 0.0087217726 -0.0043505374
-0.0177391991 0.0082944781 -0.0150069539
-0.0171101764 0.0083566960 -0.0152672473
0.0019981042 0.0086277686 -0.0008404646
0.0030170158 0.0086247716 -0.0008209441
0.0040462594 0.0086199008 -0.0008600000
0.0050836802 0.0086133033 -0.0009537209
0.0061153378 0.0086073969 -0.0010318030
0.0070242975 0.0086006615 -0.0011489261
0.0079249870 0.0087209083 -0.0012348238
0.0188848227 0.0076074265 -0.0127788428
-0.0157223940 0.0086856652 -0.0053969193
0.0329896472 0.0078780260 -0.0241849069
0.0053528622 0.0079539064 -0.0099260230
0.0059730448 0.0079470538 -0.0100822020
-0.0149089545 0.0087102726 -0.0008287597
0.0029997751 0.0059127100 -0.0223248396
-0.0119486265 0.0076302774 -0.0157513935
0.0004709568 0.0076577291 -0.0126747210
0.0172575694 0.0082601309 -0.0068962071
0.0176299680 0.0082543567 -0.0070523862
0.0297108777 0.0040371399 -0.0257779006
0.0187474079 0.0082864147 -0.0060528535
0.0007548612 0.0079374388 -0.0109880213
0.0220660735 0.0086556170 -0.0023592953
-0.0049558580 0.0069688447 -0.0221209172
0.0202894378 0.0077766739 -0.0145488400
0.0197790153 0.0078548715 -0.0120812599
0.0029359180 0.0035871770 -0.0177660603
0.0202255789 0.0081449505 -0.0102175493
0.0208550841 0.0078287087 -0.0128777567
0.0215776823 0.0075784139 -0.0136742536
0.0120161045 0.0048548598 -0.0229723398
0.0010814462 0.0084694438 -0.0018985737
0.0009669066 0.0087591372 -0.0008131508
0.0048855431 0.0076879375 -0.0110895429
-0.0157502741 0.0086765680 -0.0124248434
0.0310230814 0.0058855079 -0.0243089143
-0.0210978389 0.0081783421 -0.0214726496
-0.0185782611 0.0084175393 -0.0202024151
-0.0173054971 0.0081552416 -0.0145175997
-0.0155911706 0.0083884466 -0.0140178371
-0.0160989501 0.0089464337 -0.0050845612
0.0329912379 0.0080815554 -0.0241614822
-0.0161729492 0.0090173930 -0.0031557921
-0.0154521577 0.0087550376 -0.0033353958
-0.0150448903 0.0090952516 -0.0008261669
0.0286269803 0.0080484152 -0.0249501634
-0.0177894607 0.0085358825 -0.0167353023
0.0204153378 0.0078227445 -0.0130807776
0.0021311007 0.0082472134 -0.0008573998
-0.0170939267 0.0061148889 -0.0216227118
0.0169069227 0.0074629225 -0.0177973080
-0.0140293278 0.0063046999 -0.0217173118
-0.0129992776 0.0059800558 -0.0217719991
-0.0084604360 0.0083303731 -0.0074272100
-0.0018895064 0.0089018345 -0.0006960128
0.0009710994 0.0090115145 -0.0008365754
0.0037141591 0.0076920353 -0.0110817272
0.0039482955 0.0077393278 -0.0094262604
-0.0191247053 0.0089304671 -0.0125497822
-0.0157421492 0.0089197196 -0.0121437255
0.0160904415 0.0078707729 -0.0117376689
0.0073230509 0.0048635229 -0.0226387698
0.0180225261 0.0077968277 -0.0119295288
0.0191051997 0.0077382363 -0.0122061912
-0.0179973692 0.0086565111 -0.0150173623
0.0208188146 0.0078469291 -0.0122998971
0.0035897717 0.0035888143 -0.0180471782
0.0220687035 0.0090257674 -0.0024217684
-0.0185686275 0.0082340203 -0.0192028824
-0.0190551020 0.0081805382 -0.0176098887
-0.0181626156 0.0078514013 -0.0190623198
-0.0180898905 0.0079016965 -0.0180055369
-0.0180971920 0.0082151797 -0.0174641255
-0.0176899955 0.0081149396 -0.0158607159
-0.0176534206 0.0081567243 -0.0145488326
0.0100147557 0.0081575084 -0.0104070399
0.0305591468 0.0027494431 -0.0134243686
-0.0109755918 0.0091183968 0.0004753005
-0.0067501739 0.0076861791 -0.0127996672
0.0298363492 0.0044349954 -0.0247002859
0.0181281511 0.0090287365 -0.0016487036
-0.0189480111 0.0085238032 -0.0173287708
-0.0179548673 0.0087756664 -0.0163604785
0.0180406384 0.0082328320 -0.0076770876
-0.0018893033 0.0092824250 -0.0007038284
0.0009700619 0.0092647672 -0.0008365754
0.0006943234 0.0033960193 -0.0200150032
-0.0192953087 0.0082348753 -0.0160168950
-0.0170118064 0.0078703389 -0.0163292456
-0.0163002200 0.0082455650 -0.0161522496
-0.0152867362 0.0081522875 -0.0141740162
0.0069953036 0.0068458486 -0.0225227345
-0.0126745440 0.0078891441 -0.0147674847
-0.0121205114 0.0078041498 -0.0149861295
-0.0114671476 0.0076442845 -0.0151579175
0.0109887728 0.0067787059 -0.0228331033
0.0119777462 0.0068959109 -0.0228626076
-0.0249907710 0.0078955386 -0.0263791773
-0.0250657424 0.0078459848 -0.0270741675
-0.0158309974 0.0090468302 -0.0081629772
-0.0154794119 0.0085926056 -0.0080519114
0.0291215982 0.0069238152 -0.0241692755
0.0300564207 0.0068672448 -0.0240205992
0.0309939329 0.0072662514 -0.0242629889
0.0320752077 0.0068635736 -0.0242167432
0.0127309477 0.0075119678 -0.0163917113
-0.0142860143 0.0082139894 -0.0043973867
-0.0136697404 0.0079541225 -0.0046785045
0.0136481524 0.0086934771 -0.0016174559
0.0150116710 0.0089465715 -0.0014716927
0.0160172302 0.0089440681 -0.0014925171
0.0170228817 0.0089411698 -0.0015263576
0.0184162091 0.0094307661 -0.0017423946
0.0178395640 0.0087512527 -0.0015549827
-0.0224319994 0.0038348157 -0.0154546592
-0.0127730751 0.0083007589 -0.0012738649
0.0158914831 0.0078289155 -0.0130807776
-0.0098997802 0.0089473538 0.0002926942
-0.0090166964 0.0090943277 0.0001213159
-0.0080365874 0.0089534894 -0.0000791345
-0.0059772283 0.0077128261 -0.0117376689
-0.0049642622 0.0077095274 -0.0116856042
-0.0039492510 0.0076982230 -0.0119172651
0.0220716540 0.0093953200 -0.0024920423
0.0329939760 0.0084886551 -0.0241224263
-0.0190357491 0.0087715313 -0.0178722683
-0.0183672197 0.0086486526 -0.0137367193
-0.0196525864 0.0092169046 -0.0113316122
0.0089414902 0.0089683384 -0.0012686793
0.0284281820 0.0062456373 -0.0247002859
-0.0228971280 0.0049016438 -0.0212351177
0.0119688837 0.0089738071 -0.0015237574
-0.0229959674 0.0087376107 -0.0214127768
-0.0099874586 0.0069111455 -0.0221214313
0.0120197423 0.0078646243 -0.0121905748
0.0118160825 0.0081408620 -0.0107693765
-0.0009819232 0.0090238601 -0.0007220376
0.0208072923 0.0081436671 -0.0102383737
0.0255519580 0.0042275302 -0.0216704700
0.0263553299 0.0080396105 -0.0238256920
-0.0015352741 0.0079662204 -0.0103633199
0.0311338548 0.0071434993 -0.0250282530
0.0042370390 0.0074084345 -0.0129558388
0.0125555666 0.0075032208 -0.0167040695
0.0172443986 0.0074692667 -0.0175630394
-0.0101166070 0.0084313359 -0.0046160389
-0.0186061747 0.0088545717 -0.0201503579
-0.0000624954 0.0088902675 -0.0008033682
-0.0158532634 0.0089020729 -0.0110934395
0.0067571886 0.0079316255 -0.0104986671
0.0220735669 0.0096414611 -0.0025388990
-0.0186850540 0.0087109171 -0.0193653051
-0.0190404020 0.0091695786 -0.0179222394
-0.0188622214 0.0090207085 -0.0131588671
-0.0200477056 0.0092804618 -0.0098323170
-0.0237730443 0.0053928103 -0.0212175567
0.0123929242 0.0086960942 -0.0016174559
-0.0158910602 0.0060351789 -0.0216665734
0.0171164926 0.0096031986 -0.0016539041
-0.0150466152 0.0093513429 -0.0008261669
0.0040834956 0.0080982558 -0.0054281522
-0.0098704398 0.0097496957 0.0003139209
0.0103654172 0.0033929106 -0.0205772314
-0.0009785909 0.0096571930 -0.0007480700
0.0009744838 0.0096435174 -0.0008638892
0.0190569442 0.0067840200 -0.0234321449
-0.0252211280 0.0049364995 -0.0262073819
-0.0178354420 0.0096503571 -0.0118313674
-0.0163621940 0.0096378922 -0.0118313674
-0.0186295323 0.0092916042 -0.0201087091
-0.0199718289 0.0089043006 -0.0219066907
-0.0009767283 0.0100371540 -0.0007636864
-0.0000592563 0.0097760707 -0.0008339528
-0.0161358453 0.0096791536 -0.0108630825
-0.0131176636 0.0098401271 -0.0010621715
-0.0149325989 0.0081025679 -0.0156420711
-0.0136287026 0.0078591630 -0.0159544218
-0.0100161657 0.0101384595 0.0003503617
-0.0090012625 0.0098619834 0.0000553634
-0.0113864951 0.0076739322 -0.0140959267
0.0079219844 0.0090987682 -0.0012231115
-0.0248967633 0.0088973381 -0.0224149022
0.0099589061 0.0089638159 -0.0013155285
0.0109816752 0.0089574866 -0.0014144350
0.0129969707 0.0090898387 -0.0015772972
0.0129509009 0.0078591276 -0.0122999046
0.0128259119 0.0081472471 -0.0105090905
-0.0238244385 0.0059088878 -0.0212812219
-0.0115344226 0.0075708423 -0.0177660678
0.0089441184 0.0097214021 -0.0012999121
0.0268073119 0.0071951300 -0.0231541339
-0.0170944892 0.0069786459 -0.0216414724
-0.0165883638 0.0072832406 -0.0215455238
-0.0161252543 0.0071326680 -0.0213447306
0.0092012882 0.0075953808 -0.0138304252
0.0099208616 0.0075470023 -0.0154234264
-0.0130116194 0.0069363248 -0.0217544232
0.0180115141 0.0067910571 -0.0231994409
-0.0159160867 0.0083578229 -0.0149798784
0.0073048994 0.0065865591 -0.0226179380
-0.0249623805 0.0094533861 -0.0228157584
-0.0085085593 0.0083613228 -0.0064901505
-0.0184579864 0.0089280941 -0.0209754873
-0.0189008154 0.0089814998 -0.0219528917
-0.0183474198 0.0088970810 -0.0217095111
-0.0010949150 0.0102891885 -0.0008131508
-0.0000538676 0.0102814510 -0.0008678082
-0.0131307170 0.0103521198 -0.0010343958
-0.0088723414 0.0103746504 0.0000536349
0.0259878580 0.0062772594 -0.0230260808
0.0161347073 0.0059575122 -0.0227901284
-0.0187895559 0.0095266253 -0.0197651181
-0.0188713335 0.0095590651 -0.0190779436
-0.0119687766 0.0079337284 -0.0131588671
-0.0166002065 0.0075337999 -0.0202336479
0.0020294078 0.0069576632 -0.0222701821
0.0019944441 0.0091342144 -0.0008326564
0.0089457855 0.0102234073 -0.0013207216
-0.0050860494 0.0089032874 -0.0005576778
-0.0039768592 0.0090411566 -0.0006205309
-0.0167354643 0.0088517033 -0.0160689522
-0.0161378495 0.0087638982 -0.0162855107
-0.0250102207 0.0061777513 -0.0271470416
-0.0250834040 0.0059841573 -0.0262740497
0.0140693104 0.0052635092 -0.0228886399
0.0169656910 0.0049280152 -0.0228068251
0.0178939570 0.0051398594 -0.0231742207
-0.0158243440 0.0082284380 -0.0119250808
-0.0248329975 0.0089063309 -0.0269991923
-0.0244236439 0.0090457164 -0.0271678660
0.0251904242 0.0076133907 -0.0239193980
-0.0161548555 0.0096649304 -0.0080920774
0.0270164236 0.0080817901 -0.0240589101
0.0278262608 0.0080471877 -0.0242139045
0.0290869847 0.0078294352 -0.0241721142
0.0300578382 0.0078826360 -0.0239868704
0.0311358441 0.0074460581 -0.0249814037
0.0211780928 0.0082953628 -0.0019974876
-0.0161943138 0.0094245188 -0.0055218581
0.0229361132 0.0084057320 -0.0023879278
-0.0123522542 0.0105838999 -0.0013988111
-0.0088693388 0.0106306784 0.0000380110
0.0251627266 0.0089518689 -0.0227949340
0.0262958184 0.0092436075 -0.0231307093
-0.0158202462 0.0089060739 -0.0061621834
-0.0246183239 0.0095773079 -0.0223654527
-0.0242966600 0.0095968321 -0.0218630750
-0.0149169564 0.0069294944 -0.0217182506
-0.0206977539 0.0094613656 -0.0216079969
-0.0204844140 0.0096758381 -0.0215767641
-0.0066708811 0.0029153805 -0.0158919487
0.0180009753 0.0076134317 -0.0126122553
-0.0157308206 0.0089608692 -0.0011281017
0.0370795503 0.0098980814 -0.0025232751
-0.0019970424 0.0105475336 -0.0008157510
0.0226988066 0.0081494004 -0.0026482139
-0.0238175690 0.0069212541 -0.0213210154
0.0182978082 0.0083760694 -0.0033978615
0.0110958759 0.0081565380 -0.0103529040
-0.0140223242 0.0091306157 -0.0008469839
-0.0152659565 0.0084188059 -0.0059279148
-0.0242479965 0.0089455508 -0.0219411794
0.0130525166 0.0087427665 -0.0016736779
-0.0169131756 0.0099114291 -0.0110817272
0.0080656242 0.0076230932 -0.0129870716
0.0089546051 0.0076121446 -0.0132786054
0.0103511177 0.0078359172 -0.0132369557
0.0107868463 0.0078387205 -0.0131120179
-0.0185427368 0.0096761696 -0.0211394671
-0.0199375413 0.0096615627 -0.0217556525
0.0150952823 0.0094939917 -0.0015612412
0.0220811050 0.0106248036 -0.0027184952
0.0228234436 0.0106245950 -0.0027106870
-0.0183854178 0.0094364285 -0.0216392297
0.0159693547 0.0095494576 -0.0015639085
0.0167755615 0.0094404817 -0.0015706066
0.0000664946 0.0040484462 -0.0228219945
-0.0186692849 0.0093180984 -0.0195152331
-0.0123333298 0.0108350851 -0.0014612768
-0.0088663958 0.0108866803 0.0000223946
0.0253671147 0.0095702000 -0.0227637012
-0.0190118439 0.0097153373 -0.0217735413
0.0311315451 0.0052371845 -0.0250594858
-0.0246265903 0.0099003986 -0.0223576371
-0.0243090168 0.0099216998 -0.0218474586
-0.0210284144 0.0097089596 -0.0214580689
-0.0188801736 0.0097309537 -0.0200774688
0.0039603934 0.0062209647 -0.0223701317
0.0072200131 0.0059146564 -0.0226205308
0.0009799618 0.0101484098 -0.0008990560
0.0032294337 0.0072160624 -0.0202336479
0.0220041536 0.0061736498 -0.0231853742
-0.0249749795 0.0097757168 -0.0228001419
-0.0238516703 0.0082073398 -0.0213338230
0.0287229456 0.0087353829 -0.0253171865
-0.0218852721 0.0082098003 -0.0213831160
-0.0089742206 0.0059569031 -0.0221777130
0.0189887993 0.0078833047 -0.0112066735
-0.0159612037 0.0088895448 -0.0098791663
0.0212118216 0.0106282458 -0.0026690383
0.0263903420 0.0095863789 -0.0224513505
-0.0159081966 0.0099520609 -0.0012270231
-0.0150179751 0.0099872239 -0.0009198654
-0.0140401609 0.0099738687 -0.0010669101
-0.0209240653 0.0101207681 -0.0213971604
-0.0206993409 0.0089846179 -0.0216892082
0.0140491892 0.0089687258 -0.0015379507
-0.0202737786 0.0101056993 -0.0215455238
-0.0187132135 0.0100938492 -0.0214414019
0.0268018488 0.0095896460 -0.0223888699
0.0210885778 0.0108754225 -0.0026872624
-0.0192086287 0.0100905970 -0.0216079969
0.0220823195 0.0108710006 -0.0027497355
0.0228238590 0.0108716451 -0.0027263034
-0.0080039240 0.0099725462 -0.0002099294
-0.0046254583 0.0090443566 -0.0006179307
-0.0179661997 0.0110944062 0.0027346443
-0.0197781064 0.0100963674 -0.0216184128
0.0255866740 0.0097366013 -0.0234821085
-0.0216810293 0.0114776269 0.0096584614
-0.0199751705 0.0100310743 -0.0164073352
-0.0074990578 0.0110998899 -0.0006179307
0.0089554377 0.0107225776 -0.0013936106
0.0211606976 0.0075628590 -0.0142156649
0.0284251217 0.0087458249 -0.0250907186
0.0190488305 0.0090509206 -0.0018517245
-0.0293367319 0.0122062266 0.0168425646
0.0253464859 0.0098270997 -0.0218266416
0.0263903216 0.0097927451 -0.0224513505
-0.0158712268 0.0079914797 -0.0169851799
0.0024667773 0.0079541747 -0.0102383737
0.0252157617 0.0085488986 -0.0249970201
0.0140802693 0.0068306029 -0.0228440035
-0.0171117783 0.0115681067 0.0018808898
-0.0199456774 0.0103189610 -0.0215142909
-0.0190625489 0.0103131346 -0.0214362089
0.0210887790 0.0111230090 -0.0026950706
0.0220817197 0.0111193173 -0.0027419198
-0.0090071037 0.0069063846 -0.0221015234
-0.0080502182 0.0068287924 -0.0220933501
-0.0114741363 0.0104058050 0.0003503617
-0.0029334109 0.0089080520 -0.0006511081
0.0028505772 0.0076855160 -0.0114096943
-0.0167729892 0.0092674047 -0.0033041555
-0.0338486284 0.0121329799 0.0204033758
-0.0039438605 0.0109411292 -0.0007857997
-0.0099275261 0.0076911040 -0.0132057238
0.0020319764 0.0108953714 -0.0010454450
-0.0190803520 0.0094072595 -0.0175786559
-0.0158509724 0.0108779036 -0.0011628065
-0.0183119886 0.0087796375 -0.0132994298
-0.0177294165 0.0094046220 -0.0120812599
0.0284247752 0.0081424862 -0.0251063351
-0.0155692697 0.0082761589 -0.0103945527
0.0028187651 0.0073904898 -0.0137991924
0.0274216719 0.0096194074 -0.0237632263
0.0280313417 0.0097195059 -0.0237986315
0.0190610494 0.0100404173 -0.0020410735
0.0290516056 0.0099374019 -0.0235508252
0.0139640579 0.0078611374 -0.0121687148
-0.0104358112 0.0091141649 0.0004440676
0.0089654066 0.0112212226 -0.0014690924
-0.0184227750 0.0082526561 -0.0217797849
-0.0000416133 0.0079419352 -0.0109463651
0.0000445694 0.0079553016 -0.0105038825
0.0007712860 0.0079654716 -0.0100822020
-0.0295077264 0.0125262067 0.0172486212
0.0029118974 0.0079564378 -0.0101134349
-0.0133577399 0.0076909680 -0.0214674417
-0.0159510560 0.0092192590 -0.0022213403
0.0018796157 0.0080039110 -0.0087078530
-0.0213271268 0.0105630532 -0.0212956462
-0.0157669075 0.0089972690 -0.0069742966
-0.0246558711 0.0102259591 -0.0223107878
-0.0242169537 0.0102467425 -0.0218071137
-0.0039708465 0.0099298730 -0.0006608684
-0.0068817325 0.0085366555 -0.0008990485
-0.0061200410 0.0085350703 -0.0008365754
-0.0189495832 0.0109837465 0.0039007720
0.0169529188 0.0058760345 -0.0228798930
-0.0159778371 0.0093129575 -0.0120708365
-0.0250403546 0.0095289834 -0.0268867407
0.0030231327 0.0091292337 -0.0008599926
0.0040536914 0.0091236569 -0.0009068642
0.0050849393 0.0091176406 -0.0009693373
0.0061186124 0.0091107301 -0.0010591317
0.0070263464 0.0091035664 -0.0011697430
-0.0251385346 0.0092460550 -0.0227012280
-0.0218743272 0.0122712515 0.0113217290
-0.0213274658 0.0121908151 0.0112358388
0.0263550002 0.0087526403 -0.0238022748
0.0270769466 0.0088160001 -0.0239756200
0.0279102549 0.0089872256 -0.0240939427
0.0291852169 0.0089378580 -0.0241380502
0.0199552365 0.0090716444 -0.0023636315
0.0213204045 0.0090291314 -0.0023475681
-0.0209344141 0.0103375912 -0.0213815439
0.0253608041 0.0099976026 -0.0224825833
0.0263899453 0.0100009143 -0.0224201102
0.0220810995 0.0113677084 -0.0027341116
0.0079412460 0.0114810243 -0.0013910029
0.0089644883 0.0114725716 -0.0014690924
-0.0084429458 0.0082781296 -0.0090202037
-0.0114018135 0.0110720247 0.0002754014
-0.0048852973 0.0100632310 -0.0006366689
-0.0176376998 0.0119173676 0.0033177119
-0.0204645805 0.0105334818 -0.0216392297
0.0020742323 0.0073738098 -0.0145175997
-0.0109497271 0.0100522451 0.0005041491
0.0020375438 0.0115254000 -0.0010864530
-0.0078805238 0.0116105080 -0.0006647799
-0.0242271163 0.0081897452 -0.0219654683
0.0277270470 0.0101376735 -0.0236070473
0.0180227291 0.0099561848 -0.0017687026
0.0078905541 0.0079074502 -0.0111650173
-0.0135634057 0.0090214759 -0.0002535228
-0.0019887649 0.0110529028 -0.0008608494
-0.0104746744 0.0074350126 -0.0143301878
-0.0169806890 0.0077871252 -0.0191091765
-0.0171872750 0.0081502050 -0.0181096587
-0.0294591300 0.0128156617 0.0171236750
0.0030639339 0.0080015566 -0.0086453799
-0.0172488317 0.0096115321 -0.0011072922
-0.0183111243 0.0090362616 -0.0155483652
0.0009168443 0.0080395564 -0.0076770876
-0.0291012414 0.0118795447 0.0162803289
0.0128882239 0.0096358135 -0.0015784148
0.0140193682 0.0094450600 -0.0015862230
0.0118809827 0.0074655097 -0.0180471782
-0.0171507411 0.0120989382 0.0019745957
0.0292788129 0.0109848231 -0.0092180241
0.0297444239 0.0109783784 -0.0093325544
0.0227731522 0.0089411475 -0.0024556089
0.0014945026 0.0079927407 -0.0091139087
-0.0299149528 0.0130098090 0.0178420898
-0.0207008794 0.0108354874 -0.0201919992
-0.0205733888 0.0107627697 -0.0214205850
-0.0198922753 0.0106141195 -0.0211840812
-0.0192488134 0.0106199011 -0.0211290587
-0.0334609374 0.0121401995 0.0206220206
0.0227014162 0.0116127357 -0.0027731601
0.0267661568 0.0092652775 -0.0231072847
0.0089684073 0.0117220506 -0.0015003253
0.0141451741 0.0073462836 -0.0219515804
-0.0082956403 0.0116179883 -0.0005866904
-0.0059286729 0.0059448536 -0.0221639667
-0.0108972080 0.0109134279 0.0007251929
-0.0087842792 0.0112559199 -0.0002587233
-0.0261759534 0.0119264163 0.0120982733
0.0170777105 0.0101015344 -0.0016972888
-0.0229911953 0.0099605732 -0.0213453192
0.0190682635 0.0110313259 -0.0021621082
0.0099753588 0.0108410493 -0.0014651958
0.0204660278 0.0116227902 -0.0026482139
-0.0149688050 0.0078735854 -0.0182137657
-0.0147934780 0.0080473013 -0.0173287708
-0.0192398466 0.0098939538 -0.0190467108
-0.0192398615 0.0097227357 -0.0180159453
0.0163579490 0.0078938864 -0.0109880213
-0.0219324417 0.0105730742 -0.0212487895
0.0140360650 0.0108135380 -0.0017619301
0.0150693133 0.0108787902 -0.0017944593
0.0210860781 0.0116215348 -0.0026560221
-0.0237910226 0.0098866262 -0.0214181859
0.0010026023 0.0116603263 -0.0010357071
0.0210837256 0.0052542090 -0.0231760014
-0.0059441961 0.0089640021 -0.0004589129
-0.0189820081 0.0091950037 -0.0117376689
-0.0196225904 0.0127044842 0.0071908738
0.0299775973 0.0112107359 -0.0093637872
-0.0277012512 0.0134061947 0.0173735525
0.0267996546 0.0104348473 -0.0220765267
0.0091926120 0.0081606731 -0.0103789363
0.0227012020 0.0118606649 -0.0027731601
-0.0220196992 0.0089218505 -0.0213719849
-0.0221926384 0.0120274462 0.0114700999
-0.0150439888 0.0118881464 -0.0012634713
0.0169060566 0.0067481659 -0.0227930937
0.0030588247 0.0108892098 -0.0010708217
0.0096911192 0.0078767352 -0.0119875465
0.0112618320 0.0078571141 -0.0124873091
0.0119294655 0.0106789619 -0.0015706141
-0.0070141144 0.0060540996 -0.0221671108
-0.0089325719 0.0118856393 -0.0004662145
-0.0216942132 0.0068960339 -0.0211832020
-0.0212286226 0.0068878662 -0.0214205775
-0.0259900279 0.0126324482 0.0119893905
-0.0162312202 0.0121979974 -0.0005554575
-0.0238255933 0.0089629292 -0.0213997606
0.0170535911 0.0117970258 -0.0019337106
0.0180599652 0.0117892250 -0.0020274166
-0.0295043588 0.0134155005 0.0172173884
-0.0305015892 0.0132260323 0.0188728478
-0.0313786268 0.0127494708 0.0209968444
-0.0078879036 0.0113569982 -0.0006335471
-0.0080170222 0.0108801164 -0.0004070867
0.0263398420 0.0108961463 -0.0180471782
-0.0346432924 0.0133784637 0.0207157191
-0.0174523629 0.0096544623 -0.0000869278
0.0120015787 0.0098282471 -0.0015276689
0.0298919696 0.0119093806 -0.0019922797
-0.0052459724 0.0097282454 -0.0005762819
-0.0179794468 0.0116651319 0.0035051238
0.0270066261 0.0106388591 -0.0221285839
0.0199956093 0.0100500658 -0.0024175514
0.0211755056 0.0100304298 -0.0024920423
-0.0170659646 0.0093538165 -0.0011176933
0.0120153809 0.0118260682 -0.0016779918
-0.0109704481 0.0124417432 -0.0000322703
-0.0019104946 0.0098906942 -0.0007345248
0.0302601401 0.0122483000 0.0033801775
-0.0058896840 0.0068334732 -0.0221775789
-0.0188769251 0.0093626939 -0.0185469482
-0.0233830623 0.0110152438 -0.0249501634
-0.0119606853 0.0119068548 -0.0001153369
-0.0111312456 0.0119392648 0.0001535844
-0.0100089721 0.0122978650 -0.0001494009
-0.0092514642 0.0123993456 -0.0004773680
0.0069873407 0.0098877549 -0.0011849795
-0.0249419287 0.0132374167 0.0127195176
-0.0153448917 0.0085618198 -0.0040954519
-0.0169997551 0.0093615130 -0.0129558388
-0.0244580992 0.0109614581 -0.0188280586
0.0180614460 0.0121619627 -0.0020547453
0.0009284393 0.0080540702 -0.0072085653
-0.0170634165 0.0079814587 -0.0170913879
-0.0170892812 0.0090462007 -0.0150486026
-0.0070651956 0.0119800456 -0.0007877517
-0.0138298823 0.0077962819 -0.0180784184
-0.0119246803 0.0090853125 0.0005065482
0.0237053763 0.0074907243 -0.0166103635
-0.0123259239 0.0112149976 -0.0014925096
-0.0119777620 0.0110280178 -0.0001513679
-0.0246443935 0.0111520886 -0.0181513000
-0.0230730250 0.0106751136 -0.0213402603
0.0320778079 0.0078772977 -0.0241805110
-0.0057966597 0.0103232861 -0.0006335471
0.0160317104 0.0069279484 -0.0227294732
-0.0207230709 0.0110667944 0.0071284082
0.0020037703 0.0098910108 -0.0008912105
0.0030360874 0.0098845959 -0.0009380747
0.0040634554 0.0098789819 -0.0009712595
0.0050909575 0.0098730251 -0.0010161642
0.0060985778 0.0098402239 -0.0011030976
0.0079230946 0.0098528787 -0.0012446139
-0.0249377079 0.0102112144 -0.0226621870
0.0099652577 0.0098406523 -0.0013754014
0.0109837297 0.0098346323 -0.0014456753
-0.0227585621 0.0132691935 0.0112983044
-0.0218871273 0.0126972571 0.0113451537
-0.0214358084 0.0128327608 0.0113139208
0.0255904514 0.0095225610 -0.0236695204
0.0290482529 0.0096199736 -0.0237632338
0.0290194545 0.0128502287 0.0086277034
0.0299674124 0.0128442086 0.0085261818
0.0306450669 0.0128432065 0.0085027572
-0.0240748562 0.0137137622 0.0135628637
-0.0206974372 0.0109951124 -0.0211707000
0.0120176682 0.0124508254 -0.0017111618
0.0130355619 0.0124401934 -0.0018204842
0.0139172375 0.0124350749 -0.0018569175
0.0220049750 0.0051513501 -0.0231892783
0.0201336499 0.0071277581 -0.0232634563
-0.0029245149 0.0099224485 -0.0007057656
-0.0087861717 0.0126355439 -0.0007220451
-0.0079773217 0.0126236044 -0.0008053426
-0.0230119117 0.0081985444 -0.0213711280
0.0199828390 0.0088894814 -0.0027939845
-0.0119801061 0.0125954375 0.0002202149
-0.0093702748 0.0126533285 -0.0005242247
0.0169688035 0.0072076656 -0.0222764332
0.0252515990 0.0079328287 -0.0248064790
-0.0252064243 0.0106226280 -0.0230448190
0.0265645031 0.0106194690 -0.0190467108
-0.0343944803 0.0137133822 0.0212467220
-0.0029883552 0.0068948064 -0.0221573729
-0.0139680617 0.0109834187 -0.0012973193
-0.0173631497 0.0093275011 -0.0138304252
-0.0283170231 0.0138060451 0.0189040806
-0.0125053674 0.0104084983 0.0002566557
0.0169683490 0.0078821369 -0.0113316122
-0.0123138353 0.0116862841 -0.0014092196
0.0190178659 0.0119624622 -0.0021460522
-0.0186129399 0.0121697187 0.0052230712
0.0290191900 0.0131201223 0.0085964706
0.0299687553 0.0131196827 0.0085808393
0.0307813063 0.0131161436 0.0085183736
0.0219994225 0.0099388510 -0.0025482718
0.0226952117 0.0097629353 -0.0025857482
-0.0010520332 0.0033978354 -0.0199993793
-0.0282913856 0.0136799067 0.0169050302
-0.0340448692 0.0127217881 0.0207871106
-0.0262110196 0.0139416382 0.0167176183
0.0120178070 0.0127010792 -0.0017189775
0.0130366702 0.0126895979 -0.0018361006
0.0140438173 0.0126837939 -0.0018751416
0.0150479041 0.0126793124 -0.0018985737
-0.0249520913 0.0081830267 -0.0223701391
-0.0029003546 0.0109330863 -0.0008228887
-0.0010791924 0.0109192654 -0.0008931775
0.0109794084 0.0081481263 -0.0106131975
0.0292838458 0.0125469118 0.0081279334
-0.0115049062 0.0129892826 0.0003816020
-0.0028867517 0.0119448341 -0.0009009857
-0.0019782726 0.0119376779 -0.0009250659
-0.0010682251 0.0119298324 -0.0009634513
0.0109905619 0.0108351260 -0.0015159566
0.0170556102 0.0122945458 -0.0019688476
0.0069250334 0.0118635520 -0.0013773534
-0.0211870633 0.0089448318 -0.0214900021
0.0122393128 0.0081497915 -0.0104726423
-0.0150478631 0.0123991519 -0.0012660567
-0.0069592744 0.0090288669 -0.0002887640
-0.0161449686 0.0095457472 -0.0138616581
-0.0161710046 0.0095751397 -0.0132057238
-0.0294580683 0.0145031661 0.0201534983
-0.0162746534 0.0088560805 -0.0148924161
-0.0124886669 0.0122090019 0.0001629498
-0.0130648613 0.0119982436 -0.0012686495
0.0020372029 0.0126621239 -0.0011137892
0.0309450570 0.0108367130 -0.0155171249
-0.0187920034 0.0137404501 0.0064412262
0.0290183872 0.0133863240 0.0085131731
0.0299700219 0.0133954324 0.0086355116
0.0310521219 0.0133866295 0.0084949490
0.0317307152 0.0133878812 0.0085027572
0.0310727954 0.0088985600 -0.0239881221
-0.0285276994 0.0135999247 0.0155931469
0.0228241831 0.0127286389 -0.0027731601
-0.0251511745 0.0142551474 0.0171549078
0.0200566929 0.0109898597 -0.0024358053
0.0009948704 0.0109037682 -0.0009829719
-0.0179958902 0.0128870495 0.0038955640
0.0315937512 0.0114758313 -0.0158919487
-0.0218691900 0.0112138614 -0.0177660678
-0.0104553513 0.0119515210 0.0004440676
0.0182884224 0.0082775634 -0.0063339714
-0.0028852578 0.0128323138 -0.0009302739
-0.0019793231 0.0128252320 -0.0009441618
-0.0010686684 0.0128164589 -0.0009849388
0.0170562118 0.0127930567 -0.0019883756
-0.0095984451 0.0131587312 -0.0006491635
0.0069302004 0.0127415359 -0.0014300514
0.0204644892 0.0113764182 -0.0026169810
-0.0130304806 0.0109735988 -0.0013441611
0.0000403748 0.0070668217 -0.0223810691
-0.0273180120 0.0126854330 0.0126726534
-0.0069604553 0.0110931322 -0.0006772671
-0.0156072527 0.0082491692 -0.0112379063
-0.0184847042 0.0130882934 0.0048482325
0.0273173358 0.0114582628 -0.0222639386
0.0228232034 0.0131019801 -0.0027575437
-0.0137671158 0.0078348685 -0.0167873669
0.0010075569 0.0121645182 -0.0010708440
0.0020393338 0.0120300092 -0.0011072699
0.0233210716 0.0075327065 -0.0151891578
0.0290271677 0.0046355873 -0.0249751527
0.0040859878 0.0108826160 -0.0011079106
0.0050896127 0.0108500049 -0.0011655856
0.0059790127 0.0108965486 -0.0012426544
0.0108698998 0.0117108114 -0.0015737209
0.0170550290 0.0131683089 -0.0019844715
-0.0060233921 0.0099120066 -0.0005327333
-0.0269744769 0.0119404122 0.0122197475
0.0069291890 0.0132447518 -0.0014378522
0.0199696403 0.0123677030 -0.0026586298
0.0199536663 0.0118874796 -0.0023983363
-0.0157974102 0.0128571242 -0.0012192074
-0.0150276572 0.0130127221 -0.0012655649
-0.0069237798 0.0099315122 -0.0004159380
0.0122576607 0.0073523521 -0.0218891148
0.0159551017 0.0081616789 -0.0098947901
0.0160501972 0.0129252225 -0.0019219983
-0.0109272003 0.0129107758 0.0001421329
-0.0156227425 0.0088727996 -0.0133514870
-0.0071664788 0.0106755011 -0.0005554575
-0.0000386480 0.0109108724 -0.0009478349
0.0310126208 0.0111878552 -0.0134556014
0.0069126450 0.0108617097 -0.0012817029
0.0079356097 0.0108546503 -0.0013422165
-0.0239606909 0.0111171491 -0.0229243431
0.0310544856 0.0079101808 -0.0242235903
-0.0214452818 0.0134892650 0.0105330404
0.0329919495 0.0082845856 -0.0241536740
0.0070778802 0.0076489877 -0.0121957827
0.0170262065 0.0109546743 -0.0018278826
0.0180533584 0.0110459588 -0.0019278545
0.0291534718 0.0136541575 0.0084559079
0.0299709961 0.0136703439 0.0086745527
0.0207097270 0.0106348135 -0.0025545154
0.0270077251 0.0116744936 -0.0221389923
0.0228229705 0.0133502036 -0.0027575437
-0.0255683474 0.0099650547 -0.0255436320
-0.0154772736 0.0083300993 -0.0087078530
-0.0099996543 0.0128977299 -0.0003016759
-0.0028907489 0.0135949962 -0.0009302814
-0.0010738038 0.0135779828 -0.0009849463
-0.0205886327 0.0080557652 -0.0218032245
-0.0032594372 0.0038344469 -0.0210041124
-0.0268188789 0.0126522928 0.0121885147
0.0069319773 0.0134949274 -0.0014612842
0.0274150204 0.0123239011 -0.0162980054
-0.0136789456 0.0137648806 0.0001004841
-0.0000289622 0.0119206533 -0.0010142121
-0.0132480972 0.0089985244 -0.0003493000
0.0328849070 0.0097889379 -0.0239591617
0.0160489008 0.0134256110 -0.0019219983
0.0170530584 0.0134195350 -0.0019688476
-0.0237683840 0.0110125095 -0.0250855107
-0.0138744786 0.0083228461 -0.0007506851
-0.0068983287 0.0031517856 -0.0169383306
-0.0070222691 0.0067899935 -0.0221535731
-0.0347662047 0.0137962885 0.0208614971
-0.0277146883 0.0131781325 0.0136253294
-0.0159532577 0.0088417605 -0.0088729579
0.0010012947 0.0129249021 -0.0010630134
-0.0180628598 0.0141857676 0.0051918235
-0.0176412053 0.0138287470 0.0040361192
0.0041015316 0.0118866451 -0.0012113992
-0.0239418186 0.0118860714 0.0117199924
0.0059014186 0.0118713938 -0.0013226960
0.0295324065 0.0124604292 0.0067535844
-0.0136550069 0.0140468031 0.0004128348
0.0243560784 0.0071938857 -0.0232166145
0.0271794461 0.0129662827 -0.0108630825
0.0320847556 0.0088964142 -0.0240568314
0.0199410003 0.0127650723 -0.0031792168
-0.0288562179 0.0140472390 0.0179045554
0.0277328696 0.0117412582 -0.0212331731
-0.0251666605 0.0144235753 0.0196537282
-0.0139957890 0.0137660913 -0.0010795239
0.0249688905 0.0071937293 -0.0232134853
0.0318380147 0.0105783045 -0.0239506457
-0.0079959668 0.0121180750 -0.0007289816
-0.0010720510 0.0133240893 -0.0009849463
-0.0258185156 0.0142979100 0.0176859107
0.0291957092 0.0126805082 -0.0145488400
-0.0250351839 0.0101544112 -0.0252898578
-0.0039282553 0.0119534433 -0.0008697379
0.0020325538 0.0131689087 -0.0011059809
0.0050047543 0.0118781738 -0.0012790877
-0.0221503042 0.0130754560 0.0115325805
0.0209804047 0.0080070514 -0.0072085578
0.0274102930 0.0131725818 -0.0111754332
0.0276275817 0.0114895776 -0.0218266416
-0.0249238648 0.0144905597 0.0206844863
0.0271865148 0.0130128451 -0.0131744836
0.0121368542 0.0110765137 -0.0016278792
-0.0134372003 0.0134817064 -0.0002118740
-0.0049926601 0.0109498985 -0.0007389504
-0.0249245167 0.0077890567 -0.0281257499
-0.0086694844 0.0122549534 -0.0006647874
0.0269793328 0.0127258748 -0.0167665351
0.0179368127 0.0059563275 -0.0231960732
0.0079825781 0.0077640377 -0.0120968763
0.0310959667 0.0099054128 -0.0238465238
-0.0120609887 0.0145812184 0.0008188915
0.0009939875 0.0139390118 -0.0010591093
-0.0161886849 0.0096223354 -0.0094731096
-0.0249205381 0.0107539147 -0.0237944666
-0.0039220415 0.0129674152 -0.0009205062
0.0284283888 0.0065478869 -0.0246846620
0.0131469499 0.0100077726 -0.0016487036
-0.0244835541 0.0110193267 -0.0178285334
0.0295769833 0.0136078745 -0.0057405028
-0.0140608139 0.0144461915 -0.0011255089
-0.0000391807 0.0139485300 -0.0010259245
-0.0198979117 0.0081489701 -0.0220453013
0.0269985721 0.0120047554 -0.0205147658
0.0073446184 0.0079096984 -0.0111442003
0.0254212637 0.0117409788 -0.0026794542
-0.0175282024 0.0125983693 0.0015060659
0.0210267138 0.0071903672 -0.0230239946
0.0300792046 0.0131001025 -0.0148924235
0.0030670688 0.0118964836 -0.0011352394
0.0079486202 0.0119807161 -0.0014482681
0.0089712329 0.0120973438 -0.0015276466
0.0099839792 0.0118410401 -0.0015471894
0.0300613511 0.0089028813 -0.0238769222
0.0200450160 0.0128941908 -0.0048034508
0.0329547599 0.0089698806 -0.0240577254
-0.0256433524 0.0135006048 0.0144999232
-0.0249067992 0.0138119906 0.0149372127
-0.0240359120 0.0141005069 0.0150309112
0.0180622041 0.0124105811 -0.0020703617
-0.0234378837 0.0140417069 0.0142500307
-0.0334882438 0.0121813901 0.0214341339
-0.0204903670 0.0120208412 0.0095647480
-0.0049601234 0.0129756778 -0.0009107459
-0.0239617303 0.0109315403 -0.0241484586
-0.0230944827 0.0112405121 -0.0246378127
0.0130243152 0.0108199939 -0.0016897041
-0.0221248865 0.0135634243 0.0115638133
-0.0028946288 0.0141037218 -0.0009302739
0.0292980168 0.0112921074 -0.0080206785
-0.0139929913 0.0120074078 -0.0012504552
0.0296748169 0.0120214522 -0.0002118740
-0.0079743378 0.0131324045 -0.0008296166
-0.0070527866 0.0129954256 -0.0008580256
-0.0206398815 0.0113670789 0.0076594111
0.0249508563 0.0042292997 -0.0224763323
0.0106091797 0.0144747645 -0.0015862230
-0.0109435283 0.0138637461 0.0000497233
-0.0308972690 0.0165136717 0.0149059650
0.0250469390 0.0117498077 -0.0025388990
-0.0198414735 0.0100886337 -0.0174849499
0.0049466863 0.0021240860 -0.0101993326
-0.0049639344 0.0139930770 -0.0009263624
0.0307729468 0.0109335855 -0.0139241312
-0.0112518780 0.0132476166 0.0004128348
0.0020249188 0.0139297508 -0.0010922942
-0.0079785548 0.0140252002 -0.0008417610
-0.0070602857 0.0140156113 -0.0008619297
0.0140282949 0.0099418610 -0.0016747359
-0.0106764771 0.0147547871 -0.0000556950
0.0180467907 0.0146708302 -0.0019376148
-0.0088921152 0.0140332058 -0.0008443613
-0.0295845121 0.0163229778 0.0094398167
-0.0239166394 0.0166218244 0.0138439741
-0.0282757245 0.0163093172 0.0095022824
-0.0204149075 0.0125653259 0.0093461033
-0.0191285945 0.0115348250 0.0058789905
0.0299580470 0.0109252445 -0.0102383737
0.0130333789 0.0118161812 -0.0017873067
0.0202049036 0.0129812919 -0.0044442434
-0.0294537582 0.0162441470 0.0119073894
-0.0140148774 0.0130319037 -0.0012153033
-0.0204612389 0.0045159459 -0.0215455238
-0.0088944361 0.0149262510 -0.0008651856
-0.0079853833 0.0149190351 -0.0008469690
0.0214833468 0.0078896452 -0.0030855108
0.0160420220 0.0148054659 -0.0018907655
-0.0106133968 0.0152750090 0.0000067782
-0.0089110844 0.0131453499 -0.0007558707
-0.0060053952 0.0129854791 -0.0008834172
-0.0249266885 0.0106638595 -0.0250555743
-0.0175204910 0.0151340179 0.0036612954
-0.0028888732 0.0133407190 -0.0009302814
-0.0019811112 0.0133327767 -0.0009511057
-0.0294656046 0.0164047442 0.0071596410
-0.0262442678 0.0169885866 0.0143749770
-0.0156406574 0.0083134808 -0.0092544649
-0.0119744428 0.0139129311 0.0005729254
-0.0112542659 0.0135061145 0.0004128348
-0.0103269778 0.0135652795 -0.0004305188
0.0269650146 0.0127233192 -0.0139866043
0.0313443467 0.0106580369 -0.0240183119
0.0102669969 0.0130158849 -0.0016174633
0.0297643188 0.0099364445 -0.0235758144
0.0138000641 0.0081333108 -0.0108630825
0.0140287280 0.0081495829 -0.0103633124
-0.0204894394 0.0130858347 0.0087526347
-0.0136577375 0.0143059418 0.0004128348
-0.0079904273 0.0154303163 -0.0008469839
-0.0070736036 0.0150381178 -0.0008482654
0.0149964569 0.0099626593 -0.0016714204
-0.0088988356 0.0154375620 -0.0008678082
0.0271856841 0.0132405162 -0.0131588671
0.0009896029 0.0069596004 -0.0223514009
-0.0339944065 0.0163910501 0.0202471968
0.0160378814 0.0151842348 -0.0018595252
