# .PCD v0.7 - Point Cloud Data file format
VERSION 0.7
FIELDS x y z
SIZE 4 4 4
TYPE F F F
COUNT 1 1 1
WIDTH 1187
HEIGHT 1
VIEWPOINT 0 0 0 1 0 0 0
POINTS 1187
DATA ascii
-0.0051449342 0.0108515657 -0.0019733927
-0.0045262380 0.0109147578 -0.0020254573
0.0065026199 0.0113185979 -0.0031280613
0.0156172896 0.0109238215 -0.0043680910
0.0153239453 0.0112811998 -0.0033373332
0.0150706647 0.0113109052 -0.0027907214
-0.0295192637 0.0113535672 0.0003289112
0.0242591370 0.0114555098 -0.0018692783
0.0208260100 0.0109973289 -0.0007135740
0.0209528953 0.0105464682 -0.0014632216
-0.0157247074 0.0114044659 -0.0009009859
-0.0073289135 0.0115625486 -0.0019629842
-0.0065589463 0.0115536489 -0.0020254573
-0.0055880928 0.0113370456 -0.0020488745
-0.0046136277 0.0113279596 -0.0021004102
-0.0573401973 0.0134335347 0.0349258147
-0.0105575072 0.0105658509 -0.0013429767
0.0234430023 0.0112725422 -0.0033592007
0.0240514670 0.0113718584 -0.0033998063
-0.0239441842 0.0105383582 0.0029364803
-0.0604769960 0.0143282935 0.0339575224
-0.0597252995 0.0142827183 0.0333015732
-0.0582820326 0.0142524429 0.0331453942
-0.0244578347 0.0114248581 0.0027089098
-0.0222234689 0.0117521845 -0.0009322262
-0.0216783658 0.0116300769 -0.0015132001
-0.0065607661 0.0095685478 -0.0014406687
0.0034841758 0.0063467268 -0.0006167463
0.0173926651 0.0056754053 -0.0015715009
-0.0155187333 0.0118910670 -0.0010571724
-0.0145726362 0.0118740760 -0.0012055284
-0.0135255614 0.0118568949 -0.0013445190
-0.0125007490 0.0118425526 -0.0014397970
-0.0585583895 0.0142237730 0.0325102918
-0.0561658293 0.0122575276 0.0358003937
-0.0028027508 0.0062967464 0.0002547109
-0.0011368345 0.0061239973 0.0001610124
0.0034697105 0.0106067248 -0.0026970229
-0.0074312696 0.0117711648 -0.0019838160
-0.0055651171 0.0117491148 -0.0021347797
-0.0045927735 0.0117397234 -0.0021816290
-0.0035182803 0.0114186592 -0.0022190979
-0.0296808556 0.0098147057 0.0002156624
0.0134461308 0.0072895214 -0.0018887988
0.0151585108 0.0078625251 -0.0014241806
0.0157289449 0.0113185234 -0.0045034532
0.0151564917 0.0116272494 -0.0026189259
-0.0195201673 0.0115804672 -0.0016369617
0.0206027310 0.0108648464 -0.0013070425
0.0217184387 0.0108520947 -0.0024127758
-0.0659776628 0.0138885155 0.0355192833
-0.0065507712 0.0117605738 -0.0020566902
0.0114417840 0.0105828233 -0.0032311326
0.0014347837 0.0084884968 -0.0018035120
-0.0569785237 0.0135758668 0.0348789506
-0.0095683979 0.0105380565 -0.0014241731
-0.0026538118 0.0073480867 -0.0005542806
-0.0250834674 0.0117225088 0.0021600628
-0.0105646709 0.0096461661 -0.0008524007
-0.0239893869 0.0115722679 0.0027379149
-0.0607756525 0.0146133564 0.0336139314
-0.0600097403 0.0145792887 0.0332078747
-0.0257905275 0.0125924461 0.0056584086
-0.0230210014 0.0116567612 0.0012854764
0.0142709995 0.0095132440 -0.0026007018
0.0153031917 0.0093278531 -0.0024939796
0.0035363000 0.0118119456 -0.0029687530
0.0206772685 0.0091697536 -0.0024783632
-0.0156153264 0.0121023618 -0.0010988137
-0.0611206144 0.0142531432 0.0323020481
-0.0606581569 0.0120749250 0.0376120321
0.0245361533 0.0119029693 0.0014416554
0.0254828017 0.0117308795 0.0018581206
0.0252176952 0.0115923546 0.0006295422
-0.0576552078 0.0144261606 0.0310526472
0.0024676782 0.0106430724 -0.0026126972
-0.0145533839 0.0120829679 -0.0012601933
-0.0136281149 0.0120680630 -0.0013695231
-0.0125991190 0.0120526031 -0.0014757162
-0.0080845403 0.0119864792 -0.0019629842
-0.0075345309 0.0119799264 -0.0020020327
-0.0045778574 0.0119444393 -0.0022378585
0.0233616158 0.0117106922 -0.0023651368
0.0205791350 0.0108013488 -0.0026189259
0.0224295389 0.0105609633 -0.0033810532
-0.0647374839 0.0138058551 0.0341761671
-0.0185946636 0.0106433220 -0.0012160561
-0.0575436056 0.0146909282 0.0305997413
-0.0581576526 0.0145062767 0.0323957615
-0.0065407129 0.0119670257 -0.0020941666
-0.0055572307 0.0119555965 -0.0021660125
-0.0034936171 0.0119322501 -0.0023190698
0.0104410565 0.0114933923 -0.0034029207
0.0114645055 0.0114889555 -0.0034263453
0.0124794738 0.0114880390 -0.0033919907
-0.0610035658 0.0128793977 0.0348321013
0.0202328227 0.0119810663 0.0012438276
0.0264612529 0.0116588175 0.0018320957
0.0273170043 0.0116302669 0.0012958923
-0.0015050124 0.0098997876 -0.0020410663
0.0044645509 0.0095837619 -0.0024613535
0.0054073026 0.0096318275 -0.0025632626
0.0064270673 0.0095978156 -0.0026739112
0.0268803444 0.0121783167 0.0033782402
0.0277418848 0.0121681578 0.0031908283
-0.0313482247 0.0133140236 0.0129882675
-0.0305624902 0.0133049563 0.0129986759
-0.0297693796 0.0132947452 0.0129882675
-0.0240963139 0.0121230520 0.0015665942
-0.0019537478 0.0079919286 -0.0020723066
-0.0075568119 0.0105040818 -0.0016805104
-0.0218897760 0.0124363825 -0.0001825786
-0.0145433182 0.0122931302 -0.0012914261
-0.0136152962 0.0122772865 -0.0014085642
-0.0125826234 0.0122606903 -0.0015256947
0.0114756916 0.0119916722 -0.0035247451
-0.0587421507 0.0136193708 0.0352850072
-0.0254317038 0.0128029920 0.0054085236
-0.0025546409 0.0115326457 -0.0023230037
0.0066796476 0.0050521623 0.0007232407
0.0086597539 0.0049086250 0.0007961297
0.0027454656 0.0120627433 -0.0029625094
0.0033570502 0.0114789009 -0.0028976446
-0.0115582133 0.0122448727 -0.0016350171
0.0274421908 0.0116042271 0.0008169466
-0.0024391066 0.0100372918 -0.0020046255
-0.0080862613 0.0121957064 -0.0019629842
-0.0075261788 0.0121870227 -0.0020332655
0.0226297136 0.0113837682 -0.0031811616
-0.0553113297 0.0124642141 0.0413915031
-0.0186966509 0.0115942881 -0.0014354682
-0.0065326160 0.0121737383 -0.0021253994
-0.0055470476 0.0121614933 -0.0022050610
-0.0045702560 0.0121504925 -0.0022690913
-0.0035934455 0.0121389739 -0.0023456162
0.0104511967 0.0119972713 -0.0034872687
0.0124886762 0.0119913146 -0.0034810177
0.0134854959 0.0115934089 -0.0032798594
0.0074723726 0.0095920414 -0.0027463755
0.0094429338 0.0094215292 -0.0027876070
0.0094508389 0.0099282097 -0.0029937571
0.0103943804 0.0099823382 -0.0030374771
0.0124089131 0.0097891986 -0.0030093736
0.0131499739 0.0098763406 -0.0029781333
0.0146973403 0.0099179558 -0.0031421131
0.0156553704 0.0093894843 -0.0033748171
0.0273427125 0.0122067146 0.0077043157
0.0181009844 0.0092288721 -0.0038605279
0.0004475054 0.0109691732 -0.0024666509
-0.0145241516 0.0125016719 -0.0013460836
-0.0135995382 0.0124858767 -0.0014554134
-0.0125753814 0.0124702118 -0.0015506840
-0.0045590447 0.0123556517 -0.0023128262
-0.0035861328 0.0123446025 -0.0023768491
-0.0026196453 0.0122309700 -0.0024283922
-0.0015374038 0.0122172646 -0.0025345853
-0.0005694150 0.0122056641 -0.0026228225
0.0004021407 0.0122953653 -0.0027438647
0.0014708706 0.0122823678 -0.0028500652
0.0085396087 0.0099895820 -0.0029833338
0.0022180167 0.0122730099 -0.0029312766
0.0103505924 0.0093394071 -0.0028460941
-0.0115460912 0.0124530308 -0.0016740581
-0.0082999812 0.0124060996 -0.0019733927
-0.0075228931 0.0123950243 -0.0020488820
-0.0065264748 0.0123807527 -0.0021503961
0.0205395129 0.0087889824 -0.0014632216
0.0217810404 0.0063073616 -0.0014736301
-0.0304606818 0.0098431613 0.0001922452
-0.0614468008 0.0148952417 0.0278978925
-0.0614361614 0.0147928074 0.0286397170
-0.0296538882 0.0135403238 0.0130142998
-0.0294672549 0.0110196657 0.0002391019
-0.0285125449 0.0105376989 0.0001468041
-0.0214129090 0.0118898228 -0.0021920449
-0.0673436224 0.0145418011 0.0359565727
0.0254651178 0.0111523047 -0.0037246516
0.0146669568 0.0122274496 -0.0028688035
-0.0315002948 0.0135639198 0.0130221080
-0.0055392375 0.0123677589 -0.0022362939
-0.0560407862 0.0149357505 0.0253678393
-0.0634571239 0.0147391185 0.0296470504
-0.0627103001 0.0136786066 0.0321458690
-0.0616103858 0.0137782246 0.0315003507
0.0155028673 0.0098252390 -0.0041884873
-0.0145050557 0.0127100162 -0.0014007560
-0.0135868201 0.0126948245 -0.0014944545
-0.0125612551 0.0126784109 -0.0015944114
-0.0636565462 0.0142528303 0.0314899348
-0.0045533283 0.0125618950 -0.0023378080
-0.0035810254 0.0125506483 -0.0024002811
-0.0026090785 0.0125388615 -0.0024752414
-0.0015289083 0.0125249811 -0.0025751984
-0.0005606029 0.0125127211 -0.0026657826
0.0004068681 0.0124999173 -0.0027688539
0.0014754117 0.0124865472 -0.0028750470
-0.0587317646 0.0122563243 0.0389863811
-0.0056003751 0.0105737336 -0.0018453842
-0.0025610949 0.0106162578 -0.0021485484
-0.0016098886 0.0106809698 -0.0022216162
-0.0005153983 0.0109779201 -0.0023909083
-0.0627119541 0.0145748295 0.0295533519
0.0264739189 0.0111496821 -0.0037871248
0.0242677126 0.0119146965 0.0007232407
-0.0084052915 0.0126154833 -0.0019864088
-0.0075196484 0.0126029924 -0.0020644984
-0.0065204306 0.0125876963 -0.0021753928
-0.0055338116 0.0125744417 -0.0022597185
-0.0524248406 0.0145646930 0.0201827865
0.0041488102 0.0059047118 -0.0000107905
-0.0550040379 0.0149102025 0.0252428930
-0.0234917700 0.0127764009 0.0027847642
-0.0085487785 0.0105620548 -0.0015807247
0.0153257260 0.0117877834 -0.0033685735
-0.0614146963 0.0145067424 0.0304250997
0.0083983839 0.0124153011 -0.0034372753
0.0003988959 0.0116996877 -0.0026436693
0.0236289687 0.0125405639 0.0022537687
0.0237376709 0.0122817643 0.0015353614
-0.0065672686 0.0105490424 -0.0017883501
-0.0272098519 0.0066271424 0.0000360662
0.0044108713 0.0106534846 -0.0027873388
0.0053988481 0.0105428174 -0.0028286672
0.0064084949 0.0103591587 -0.0028714186
0.0070845513 0.0102020614 -0.0029000437
0.0084082214 0.0106251910 -0.0031087494
0.0093866261 0.0106936358 -0.0031671098
0.0114846034 0.0123930946 -0.0036038628
0.0203162581 0.0092166644 -0.0009946919
-0.0616588742 0.0136854872 0.0326268934
0.0180591606 0.0118951052 -0.0048678610
-0.0255904235 0.0075967573 -0.0001096970
-0.0621454865 0.0153266825 0.0276792329
-0.0613966063 0.0152708031 0.0274606030
-0.0115371281 0.0086110048 -0.0005677885
0.0014073637 0.0108575039 -0.0025418869
-0.0291451216 0.0125550218 0.0085008126
0.0274699703 0.0127993003 0.0081259813
0.0104582086 0.0124002621 -0.0035476333
0.0296464693 0.0128234215 0.0084695797
-0.0035760112 0.0127566345 -0.0024237058
0.0204560887 0.0125754848 0.0005601177
-0.0245332941 0.0121777579 0.0024880299
0.0219281968 0.0129163079 0.0014416554
0.0221405588 0.0129183419 0.0014728883
-0.0601911172 0.0161178075 0.0339887552
-0.0247563720 0.0137156434 0.0055022296
-0.0311182141 0.0142975934 0.0130299237
-0.0271932073 0.0090230834 0.0000204497
-0.0179013349 0.0131281503 -0.0020566902
-0.0095598372 0.0115913153 -0.0017380884
-0.0026002869 0.0128469542 -0.0025158396
-0.0085756229 0.0115616396 -0.0018250367
0.0213355701 0.0114879459 -0.0003153256
0.0084017189 0.0128208101 -0.0034685305
-0.0145982960 0.0131311007 -0.0014569780
-0.0135645391 0.0131128840 -0.0015647358
-0.0128790149 0.0131010413 -0.0016350171
-0.0144951539 0.0129197873 -0.0014319888
-0.0508670211 0.0149168186 0.0177152064
-0.0265800357 0.0139648281 0.0089068692
-0.0277434736 0.0124949813 0.0076886993
-0.0270380080 0.0126962028 0.0072514024
-0.0263124406 0.0127613991 0.0065017622
-0.0005619663 0.0115737803 -0.0025142154
-0.0625844896 0.0157598779 0.0275699180
-0.0616725534 0.0157194324 0.0272107106
-0.0606555343 0.0155220702 0.0276524704
-0.0310834348 0.0104923211 0.0003484169
0.0264501926 0.0126903243 0.0082196947
-0.0114999907 0.0093508158 -0.0007819033
0.0055484092 0.0110232458 -0.0029781333
0.0104639949 0.0128035061 -0.0035997129
0.0083816545 0.0116072930 -0.0033135882
-0.0146029191 0.0105724446 -0.0007812402
0.0204769075 0.0130512714 0.0002984384
-0.0045674210 0.0104008690 -0.0018731749
-0.0038075733 0.0102904737 -0.0019213355
-0.0311066210 0.0145414248 0.0129986834
-0.0235141031 0.0134438425 0.0033313835
-0.0305806845 0.0129717104 0.0114265066
-0.0301822461 0.0126529038 0.0100938063
0.0222997125 0.0117776357 -0.0016506335
-0.0605296642 0.0159843415 0.0272315275
0.0084028291 0.0130237378 -0.0034810177
-0.0145909535 0.0133411810 -0.0014819673
-0.0135549540 0.0133220367 -0.0015959761
-0.0125330249 0.0133048631 -0.0016881099
-0.0075101340 0.0132267252 -0.0021113476
-0.0265388675 0.0077271704 -0.0000241643
0.0033744213 0.0120575465 -0.0029937497
0.0042329477 0.0112779289 -0.0029187819
0.0123892855 0.0085617341 -0.0025777167
-0.0273012333 0.0142789893 0.0099064019
0.0155361639 0.0087719876 -0.0022128692
-0.0263078585 0.0141570456 0.0083134007
0.0094152112 0.0115999952 -0.0033773130
-0.0035710137 0.0129625574 -0.0024471304
-0.0005538117 0.0128201060 -0.0027009121
0.0180615187 0.0124921165 -0.0049199257
-0.0237664357 0.0046416186 0.0034367943
-0.0303693973 0.0113464780 0.0004358867
-0.0284958072 0.0113758035 0.0002755278
-0.0186247118 0.0125506930 -0.0016144610
-0.0093898932 0.0132544376 -0.0019629842
-0.0085079791 0.0132422559 -0.0020192137
-0.0065121846 0.0132103860 -0.0022191203
-0.0055225315 0.0131952576 -0.0023143834
-0.0045364769 0.0131802186 -0.0024127758
-0.0035638388 0.0131678507 -0.0024783632
0.0104133189 0.0105877221 -0.0031849092
-0.0305093825 0.0130377151 0.0126238596
0.0124591356 0.0105817094 -0.0032011515
0.0133962380 0.0106345452 -0.0030636585
0.0145396302 0.0106581673 -0.0030562303
0.0150656411 0.0105986036 -0.0034622794
0.0208149869 0.0105518922 -0.0035872182
-0.0623101145 0.0148451738 0.0284392964
-0.0559866875 0.0152091719 0.0252741259
-0.0285722651 0.0098025184 0.0001516321
0.0151910605 0.0125689320 -0.0032498783
-0.0621885359 0.0126894638 0.0334733687
-0.0615318492 0.0159889869 0.0269920658
0.0084039215 0.0132266469 -0.0034935123
0.0004124430 0.0128070377 -0.0028000942
-0.0145811820 0.0135507211 -0.0015132001
-0.0135513814 0.0135322697 -0.0016115925
-0.0125307227 0.0135149024 -0.0017006046
-0.0086155990 0.0134522170 -0.0020254573
-0.0076170051 0.0134361573 -0.0021191558
0.0180633347 0.0129894838 -0.0049615670
0.0233531538 0.0123621859 0.0005462447
-0.0268331543 0.0144783445 0.0094378721
-0.0252644233 0.0140259191 0.0065954681
0.0213216376 0.0134445466 0.0043933820
-0.0015212658 0.0128327087 -0.0026126674
-0.0255845338 0.0090068951 -0.0001409298
-0.0624770969 0.0162885003 0.0268983524
-0.0613000989 0.0162795447 0.0271326285
-0.0608746484 0.0162780657 0.0272419434
-0.0015596196 0.0116023049 -0.0024346581
0.0014494855 0.0116711110 -0.0027426353
0.0024429199 0.0116116889 -0.0028361029
0.0065343631 0.0108435862 -0.0030297956
0.0114924600 0.0128960088 -0.0036778024
0.0124990409 0.0125943720 -0.0035834482
-0.0115711587 0.0105767362 -0.0012570566
-0.0273396261 0.0095570032 0.0000152418
-0.0265408345 0.0095665082 -0.0000594801
0.0150624970 0.0118268505 -0.0027126318
0.0142807467 0.0126215555 -0.0031061938
-0.0166173726 0.0106442459 -0.0005841574
-0.0626498014 0.0131509826 0.0336451642
0.0084050195 0.0134295449 -0.0035060069
-0.0284504890 0.0124981441 0.0075949933
-0.0078084813 0.0116380341 -0.0019213355
-0.0068026436 0.0111430846 -0.0019213355
0.0177304726 0.0129566826 -0.0049615595
0.0018274107 0.0129306801 -0.0029687530
0.0024631203 0.0127232298 -0.0030076376
0.0113992859 0.0092710331 -0.0028781837
0.0124613550 0.0092965662 -0.0028830117
0.0205829013 0.0102863014 -0.0065025035
0.0246333443 0.0124672465 0.0083134007
0.0254288763 0.0126946308 0.0083008911
-0.0531366840 0.0154547729 0.0212760177
-0.0315584987 0.0144325010 0.0131158214
-0.0035630602 0.0134782642 -0.0024900755
-0.0025920521 0.0133617707 -0.0025606325
-0.0015163373 0.0133474395 -0.0026460087
-0.0005486112 0.0133338608 -0.0027360565
0.0004190404 0.0133194402 -0.0028417504
0.0180628579 0.0132896788 -0.0049615670
0.0145952133 0.0116513446 -0.0028167611
-0.0553728044 0.0149815977 0.0263361316
-0.0618755147 0.0138983838 0.0308652353
0.0044594323 0.0117322803 -0.0030265546
0.0054656630 0.0116312653 -0.0030999503
0.0065145409 0.0118252039 -0.0032061508
-0.0245260634 0.0128527991 0.0045027118
-0.0165785477 0.0125141665 -0.0010286591
-0.0603828952 0.0154996067 0.0311151128
-0.0205024816 0.0115729272 -0.0016539192
-0.0585658848 0.0153278746 0.0288037043
0.0294656139 0.0136876740 0.0084456708
0.0134999556 0.0133122504 -0.0034560210
-0.0286961086 0.0152355358 0.0128737446
-0.0035601582 0.0137880929 -0.0025096035
0.0173610318 0.0125841759 -0.0049069021
-0.0277348645 0.0127568282 0.0081884619
0.0033903748 0.0126670897 -0.0030849522
0.0138042988 0.0103378203 -0.0028922281
0.0143000288 0.0105738938 -0.0028830117
0.0254295282 0.0136069171 0.0083134081
0.0264508426 0.0136008263 0.0082150083
-0.0272872709 0.0104996525 0.0000168511
0.0207642559 0.0142371133 0.0046901163
-0.0025896828 0.0137746371 -0.0025814420
-0.0015135359 0.0137594417 -0.0026689044
-0.0005457650 0.0137451477 -0.0027594811
0.0004211694 0.0137301944 -0.0028625599
0.0303678904 0.0127475001 0.0083290171
0.0376685150 0.0166462436 0.0372215919
0.0164787062 0.0125634857 -0.0048556123
-0.0286381096 0.0138585120 0.0130715650
-0.0136336209 0.0103545003 -0.0008510149
-0.0606425852 0.0148971938 0.0333952866
-0.0593425333 0.0146737061 0.0324113630
-0.0116039002 0.0116208568 -0.0014929047
-0.0105782682 0.0116058029 -0.0016181564
0.0214289520 0.0131379068 0.0015561858
0.0221360661 0.0131491721 0.0017227733
0.0276061427 0.0119084902 0.0024411806
-0.0035597316 0.0139950477 -0.0025174117
-0.0519516692 0.0150750764 0.0199016687
-0.0165921189 0.0115911774 -0.0008767045
-0.0161130540 0.0119018592 -0.0009634590
0.0254303999 0.0142932050 0.0083446335
-0.0145717533 0.0141828954 -0.0015569276
-0.0135380113 0.0141621940 -0.0016662499
-0.0125170583 0.0141434260 -0.0017568341
-0.0114988657 0.0141245127 -0.0018536693
-0.0102644460 0.0141026340 -0.0019629842
0.0254645683 0.0107466057 -0.0037475547
-0.0640757084 0.0140210055 0.0326456390
-0.0085102404 0.0129292905 -0.0020035899
0.0074471561 0.0069417078 -0.0013257808
0.0024483644 0.0135976784 -0.0030698872
0.0034036760 0.0135837980 -0.0031733459
0.0273397490 0.0135965385 0.0081407707
0.0376683883 0.0170793086 0.0372059755
0.0147665096 0.0127396546 -0.0028531870
0.0150790056 0.0127346404 -0.0029156602
-0.0065162694 0.0128990635 -0.0021972603
-0.0055281231 0.0128848888 -0.0022870547
-0.0045448737 0.0128711276 -0.0023752919
0.0013285980 0.0127803832 -0.0028911179
-0.0311146677 0.0140514784 0.0130299237
-0.0025879934 0.0139808953 -0.0025939366
0.0151847834 0.0132817216 -0.0033477491
0.0004212048 0.0139359012 -0.0028688035
-0.0145744244 0.0143948123 -0.0015569276
-0.0135375978 0.0143729709 -0.0016740581
-0.0125149386 0.0143533833 -0.0017693287
-0.0114956098 0.0143337734 -0.0018692857
-0.0103752175 0.0143138841 -0.0019629842
-0.0095936591 0.0142999925 -0.0020317009
-0.0086033577 0.0142851137 -0.0020879230
-0.0076070884 0.0142679922 -0.0021753779
-0.0173396729 0.0115628652 -0.0008732250
-0.0075148502 0.0129148886 -0.0020879305
-0.0258494690 0.0136530958 0.0078761112
0.0024471239 0.0141106211 -0.0030796474
0.0030848451 0.0141006447 -0.0031499213
-0.0305121019 0.0136128627 0.0130221155
-0.0295035988 0.0139349885 0.0130736437
-0.0633256063 0.0170786902 0.0256645661
-0.0625574961 0.0170682222 0.0257634651
0.0264511500 0.0142833777 0.0082040783
0.0273580197 0.0142784305 0.0081259888
-0.0025880735 0.0141876638 -0.0026001802
-0.0015086744 0.0141707137 -0.0027001372
-0.0005430139 0.0141563900 -0.0027829132
0.0380778275 0.0167059973 0.0371747427
0.0044422364 0.0126557276 -0.0031699187
0.0054858243 0.0126462691 -0.0032311326
0.0064252233 0.0126369856 -0.0033014065
0.0135269491 0.0138075687 -0.0034286326
0.0144527862 0.0137583800 -0.0031097701
0.0155877071 0.0135687701 -0.0047704820
0.0204790011 0.0133633949 0.0002359578
-0.0297955424 0.0137885623 0.0130299237
-0.0289213657 0.0136958398 0.0130299237
0.0142594455 0.0115117989 -0.0030533767
0.0379534103 0.0156332254 0.0372059755
-0.0627801865 0.0155091286 0.0281165373
-0.0231919996 0.0117433593 -0.0013070425
-0.0611584485 0.0159935318 0.0271794777
-0.0602032319 0.0109761395 0.0420786701
-0.0007316403 0.0092882663 -0.0019161350
-0.0095959837 0.0145098232 -0.0020317009
0.0272896197 0.0121346153 0.0026285925
-0.0099425474 0.0133668594 -0.0019317514
-0.0095782997 0.0137948804 -0.0019942021
-0.0086059468 0.0138678811 -0.0020670912
-0.0539831445 0.0122881904 0.0372372083
0.0015945297 0.0142267309 -0.0029898456
0.0024474461 0.0143155158 -0.0030874556
0.0034007013 0.0143012665 -0.0031811616
-0.0304884501 0.0139398314 0.0130611565
0.0158527847 0.0125037432 -0.0048053879
0.0158597287 0.0140979327 -0.0049303342
-0.0608292371 0.0156863071 0.0269452017
0.0216651559 0.0132879615 0.0037218237
0.0094298534 0.0126107559 -0.0034997484
-0.0305097215 0.0145782866 0.0131043848
-0.0294383205 0.0145999715 0.0131615456
-0.0622353703 0.0173099376 0.0252845418
-0.0618682876 0.0176731758 0.0257051867
-0.0618080944 0.0176967755 0.0245494675
-0.0280409046 0.0141555220 0.0114993956
0.0381013080 0.0176570043 0.0371695422
-0.0616221875 0.0146239027 0.0296515059
-0.0216415115 0.0108767562 -0.0011821038
-0.0076116370 0.0138520189 -0.0021483100
-0.0065294830 0.0137132481 -0.0022506660
0.0207674261 0.0146687627 0.0045755859
0.0209811646 0.0146856755 0.0047838222
-0.0015102446 0.0139648356 -0.0026876500
-0.0005433715 0.0139504597 -0.0027751049
0.0011810001 0.0133995749 -0.0029278120
0.0135469856 0.0143310018 -0.0034466556
0.0144818658 0.0143210068 -0.0031290969
0.0155085986 0.0142206065 -0.0048455466
-0.0115323598 0.0128709078 -0.0017235077
0.0153468484 0.0145113505 -0.0048053879
-0.0600308776 0.0157364272 0.0279915910
0.0274815708 0.0107434392 -0.0038433394
0.0044046631 0.0082762502 -0.0018553904
-0.0617617145 0.0180722699 0.0243214499
0.0234438516 0.0107569620 -0.0035226515
0.0210239664 0.0146111026 0.0052289274
0.0036135309 0.0140929855 -0.0032019860
0.0044505587 0.0136748701 -0.0032398796
0.0054934854 0.0136642568 -0.0032998493
0.0136633618 0.0146651492 -0.0031186885
0.0149089480 0.0146420300 -0.0033373332
0.0381007493 0.0182340480 0.0371435098
-0.0592825264 0.0157145560 0.0325519256
-0.0155792767 0.0106032640 -0.0006931818
-0.0091717513 0.0130427517 -0.0019629842
-0.0095588462 0.0126314126 -0.0018942526
-0.0087456079 0.0123229474 -0.0019272810
0.0385221206 0.0182246380 0.0370185636
0.0153149264 0.0147433244 -0.0044618044
-0.0145734334 0.0152400397 -0.0015881604
-0.0135336006 0.0152154937 -0.0017130992
-0.0125115374 0.0151942968 -0.0018068126
-0.0116034197 0.0151748173 -0.0019005185
-0.0111453505 0.0151637606 -0.0019629842
-0.0105939591 0.0151551254 -0.0019864088
-0.0095839733 0.0151343942 -0.0020879230
-0.0085866014 0.0151162036 -0.0021660125
-0.0078150751 0.0151026435 -0.0022232777
0.0213823095 0.0138117597 0.0064236652
0.0084047969 0.0138364658 -0.0035164005
0.0288444888 0.0139547624 0.0083446410
-0.0293087922 0.0152999870 0.0136233922
0.0302311573 0.0134075359 0.0083446335
0.0145734036 0.0135457888 -0.0028757474
-0.0614016801 0.0181365386 0.0252428930
-0.0616208464 0.0183207951 0.0248290282
-0.0607824475 0.0183686130 0.0248056035
0.0163832065 0.0135830157 -0.0049095023
0.0151911220 0.0085068010 -0.0015061742
0.0131233511 0.0148123503 -0.0037746301
0.0376797803 0.0185334459 0.0372684561
0.0381018482 0.0185237639 0.0371435098
-0.0613147765 0.0143679939 0.0344728939
0.0104658389 0.0130055286 -0.0036184511
-0.0301997811 0.0150216967 0.0130142998
-0.0296671242 0.0150129907 0.0129986834
0.0386647023 0.0185118653 0.0369873308
0.0148960771 0.0150616132 -0.0032123944
0.0153385838 0.0149203651 -0.0047273058
0.0162948500 0.0144074745 -0.0049218107
-0.0565185174 0.0159319751 0.0276167672
-0.0005437105 0.0146718025 -0.0027965924
-0.0045322338 0.0136975609 -0.0024424663
-0.0275272243 0.0133914798 0.0109683927
0.0213976465 0.0137640722 0.0057677310
-0.0095843310 0.0153436996 -0.0020941666
-0.0085838446 0.0153242499 -0.0021816364
0.0073727528 0.0136416741 -0.0034635162
0.0094353920 0.0136242062 -0.0035647100
-0.0622493923 0.0185846202 0.0244073477
-0.0614869520 0.0186530016 0.0246181842
0.0168629792 0.0137925036 -0.0049615670
-0.0537656769 0.0150161013 0.0227753129
-0.0316051655 0.0139224343 0.0131102409
0.0014814094 0.0151551627 -0.0029812625
-0.0075602876 0.0147312768 -0.0022183678
-0.0066057304 0.0146648884 -0.0023065528
-0.0056193108 0.0146479793 -0.0023915491
-0.0035582844 0.0146158412 -0.0025424233
-0.0025866337 0.0147041157 -0.0026220626
-0.0015072923 0.0146862082 -0.0027220121
0.0004200854 0.0145534575 -0.0028838164
0.0010601461 0.0142353922 -0.0029312766
-0.0612286925 0.0186155662 0.0209324341
0.0134995887 0.0126015358 -0.0034347794
-0.0624799579 0.0173934735 0.0244307797
-0.0616600066 0.0166406743 0.0265973639
-0.0607773811 0.0165516101 0.0270857643
0.0147961425 0.0152633004 -0.0032436273
0.0180644654 0.0134874322 -0.0049927998
0.0162574518 0.0150997639 -0.0049303342
-0.0105923647 0.0154691450 -0.0020020327
0.0206173975 0.0140623376 0.0024411806
0.0084048742 0.0146501176 -0.0035422242
0.0094361696 0.0146398135 -0.0036009422
0.0104696117 0.0146269128 -0.0036933965
0.0115006976 0.0146138221 -0.0037921018
0.0125195272 0.0146078467 -0.0038145802
0.0131261321 0.0150126629 -0.0038058630
0.0376777351 0.0188205577 0.0372372083
0.0381061956 0.0188164376 0.0371747427
0.0387178697 0.0189009681 0.0370185636
0.0157044455 0.0147331916 -0.0050053019
0.0166776814 0.0147780180 -0.0049641673
-0.0618811101 0.0184933133 0.0225722697
-0.0624939948 0.0160205737 0.0271794777
-0.0045297844 0.0146300606 -0.0024802706
0.0033979018 0.0147118457 -0.0031811616
0.0044477833 0.0145959072 -0.0032545573
0.0055196183 0.0146497227 -0.0033264703
0.0131253870 0.0152158514 -0.0038058630
0.0376819745 0.0191135332 0.0372684561
0.0382543281 0.0191089027 0.0371955745
-0.0617291406 0.0185055435 0.0216508415
-0.0606070831 0.0166669451 0.0267421734
-0.0599226058 0.0162296258 0.0268046539
-0.0264331773 0.0112384483 0.0000110769
0.0146819102 0.0154800452 -0.0031186885
0.0151312733 0.0152287669 -0.0046648327
0.0162569303 0.0153004564 -0.0049303342
-0.0617470518 0.0174923390 0.0266241860
0.0206910167 0.0149079971 0.0035031789
0.0205288231 0.0146719776 0.0025036463
0.0156698115 0.0118394531 -0.0045305137
0.0164464545 0.0115072317 -0.0046929512
0.0131281419 0.0154160596 -0.0038370958
0.0376893580 0.0194097310 0.0373309217
-0.0620218217 0.0191718899 0.0239310097
-0.0619642437 0.0190606825 0.0226659905
0.0174894650 0.0137250870 -0.0049724299
0.0024439257 0.0147269741 -0.0030848479
-0.0145751880 0.0138665810 -0.0015381894
-0.0115106674 0.0136019737 -0.0018048531
0.0382609591 0.0194039829 0.0372476391
0.0388164483 0.0193841644 0.0370185636
0.0391062051 0.0193854012 0.0370185636
0.0149584645 0.0156067275 -0.0038995689
-0.0005483355 0.0154978856 -0.0028063527
0.0074474765 0.0116146542 -0.0032467491
-0.0105415666 0.0126287229 -0.0018003082
-0.0274921358 0.0146872289 0.0105779599
0.0405182242 0.0167686008 0.0367999189
0.0125222653 0.0154158138 -0.0038641563
0.0131273689 0.0156192742 -0.0038370958
0.0152494768 0.0155102462 -0.0048678610
0.0166601073 0.0153957270 -0.0049719755
0.0174626987 0.0146903954 -0.0049903113
-0.0237680562 0.0036168583 0.0034262815
-0.0065234257 0.0156176314 -0.0023328534
-0.0055453749 0.0155641995 -0.0024186692
-0.0045350706 0.0155650564 -0.0024940020
-0.0035594429 0.0155481249 -0.0025701320
-0.0025896642 0.0155322440 -0.0026392511
-0.0015126269 0.0155137107 -0.0027298203
0.0004134451 0.0154819787 -0.0028875640
0.0010487691 0.0156788863 -0.0029312766
-0.0135446349 0.0138472654 -0.0016389212
-0.0005549311 0.0160158761 -0.0027985296
0.0004074716 0.0159990229 -0.0028812981
0.0073660156 0.0126263164 -0.0033960512
-0.0183524936 0.0162476227 -0.0016298092
-0.0618752092 0.0178327672 0.0236186590
0.0171615612 0.0132936276 -0.0049303342
-0.0618866906 0.0176060125 0.0274606030
-0.0213598125 0.0096853562 -0.0004428721
0.0166601483 0.0156956725 -0.0049823914
-0.0604744852 0.0195934474 0.0228533950
-0.0600391775 0.0195885114 0.0229314845
-0.0045423927 0.0160861872 -0.0024877361
-0.0035685978 0.0160691813 -0.0025564602
-0.0025951683 0.0160512999 -0.0026376715
-0.0015203159 0.0160328001 -0.0027188829
0.0010461446 0.0159885027 -0.0029312766
0.0024365571 0.0155504867 -0.0030796474
0.0033909448 0.0155340508 -0.0031761623
0.0044408245 0.0155193023 -0.0032511225
0.0054600546 0.0155603550 -0.0033330789
-0.0096733691 0.0092941020 -0.0008044413
-0.0089465762 0.0093055628 -0.0009322262
-0.0619510114 0.0192741714 0.0219319593
0.0104702441 0.0136119314 -0.0036671630
0.0114980452 0.0136022232 -0.0037408716
0.0125114871 0.0136005469 -0.0037158898
0.0263910927 0.0118810609 0.0026077682
-0.0196298026 0.0163343959 -0.0020488745
-0.0188262016 0.0163170062 -0.0020914024
-0.0179512575 0.0165184662 -0.0020566902
-0.0605088100 0.0185890049 0.0241496619
0.0165598001 0.0158963762 -0.0049849916
0.0174618214 0.0155911855 -0.0050052870
0.0293042939 0.0143033154 0.0084175151
0.0138380649 0.0147919990 -0.0028375706
-0.0625359342 0.0167795122 0.0263933968
0.0155372666 0.0154457688 -0.0050045121
0.0015517112 0.0156514384 -0.0029845706
-0.0125215212 0.0138287134 -0.0017349592
-0.0621213317 0.0189066567 0.0240871888
-0.0615857020 0.0189283937 0.0245088618
0.0244552493 0.0108518414 -0.0036559349
-0.0615312085 0.0201443247 0.0224629547
-0.0607995167 0.0201347806 0.0225879010
-0.0105071785 0.0147809349 -0.0019803366
-0.0621571019 0.0191511698 0.0236498918
-0.0614192560 0.0192912854 0.0244099554
-0.0607441366 0.0153543763 0.0285850596
-0.0209108926 0.0118916109 -0.0020566902
-0.0308818482 0.0155290887 0.0164033230
-0.0642863885 0.0145540200 0.0313962214
-0.0612197220 0.0143317096 0.0315086804
-0.0217109732 0.0104690604 -0.0006927496
0.0166607071 0.0160949379 -0.0050032157
0.0174620096 0.0160907768 -0.0050240401
0.0181018095 0.0157691278 -0.0050177965
0.0154667487 0.0160907246 -0.0050761048
-0.0065095471 0.0163323171 -0.0023315495
-0.0055262754 0.0163136497 -0.0024054891
-0.0045476770 0.0163993388 -0.0024814850
-0.0035697005 0.0163803734 -0.0025642610
-0.0025991767 0.0163631476 -0.0026345423
-0.0015233464 0.0163437948 -0.0027188680
-0.0005618117 0.0163280331 -0.0027829132
0.0004046869 0.0163090564 -0.0028813055
0.0010434419 0.0162982382 -0.0029312766
0.0015773487 0.0162880085 -0.0029859415
0.0275696646 0.0112070069 -0.0038147962
0.0280896034 0.0112513788 -0.0038058630
-0.0151377702 0.0120929927 -0.0011821038
-0.0107949758 0.0143476054 -0.0019278398
-0.0005647845 0.0166386999 -0.0027829132
0.0004018426 0.0166191943 -0.0028812981
0.0202357173 0.0169366524 0.0010355988
-0.0015264458 0.0166548900 -0.0027188829
0.0164993834 0.0162570812 -0.0049928073
0.0174615458 0.0162914582 -0.0050240401
0.0181601383 0.0162915811 -0.0050084163
-0.0195654482 0.0098657310 -0.0010710380
-0.0188640021 0.0098969452 -0.0010415486
-0.0065165376 0.0167511515 -0.0023253134
-0.0055326866 0.0167316757 -0.0024002811
-0.0045511825 0.0167119540 -0.0024814850
-0.0035708479 0.0166916214 -0.0025720766
-0.0026032596 0.0166751072 -0.0026314131
0.0010406834 0.0166080780 -0.0029312766
0.0015746572 0.0165975653 -0.0029859415
0.0024281808 0.0163750686 -0.0030718392
0.0033848167 0.0163563788 -0.0031769967
0.0044354694 0.0163402744 -0.0032540357
0.0054837232 0.0163239650 -0.0033373332
-0.0159543753 0.0156554766 -0.0041556973
-0.0145726288 0.0148171373 -0.0015756658
-0.0135360071 0.0147943459 -0.0016922748
-0.0125821913 0.0147588849 -0.0017827845
-0.0115738930 0.0147697926 -0.0018826595
-0.0105894776 0.0158875734 -0.0020254573
0.0003984172 0.0168267116 -0.0028750470
0.0015728243 0.0168040022 -0.0029859415
-0.0111492733 0.0156893358 -0.0019707924
0.0201292671 0.0171502419 0.0010355988
0.0152815776 0.0158393607 -0.0047928933
-0.0208910070 0.0121760815 -0.0020254573
-0.0192798302 0.0129389018 -0.0019629842
-0.0265974179 0.0115430653 0.0000896060
-0.0256991163 0.0117239095 0.0001699307
-0.0243512355 0.0118568055 0.0006295347
0.0216779951 0.0114739314 -0.0015413112
0.0144368419 0.0147178806 -0.0028264320
0.0224935580 0.0116489716 -0.0025525561
-0.0065210732 0.0169610232 -0.0023190698
-0.0055351732 0.0169405080 -0.0024002811
-0.0045535779 0.0169204362 -0.0024814850
-0.0035731464 0.0168997385 -0.0025720766
-0.0026054743 0.0168829337 -0.0026314131
-0.0015285581 0.0168623552 -0.0027188829
-0.0005668111 0.0168458782 -0.0027829132
0.0010388040 0.0168147050 -0.0029312766
0.0024229914 0.0167881437 -0.0030640310
0.0033823766 0.0167674460 -0.0031811616
0.0044327704 0.0167509802 -0.0032561219
0.0054795919 0.0167349838 -0.0033310896
-0.0340971053 0.0159489438 0.0214321967
-0.0161470138 0.0165819712 -0.0042509679
-0.0015399705 0.0074890293 -0.0008014014
0.0003949211 0.0170343108 -0.0028688035
0.0015709598 0.0170104913 -0.0029859415
-0.0112561258 0.0166846663 -0.0019803366
-0.0105993981 0.0166243240 -0.0020254424
0.0211621318 0.0145845897 0.0062831100
0.0381144993 0.0196910016 0.0372215919
-0.0275280923 0.0114324950 0.0001636052
-0.0195546001 0.0106278360 -0.0013283438
0.0084021576 0.0156689994 -0.0035597107
-0.0065256460 0.0171709843 -0.0023128262
-0.0055376953 0.0171493962 -0.0024002811
-0.0045560068 0.0171289742 -0.0024814850
-0.0035754822 0.0171079077 -0.0025720766
-0.0623304248 0.0201208666 0.0219631921
-0.0616004318 0.0206762739 0.0214790534
-0.0615375265 0.0206769221 0.0208074879
0.0024212052 0.0169943534 -0.0030640310
0.0033806760 0.0169732869 -0.0031811616
0.0044311611 0.0169565305 -0.0032561219
0.0054780776 0.0169402510 -0.0033310896
0.0207068268 0.0117207356 0.0005475411
0.0213201344 0.0118745752 0.0002814957
-0.0161461644 0.0170979053 -0.0042743925
0.0202345662 0.0169400163 0.0010668316
-0.0238384530 0.0125487559 0.0032845268
-0.0594290644 0.0208614580 0.0205576103
-0.0587801263 0.0206578262 0.0200890806
-0.0055438029 0.0137307011 -0.0023635274
-0.0627655834 0.0139409639 0.0314430855
-0.0212223418 0.0137394927 -0.0020046330
-0.0206949450 0.0137828998 -0.0019910953
-0.0194939040 0.0136505589 -0.0020075983
-0.0186429955 0.0135006607 -0.0020477569
-0.0607427582 0.0152552314 0.0293503236
0.0235041119 0.0119501725 -0.0016402251
-0.0662357807 0.0144660436 0.0348321013
-0.0657324791 0.0141442306 0.0346134566
-0.0658734217 0.0146786980 0.0332391076
0.0104715200 0.0156402998 -0.0037408716
-0.0065302299 0.0173810199 -0.0023065752
-0.0055402601 0.0173583366 -0.0024002811
-0.0045584748 0.0173375644 -0.0024814850
-0.0035778552 0.0173161365 -0.0025720766
-0.0026100024 0.0172987543 -0.0026314131
-0.0015328869 0.0172774531 -0.0027188829
-0.0005729168 0.0172613002 -0.0027751049
0.0003929168 0.0172412731 -0.0028688035
0.0016727347 0.0172163807 -0.0029833338
0.0024193909 0.0172006153 -0.0030640310
0.0033762821 0.0171806067 -0.0031686670
0.0044295294 0.0171621293 -0.0032561219
0.0054765390 0.0171455704 -0.0033310896
-0.0571399853 0.0155783147 0.0286162924
0.0073676873 0.0156809278 -0.0034997484
-0.0613127798 0.0212624371 0.0207658391
-0.0005750402 0.0174686611 -0.0027751049
0.0003893462 0.0174490213 -0.0028625599
0.0073727397 0.0146597810 -0.0034947491
0.0016708199 0.0174229704 -0.0029833338
0.0174326003 0.0105151497 -0.0044443030
-0.0095922435 0.0166015625 -0.0021179190
-0.0112804370 0.0174818672 -0.0019786081
-0.0105707245 0.0174829252 -0.0020230433
-0.0212544575 0.0142465644 -0.0018692783
-0.0205241032 0.0146515183 -0.0019988886
-0.0195985585 0.0146334581 -0.0020566753
-0.0186732151 0.0146084614 -0.0020722917
-0.0177372433 0.0146569274 -0.0023169836
-0.0162433647 0.0149739496 -0.0036965406
0.0151239419 0.0167803876 -0.0078039709
0.0094351796 0.0156566165 -0.0036284274
-0.0065329289 0.0175904073 -0.0023065752
-0.0055452297 0.0175682567 -0.0023924729
-0.0045609837 0.0175462179 -0.0024814850
-0.0035802692 0.0175244212 -0.0025720766
-0.0026123195 0.0175067447 -0.0026314131
-0.0015367221 0.0174858160 -0.0027126318
0.0024175488 0.0174069367 -0.0030640310
0.0033732273 0.0173873082 -0.0031624234
0.0044265864 0.0173685141 -0.0032498708
0.0054726163 0.0173523985 -0.0033185950
-0.0165627301 0.0135905631 -0.0012758246
-0.0161517486 0.0174091943 -0.0042743925
-0.0095888572 0.0148218721 -0.0020629338
-0.0612010360 0.0215993188 0.0205107536
-0.0005771972 0.0176760778 -0.0027751049
0.0003857662 0.0176568478 -0.0028563088
0.0017754987 0.0176273994 -0.0029937497
-0.0610975996 0.0208286420 0.0197142567
0.0174671970 0.0115838274 -0.0047731046
-0.0582028478 0.0209602192 0.0192301106
-0.0105113061 0.0178878941 -0.0020192137
-0.0112868594 0.0179040618 -0.0019786081
-0.0158826150 0.0148583837 -0.0037746227
-0.0160254836 0.0150519498 -0.0039620418
-0.0212224424 0.0140284486 -0.0019317514
-0.0216990598 0.0121670589 -0.0010883978
-0.0135410987 0.0095833689 -0.0005695990
-0.0264098048 0.0120500438 0.0039092358
0.0151321935 0.0169644952 -0.0078976769
0.0149321677 0.0168750063 -0.0078352112
-0.0612233505 0.0218522288 0.0202973168
0.0024156787 0.0176133104 -0.0030640310
0.0033687756 0.0175948329 -0.0031499213
0.0044249007 0.0175742395 -0.0032498708
0.0054710312 0.0175578557 -0.0033185950
-0.0178786591 0.0134408437 -0.0021191558
0.0212873332 0.0124581680 0.0005241313
-0.0161705427 0.0177243985 -0.0042431597
-0.0135349119 0.0157430060 -0.0017287156
-0.0125898765 0.0157402456 -0.0018233380
-0.0116949575 0.0156811625 -0.0019067472
0.0204468183 0.0171533041 0.0010668316
-0.0095844874 0.0157621726 -0.0021087474
0.0073619289 0.0166013427 -0.0034997410
0.0084251873 0.0166341588 -0.0035644865
-0.0125409449 0.0181504227 -0.0018442890
-0.0117489258 0.0181296207 -0.0019161350
-0.0005833085 0.0178854428 -0.0027594811
0.0003821694 0.0178647637 -0.0028500652
0.0017699499 0.0178359561 -0.0029781333
-0.0634865761 0.0160709620 0.0276480000
0.0220580716 0.0119902976 0.0002078617
-0.0211386159 0.0158380307 -0.0019317514
-0.0135711664 0.0129030980 -0.0015413112
-0.0205337740 0.0156079717 -0.0020117781
-0.0196006149 0.0155865327 -0.0020859635
-0.0188153647 0.0155741982 -0.0020879230
-0.0159339383 0.0156995170 -0.0036809242
0.0151314707 0.0171595216 -0.0078976769
0.0094328318 0.0166747309 -0.0036496765
-0.0609273240 0.0181274563 0.0252741259
-0.0608209521 0.0218017995 0.0208074953
-0.0595788881 0.0214343257 0.0207450222
0.0115018450 0.0156262964 -0.0038345775
0.0125228893 0.0159215517 -0.0038870743
-0.0161613449 0.0179282911 -0.0042743925
0.0210510343 0.0135152079 0.0023318583
0.0024110873 0.0179239362 -0.0030562228
0.0033660524 0.0179040469 -0.0031499213
0.0044223266 0.0178829357 -0.0032498708
-0.0004792276 0.0180912428 -0.0027646965
0.0003800441 0.0180719905 -0.0028500652
0.0017679606 0.0180427134 -0.0029781333
0.0054679913 0.0178665332 -0.0033154658
-0.0164011829 0.0152292848 -0.0019942245
-0.0204327144 0.0134197809 -0.0019118658
-0.0130168656 0.0101783331 -0.0009009859
-0.0065471577 0.0182212405 -0.0022878295
-0.0055603618 0.0181985609 -0.0023690409
-0.0045705652 0.0181732811 -0.0024752414
-0.0035899605 0.0181505792 -0.0025642684
-0.0026194851 0.0181310661 -0.0026314131
-0.0015501350 0.0181121752 -0.0026876500
-0.0009124137 0.0181021579 -0.0027126318
-0.0164590627 0.0145590380 -0.0014573729
-0.0161652826 0.0181360394 -0.0042743925
-0.0612069815 0.0212283023 0.0215883683
0.0131297028 0.0159209929 -0.0038683361
0.0149140107 0.0158571228 -0.0034310392
-0.0611368865 0.0222453214 0.0201515537
0.0174932536 0.0167606398 -0.0050170813
-0.0205430761 0.0098172259 -0.0010772517
0.0044146283 0.0181948766 -0.0032248890
0.0003748660 0.0182808451 -0.0028375706
0.0017659415 0.0182495303 -0.0029781333
-0.0613102093 0.0217863508 0.0196569916
-0.0635841042 0.0164332949 0.0272835921
0.0221125204 0.0123985335 0.0006670186
-0.0211694092 0.0165889896 -0.0018942750
-0.0204561390 0.0167868100 -0.0019248000
-0.0194695555 0.0168801248 -0.0020343831
-0.0188109651 0.0168313831 -0.0020441955
-0.0158508010 0.0169220082 -0.0039308015
0.0151240127 0.0175575018 -0.0078352038
0.0010368929 0.0170213878 -0.0029312766
-0.0596330985 0.0200302340 0.0218382534
0.0149333598 0.0173592530 -0.0078664441
-0.0610874072 0.0226448961 0.0200578477
0.0025093306 0.0182343423 -0.0030437282
0.0034637593 0.0182143860 -0.0031343049
0.0054637277 0.0181761198 -0.0033061004
-0.0165268071 0.0148225799 -0.0023190624
-0.0161692910 0.0183438547 -0.0042743925
-0.0190557912 0.0129362345 -0.0019629842
-0.0329677127 0.0158004053 0.0196517836
0.0240552537 0.0117591843 -0.0001513457
0.0174293648 0.0175546631 -0.0049984772
0.0044116108 0.0184016749 -0.0032186380
0.0004774008 0.0184871070 -0.0028375706
0.0018645891 0.0184573643 -0.0029625094
0.0054596690 0.0183834173 -0.0032936058
0.0225983411 0.0121352188 -0.0008697531
-0.0206825435 0.0163992494 -0.0019629693
0.0149287703 0.0177535936 -0.0078352038
0.0151262479 0.0177488700 -0.0078664441
-0.0606159642 0.0226132981 0.0206402745
0.0104700346 0.0166562535 -0.0037671200
0.0114998864 0.0166413896 -0.0038558191
0.0125213461 0.0166318975 -0.0038995466
-0.0135352472 0.0165866427 -0.0017599559
-0.0125369439 0.0166597217 -0.0018465614
-0.0117515745 0.0166026540 -0.0019149205
-0.0205648057 0.0109566674 -0.0015538058
0.0004733123 0.0186955370 -0.0028297624
0.0018625215 0.0186643153 -0.0029625094
-0.0584092438 0.0146060772 0.0314587019
0.0044072354 0.0186093710 -0.0032061508
0.0054555489 0.0185908228 -0.0032811037
-0.0172953736 0.0109159872 -0.0007849804
-0.0194239914 0.0175656192 -0.0020011461
-0.0187810846 0.0176024325 -0.0019910953
-0.0178501345 0.0177823752 -0.0021379015
-0.0163277164 0.0175631233 -0.0016840941
-0.0164077636 0.0179745182 -0.0020879230
-0.0085931839 0.0147002712 -0.0021321794
-0.0211028792 0.0147687532 -0.0019707924
-0.0615536198 0.0194517523 0.0234312546
0.0391026288 0.0189493708 0.0370029472
0.0094255256 0.0175954998 -0.0036371818
0.0104627162 0.0176775903 -0.0037546253
0.0149279842 0.0179489776 -0.0078352038
0.0151254805 0.0179441795 -0.0078664441
-0.0163342841 0.0156123713 -0.0015796518
-0.0606798679 0.0209573172 0.0184336137
-0.0026077188 0.0170908161 -0.0026314131
-0.0015307039 0.0170698762 -0.0027188829
0.0074317502 0.0175044276 -0.0034860617
0.0083628008 0.0175455585 -0.0035518950
0.0170495100 0.0183143467 -0.0049303416
-0.0318469144 0.0156520121 0.0178713780
0.0114952512 0.0176593959 -0.0038595668
0.0125181396 0.0176480301 -0.0039120410
-0.0625676364 0.0141774453 0.0303654652
0.0004672979 0.0189050920 -0.0028141460
-0.0636482984 0.0134695284 0.0337596945
-0.0187535658 0.0185154453 -0.0019852913
-0.0178651251 0.0185636841 -0.0018224290
-0.0162660256 0.0186613463 -0.0016506335
-0.0161491483 0.0185276233 -0.0027438721
-0.0085879685 0.0157431290 -0.0021842367
-0.0158955753 0.0174524337 -0.0038449040
0.0223844983 0.0119488724 -0.0004949293
-0.0211097375 0.0154071115 -0.0019786081
-0.0616297498 0.0196568333 0.0225816574
-0.0605255887 0.0199344978 0.0225150194
0.0012059745 0.0176884383 -0.0029264858
-0.0603536144 0.0208559111 0.0215883609
-0.0594377145 0.0205001384 0.0210573729
0.0149271889 0.0181444250 -0.0078352038
0.0151276952 0.0181354620 -0.0078976769
-0.0005688674 0.0170531161 -0.0027829132
-0.0025785721 0.0186281018 -0.0026310852
0.0114888242 0.0185786597 -0.0038480109
0.0004612517 0.0191147737 -0.0027985296
-0.0610325113 0.0229066685 0.0199641418
0.0182512607 0.0182104856 -0.0049303342
-0.0577020496 0.0158547722 0.0305528771
-0.0161559545 0.0156549998 -0.0041931812
-0.0193694308 0.0186228380 -0.0019743314
-0.0178624839 0.0188390203 -0.0021920449
-0.0159384534 0.0187102370 -0.0037980473
-0.0282862149 0.0126124062 0.0082925763
0.0405242294 0.0182135962 0.0367999189
-0.0603631139 0.0232492723 0.0202827435
-0.0599994883 0.0233769007 0.0207762551
-0.0161555000 0.0191992335 -0.0040869806
-0.0603794530 0.0222931318 0.0212343689
0.0131276632 0.0164292715 -0.0038683361
-0.0025364782 0.0192800798 -0.0025993979
0.0180635620 0.0150868520 -0.0050240401
-0.0015741147 0.0192620419 -0.0026470295
-0.0005067557 0.0192416869 -0.0027063733
-0.0206301957 0.0176483840 -0.0018817654
-0.0199077316 0.0134099424 -0.0019109270
0.0004570328 0.0193235241 -0.0027907214
0.0025922947 0.0192738511 -0.0029937497
-0.0193666331 0.0193994604 -0.0019715002
-0.0189397782 0.0193141289 -0.0019629842
-0.0179052874 0.0192854777 -0.0020254573
-0.0162386708 0.0193963535 -0.0025668687
-0.0085977847 0.0165817924 -0.0021863005
-0.0160125047 0.0193573199 -0.0036496839
0.0214231554 0.0201907493 0.0045651775
0.0227472708 0.0201438665 0.0042215865
0.0229668636 0.0201396383 0.0041903537
0.0232187863 0.0121656246 -0.0003699905
-0.0590294451 0.0238531716 0.0193394329
-0.0635666028 0.0145119391 0.0308340024
-0.0197968073 0.0184454136 -0.0019317514
0.0004490607 0.0195345283 -0.0027672893
0.0013794557 0.0193777606 -0.0028744882
0.0025901881 0.0194808878 -0.0029937497
0.0064901253 0.0192961209 -0.0033310822
0.0227211341 0.0206771195 0.0065017622
-0.0595805719 0.0237504765 0.0194487628
0.0216080435 0.0206304789 0.0061581712
0.0125128413 0.0186672620 -0.0039095376
-0.0173260309 0.0122005902 -0.0009218103
-0.0178070702 0.0199229382 -0.0020254573
-0.0162758604 0.0198651403 -0.0022284857
-0.0159616582 0.0183068253 -0.0041182134
-0.0212074630 0.0172362700 -0.0018380454
-0.0046072686 0.0194370337 -0.0024065247
-0.0606037304 0.0204708427 0.0222859588
0.0162561331 0.0156015866 -0.0049303342
-0.0598795563 0.0198175050 0.0224473383
0.0215131305 0.0204184428 0.0054241400
0.0013789788 0.0187079087 -0.0029031804
-0.0605883747 0.0216301531 0.0213189702
0.0138175534 0.0151169561 -0.0026501587
0.0142477369 0.0155896172 -0.0023800603
0.0074398415 0.0185557827 -0.0034341535
0.0083780512 0.0185377672 -0.0035222343
-0.0135429325 0.0175380930 -0.0017786941
-0.0125508877 0.0175955929 -0.0018499366
-0.0117406892 0.0176011845 -0.0019161275
-0.0035396337 0.0186953135 -0.0025582036
-0.0606375784 0.0240159370 0.0179650839
-0.0587508604 0.0240059085 0.0184648465
-0.0195846297 0.0124890916 -0.0018353334
-0.0578245223 0.0161430463 0.0304747801
0.0217655338 0.0213159882 0.0094691049
0.0004447803 0.0197435059 -0.0027594811
0.0014095560 0.0197194405 -0.0028563088
0.0025829182 0.0196912698 -0.0029703251
0.0131250443 0.0178503133 -0.0038995689
-0.0255524404 0.0112930872 -0.0000146946
-0.0608014166 0.0241347440 0.0188709032
-0.0101810554 0.0180913098 -0.0020410737
-0.0095518203 0.0176250413 -0.0021049625
-0.0085300254 0.0176505223 -0.0021634123
-0.0075469138 0.0175922401 -0.0022306985
-0.0139434123 0.0201020651 -0.0017131066
0.0094163483 0.0185189657 -0.0036146960
0.0104531534 0.0186006017 -0.0037246442
0.0114853540 0.0190896988 -0.0038433468
-0.0606449172 0.0236143358 0.0197454970
-0.0608353466 0.0213892274 0.0186288338
-0.0035861905 0.0178379007 -0.0025642610
-0.0026158660 0.0178188495 -0.0026314131
-0.0015409391 0.0177977718 -0.0027094951
-0.0205411389 0.0125738271 -0.0018137416
0.0216538738 0.0215240382 0.0092973104
-0.0124640735 0.0129644051 -0.0016428253
-0.0249886774 0.0113976821 0.0000256577
-0.0195705332 0.0212527551 0.0043152925
-0.0189058222 0.0210981071 0.0032845342
0.0213649049 0.0209687315 0.0069702845
-0.0185297020 0.0095310789 -0.0005715808
-0.0604164675 0.0243453234 0.0193644296
-0.0243412554 0.0125727765 0.0035968849
0.0075020166 0.0105937980 -0.0030505380
0.0016426046 0.0136386789 -0.0029870665
-0.0136169428 0.0203089006 -0.0017130992
0.0208869725 0.0213327892 0.0079385769
0.0211158339 0.0213237666 0.0078761112
-0.0199490637 0.0177520514 -0.0019317439
-0.0605770871 0.0245114155 0.0176215004
-0.0212446302 0.0217490830 0.0060019922
0.0004343067 0.0201628916 -0.0027360565
0.0014020291 0.0201365463 -0.0028438142
0.0026833110 0.0201042816 -0.0029729253
0.0155850789 0.0165724792 -0.0050740112
-0.0112268971 0.0184676461 -0.0019681996
-0.0105511779 0.0185584947 -0.0020159504
-0.0095256390 0.0186038576 -0.0020800999
-0.0085339220 0.0185821466 -0.0021378866
-0.0075465525 0.0186656006 -0.0021987951
-0.0045325691 0.0202835314 -0.0023378080
-0.0184460059 0.0155320726 -0.0015413112
-0.0136270532 0.0205242261 -0.0016974828
0.0004386206 0.0199536942 -0.0027438647
0.0014058158 0.0199279487 -0.0028500652
0.0020939645 0.0196611956 -0.0029250255
0.0074697053 0.0196179487 -0.0033827669
0.0083995070 0.0195427164 -0.0034785664
0.0125038857 0.0195904709 -0.0038745573
-0.0205743462 0.0186295472 -0.0018528348
-0.0601604581 0.0247162320 0.0172466766
-0.0614772663 0.0206200592 0.0222824868
-0.0125509584 0.0186805725 -0.0018411598
0.0004318443 0.0203710385 -0.0027360565
0.0013982013 0.0203452446 -0.0028375706
-0.0190680400 0.0216829851 0.0042215865
0.0028871458 0.0203109160 -0.0029625094
-0.0243764222 0.0106284581 0.0026973241
0.0181673821 0.0175438002 -0.0049893204
0.0124966670 0.0201067701 -0.0038370958
-0.0075982632 0.0156209543 -0.0022487736
0.0183485299 0.0207051821 0.0004421228
-0.0095466161 0.0195554011 -0.0020629189
-0.0085576037 0.0195336007 -0.0021104238
0.0064330818 0.0136534683 -0.0033732525
0.0166178364 0.0166792795 -0.0049865488
0.0162530337 0.0167066380 -0.0049303342
-0.0200289115 0.0168851465 -0.0019317514
-0.0183682889 0.0167560726 -0.0018744862
-0.0634495169 0.0167654492 0.0265860092
