# .PCD v0.7 - Point Cloud Data file format
VERSION 0.7
FIELDS x y z
SIZE 4 4 4
TYPE F F F
COUNT 1 1 1
WIDTH 1181
HEIGHT 1
VIEWPOINT 0 0 0 1 0 0 0
POINTS 1181
DATA ascii
0.0307764485 -0.0021193530 -0.0162361003
0.0311191194 0.0011798423 -0.0214679949
0.0233745985 0.0010231864 -0.0190472640
0.0238248743 0.0010977741 -0.0201925598
-0.0268482938 0.0001325440 -0.0149710663
-0.0268529840 -0.0000262726 -0.0158144198
-0.0216713175 -0.0012735073 -0.0018962957
0.0296004638 -0.0010826569 -0.0126752816
-0.0202402733 -0.0006010905 0.0022278242
-0.0196827538 -0.0040484965 0.0059877597
-0.0197759718 -0.0006491933 0.0030048005
-0.0190773606 -0.0006390791 0.0048685037
-0.0246693604 -0.0023897346 -0.0096628256
-0.0198666230 -0.0005999338 0.0041917376
0.0309211016 -0.0010232907 -0.0182976238
0.0276434124 -0.0000764523 -0.0021177791
-0.0261973217 -0.0032159034 -0.0121844374
0.0274047479 -0.0001231078 -0.0013993643
-0.0266277455 -0.0008471478 -0.0216397904
0.0283388048 -0.0026504099 -0.0071466453
-0.0264292248 -0.0009564590 -0.0202342011
0.0294374637 0.0003351867 -0.0084585287
0.0270485058 -0.0003826171 -0.0010349564
0.0236265436 0.0012900699 -0.0201405026
-0.0268787704 0.0008536577 -0.0161736272
-0.0225483775 0.0001370423 -0.0039086007
0.0306666307 -0.0031982530 -0.0211900063
0.0278835520 -0.0024678987 -0.0041480698
0.0281148404 -0.0025115814 -0.0062095933
-0.0270435028 -0.0008773711 -0.0213274397
0.0281161293 -0.0019322690 -0.0077088811
-0.0240224488 0.0004311074 -0.0088645853
-0.0245777108 0.0004788041 -0.0097079314
0.0310938917 -0.0012438465 -0.0191878267
0.0270489939 0.0000923220 -0.0010870136
0.0274049453 0.0001138970 -0.0014306046
-0.0269595049 0.0007757712 -0.0166577734
-0.0267587565 0.0003749523 -0.0170169808
-0.0266502090 -0.0033060294 -0.0146983601
-0.0265797861 0.0005928632 -0.0200754218
-0.0234208256 -0.0013457742 -0.0073652901
-0.0235526934 -0.0013437364 -0.0080284439
0.0295910798 -0.0007125847 -0.0133468397
0.0310248099 0.0000180695 -0.0214211456
-0.0261231400 -0.0022680070 -0.0138700344
-0.0249541812 -0.0024725832 -0.0112267472
-0.0242232941 -0.0023740102 -0.0089638047
-0.0195694380 -0.0004877616 0.0044416152
0.0270321816 -0.0033131819 -0.0010557808
-0.0267320871 -0.0024014357 -0.0156613775
-0.0184280500 -0.0017756391 0.0065968521
-0.0213452503 -0.0029484350 -0.0009828918
-0.0216882490 0.0002417248 -0.0016024001
0.0296074748 -0.0021840017 -0.0122067519
0.0237088986 0.0010681786 -0.0132687502
-0.0239062533 -0.0024209507 -0.0083283819
-0.0190816298 -0.0002592020 0.0048841201
-0.0195548348 -0.0001061186 0.0044103824
0.0307765715 -0.0016106348 -0.0162152760
0.0236870348 0.0013111793 -0.0172668584
0.0233891681 0.0014363769 -0.0193283819
0.0236158557 0.0014725272 -0.0199218504
-0.0270367935 0.0010863226 -0.0165172108
-0.0219427310 -0.0039438121 0.0018490963
-0.0220949687 -0.0002760720 -0.0029708780
-0.0215788931 -0.0041317176 -0.0008308925
0.0248057321 -0.0004159249 -0.0082190670
-0.0239020884 -0.0013099704 -0.0083960555
0.0250337049 0.0005472749 -0.0046946891
0.0306976028 -0.0029189941 -0.0192659162
-0.0265506096 -0.0014059339 -0.0148578398
0.0238262862 0.0004445333 -0.0030079819
0.0248496048 0.0003493223 -0.0042651929
-0.0205691569 -0.0032517780 0.0022060759
-0.0199441761 -0.0033338200 0.0041188560
-0.0248352513 -0.0013155192 -0.0113712139
-0.0246143714 -0.0012855809 -0.0095465519
0.0299671628 -0.0004179161 -0.0157925598
0.0297766291 -0.0001785252 -0.0148773678
-0.0187656283 -0.0035128612 0.0088457875
0.0275638811 0.0002988447 -0.0018887259
-0.0228913538 -0.0032290351 -0.0047508972
0.0301502682 -0.0003337152 -0.0168795399
-0.0216799341 0.0004840400 -0.0016180165
-0.0217092708 0.0004602149 -0.0025967173
-0.0268682316 0.0012703091 -0.0159757994
0.0296423063 -0.0020919349 -0.0096610822
-0.0258003250 -0.0001970921 -0.0131750442
-0.0205283277 -0.0012175422 0.0009432770
-0.0190818943 0.0001213402 0.0048893280
-0.0195409656 0.0001487918 0.0043791495
-0.0197135098 0.0002354141 0.0028642379
0.0304530002 -0.0003292914 -0.0169388838
0.0307432041 -0.0002900027 -0.0174480267
0.0308996849 -0.0003653187 -0.0190347694
0.0270489678 0.0004458316 -0.0010870136
-0.0269993842 0.0013033394 -0.0165796839
-0.0265338458 -0.0023739953 -0.0147329159
-0.0265806951 0.0013914276 -0.0199296661
-0.0267287679 -0.0022693109 -0.0171294250
0.0294373184 0.0007756501 -0.0084585287
-0.0238967501 -0.0007386692 -0.0083960555
-0.0235348977 -0.0003703106 -0.0080861039
0.0293245725 -0.0030429680 -0.0088489689
0.0311184265 0.0015667304 -0.0214836113
0.0317949839 0.0014683995 -0.0214601867
-0.0247288607 0.0000341032 -0.0115508176
0.0307302549 0.0004482586 -0.0179228000
0.0294373035 -0.0002133157 -0.0084897615
-0.0221338160 -0.0013277214 -0.0029463284
0.0283370204 -0.0011075195 -0.0083179660
0.0275241025 0.0006039459 -0.0017741956
0.0239960514 0.0007578023 -0.0043979473
0.0235941224 0.0006752256 -0.0029923655
-0.0188665576 0.0003314354 0.0056910254
-0.0268465765 0.0013210922 -0.0149554498
-0.0268783011 0.0014833249 -0.0159549750
-0.0228600837 0.0005147103 -0.0043198578
-0.0225439519 0.0006111600 -0.0039120652
-0.0306839049 -0.0076652588 0.0222457014
-0.0257658549 0.0008200426 -0.0136669986
-0.0250376575 -0.0031635296 -0.0108904205
-0.0196499899 0.0003504176 0.0041605048
-0.0197252408 0.0004835371 0.0028954707
0.0270489380 0.0007993095 -0.0010870136
-0.0265826471 0.0017004479 -0.0199218579
0.0283364691 0.0012092609 -0.0083335824
-0.0221137293 0.0005421117 -0.0030860715
0.0294371806 0.0012160670 -0.0084585287
0.0238246843 0.0009157676 -0.0058035292
-0.0216085687 -0.0029980782 -0.0018366612
-0.0217128955 -0.0030647796 -0.0024613626
0.0229729526 0.0008982066 -0.0171263032
-0.0195832998 -0.0012490582 0.0044650398
0.0308869928 0.0017382745 -0.0194377042
-0.0209777392 0.0003599934 0.0005996861
-0.0197325833 -0.0022906754 0.0031922124
0.0278887935 -0.0010676626 -0.0059597092
0.0276426375 0.0008505117 -0.0019928329
0.0274046361 0.0008169543 -0.0013993643
-0.0228963643 -0.0023581069 -0.0048274361
0.0288267396 -0.0013539027 -0.0088811181
-0.0264668800 -0.0003896430 -0.0209369995
-0.0264745504 -0.0003793463 -0.0201972835
0.0288842693 0.0012391917 -0.0088645853
-0.0188778676 0.0005851705 0.0057222657
0.0278914198 0.0007947776 -0.0069280006
-0.0268529356 0.0016445611 -0.0149398334
-0.0268825293 0.0016969983 -0.0159445666
0.0314758271 -0.0037096068 -0.0215252675
-0.0228348412 0.0011078510 -0.0043667145
-0.0224573538 0.0010805298 -0.0038200943
0.0100192735 0.0021359622 -0.0215304680
-0.0205767192 -0.0002688747 0.0008677803
0.0298978165 0.0008809529 -0.0158092193
0.0301475227 0.0008891467 -0.0169857480
0.0307961963 0.0010298193 -0.0191565938
0.0310232118 0.0009858590 -0.0214523785
0.0283364281 0.0014296956 -0.0083335824
-0.0220137872 0.0010459740 -0.0031329282
0.0294371210 0.0014362503 -0.0084585287
-0.0255048238 0.0014305376 -0.0128033571
0.0299889818 0.0016777944 -0.0170204453
-0.0213226005 -0.0023380052 -0.0010219477
-0.0245646238 -0.0003241207 -0.0111728720
0.0278913602 0.0000084713 -0.0068655275
0.0274792984 -0.0041916668 -0.0007121898
0.0276427679 0.0010859482 -0.0020240732
0.0274039321 0.0010468233 -0.0013056584
-0.0209423043 -0.0022344384 0.0007792823
-0.0188768990 0.0008406807 0.0057222657
0.0250759050 0.0013089962 -0.0061158873
-0.0241582729 -0.0013876762 -0.0090722032
0.0278905705 0.0013395492 -0.0066781156
0.0081811743 0.0020862706 -0.0169232748
0.0173321143 0.0023438763 -0.0216397904
0.0236223638 0.0014322642 -0.0158925094
0.0234228596 0.0016578157 -0.0180321224
0.0239374638 0.0013679527 -0.0071934946
-0.0167647526 0.0004511345 0.0036919750
-0.0167177953 0.0002076905 0.0035670362
-0.0255010203 0.0017607119 -0.0128064789
0.0253611244 -0.0033862572 -0.0041480698
-0.0234973989 -0.0003595818 -0.0071903877
0.0304512717 0.0006868374 -0.0169919915
0.0270486064 0.0012689251 -0.0010557808
0.0316994675 0.0009847153 -0.0214419700
-0.0260489695 -0.0013542064 -0.0138465948
-0.0220126584 0.0012842920 -0.0031329282
-0.0224526003 0.0013180040 -0.0038279034
0.0239178278 0.0016370434 -0.0080837049
-0.0234647989 0.0006043371 -0.0082112588
0.0292160213 -0.0020685270 -0.0086875819
0.0231024995 0.0014179740 -0.0200988464
0.0168412179 0.0016371440 -0.0081461705
-0.0247959532 0.0012833904 -0.0099890493
-0.0236029364 -0.0022967774 -0.0080236383
0.0236866176 0.0018824749 -0.0127689876
0.0311174355 0.0020503029 -0.0215070434
0.0275699534 -0.0032974724 -0.0008639060
-0.0267146304 0.0019042026 -0.0198906176
-0.0198579840 -0.0022395011 0.0041448884
-0.0188759975 0.0010961723 0.0057222657
-0.0203783065 -0.0023436882 0.0022161044
0.0278900638 0.0015552584 -0.0065219440
-0.0269066170 -0.0012528338 -0.0161083154
-0.0202161558 0.0006452445 0.0021848641
0.0166970827 0.0016641784 -0.0127065144
-0.0185695253 -0.0031785984 0.0079868101
0.0174235441 0.0025344212 -0.0215929337
-0.0209245160 -0.0012974571 0.0007112436
-0.0212929472 -0.0013635550 -0.0010713981
0.0166492276 0.0016619023 -0.0042417757
-0.0205471888 0.0007187966 0.0008105077
-0.0200480856 -0.0032138918 0.0028763898
-0.0291380771 0.0013657603 -0.0179852657
0.0298290737 0.0012918264 -0.0158300363
0.0299410447 0.0021134634 -0.0171835683
0.0304489918 0.0017030388 -0.0170700736
-0.0183164999 -0.0013776068 0.0064302720
0.0307546221 0.0015363973 -0.0191186629
0.0308846384 0.0020383261 -0.0195157938
0.0317939967 0.0020483136 -0.0214773603
-0.0264554657 -0.0003447551 -0.0146665387
-0.0220044740 0.0015233923 -0.0031485446
-0.0216778852 0.0013855714 -0.0027502961
0.0241340250 0.0018517505 -0.0079587661
0.0249402411 0.0019028950 -0.0089739151
0.0245401636 0.0011286158 -0.0069071762
0.0281153657 0.0007190183 -0.0075214766
-0.0229397416 -0.0014254581 -0.0046103410
-0.0266906843 0.0003956091 -0.0209942572
0.0283365808 0.0006581042 -0.0083335824
0.0276431255 0.0014403854 -0.0021021562
0.0274024233 0.0013892148 -0.0011026300
0.0137227690 0.0017830729 -0.0088802017
0.0297744125 0.0009658597 -0.0149866901
0.0295865126 0.0006716754 -0.0136373229
0.0230916664 0.0015237406 -0.0174542703
0.0235621333 0.0016045440 -0.0188286193
-0.0255411677 -0.0000032838 -0.0127564855
0.0278897472 0.0017747544 -0.0064282380
-0.0211567134 -0.0013243835 0.0000921153
-0.0184160098 0.0006943550 0.0061037727
-0.0269070305 0.0022980012 -0.0150491558
-0.0269017704 0.0023376662 -0.0159029178
0.0176140741 0.0026482083 -0.0212857984
-0.0254555382 -0.0030630771 -0.0118475445
-0.0212045945 -0.0003720727 -0.0010224693
-0.0216795951 -0.0003937241 -0.0017256029
-0.0216940381 -0.0001872517 -0.0024509467
0.0250983797 -0.0006601121 -0.0068967678
0.0259086713 -0.0039697345 -0.0029142760
-0.0260004587 0.0022481419 -0.0138778351
0.0210243836 0.0025606919 -0.0180945881
-0.0296686850 0.0015357602 -0.0172980912
0.0161492899 0.0023741350 -0.0184225626
0.0086925896 0.0020862501 -0.0169076510
0.0252375454 0.0020685308 -0.0078650601
0.0094960453 0.0020731855 -0.0203903802
-0.0235949270 0.0006653033 -0.0069748573
-0.0236225091 0.0009774622 -0.0084272884
0.0024278788 0.0020439401 -0.0077401139
0.0164497457 0.0017466452 -0.0012431927
0.0168612376 0.0017739628 -0.0018054284
0.0251323283 -0.0010911785 -0.0041480698
0.0173949227 0.0019186977 -0.0048040040
0.0091576511 0.0024791677 -0.0206714980
-0.0233460218 0.0016533602 -0.0082320683
0.0293633752 -0.0011969190 -0.0085834675
0.0251820013 0.0015226305 -0.0058972351
0.0082176318 0.0021466725 -0.0180789717
0.0215801522 0.0024856422 -0.0179228000
0.0237260498 0.0023469049 -0.0136435740
-0.0244480260 0.0017289128 -0.0097326078
0.0160446577 0.0014872514 -0.0007746629
0.0245978273 0.0021031145 -0.0085834675
-0.0219821371 0.0017639399 -0.0031953938
0.0276433267 0.0017928984 -0.0021490119
0.0274009183 0.0017326977 -0.0008996017
0.0136715844 0.0020079706 -0.0082398765
0.0288845897 -0.0001862515 -0.0088723935
-0.0257678255 0.0024567414 -0.0136435740
0.0164885856 0.0024898425 -0.0187349133
0.0304481722 0.0024117474 -0.0170950629
-0.0197443217 -0.0001439508 0.0029345192
-0.0197642669 -0.0039771423 0.0051912628
0.0311169885 0.0025327858 -0.0215148441
0.0308841877 0.0024328697 -0.0195262097
-0.0188685991 0.0014801100 0.0057066493
0.0294411443 -0.0029890370 -0.0082711168
-0.0244099759 0.0022895131 -0.0097766556
-0.0246255696 0.0022913124 -0.0118131824
-0.0240048356 0.0022508930 -0.0088802017
0.0172002316 0.0018176753 -0.0073340572
0.0169040747 0.0014478117 -0.0087292306
0.0178611167 0.0020363089 -0.0072403513
0.0173794813 0.0021395553 -0.0046478324
-0.0268883184 0.0025154706 -0.0150803961
-0.0268830247 0.0025534406 -0.0159341507
-0.0268638581 0.0000151526 -0.0164235048
-0.0228336714 0.0013439171 -0.0043667145
-0.0042761033 0.0019536354 -0.0011390708
0.0024282290 0.0022673849 -0.0077401139
0.0026253490 0.0023881122 -0.0103638731
-0.0260080621 0.0016448051 -0.0139194764
-0.0264500380 0.0016287584 -0.0145910569
0.0365779027 0.0021294858 -0.0044604205
-0.0209811218 -0.0002542082 0.0005996861
0.0177607015 0.0022116993 -0.0062095933
0.0190302357 0.0024022590 -0.0103326403
-0.0201930888 0.0015176851 0.0021380149
-0.0204771906 0.0015726704 0.0009588860
-0.0206907317 0.0015914161 0.0005476214
-0.0196248032 -0.0022608060 0.0044416152
0.0159127451 0.0024679862 -0.0176208653
-0.0229451247 0.0006966796 -0.0047623627
-0.0232115276 0.0005964953 -0.0060194768
0.0079430165 0.0022421423 -0.0070373304
0.0297558643 0.0025684126 -0.0161267705
0.0304484554 0.0027140994 -0.0170794465
-0.0183282569 -0.0003766604 0.0062958561
0.0306986906 0.0025097057 -0.0190863125
-0.0260267556 0.0006341543 -0.0139759965
0.0163119566 0.0019735117 -0.0010557808
0.0166458506 0.0020168573 -0.0019928329
0.0169471614 0.0020472333 -0.0026487745
0.0247981027 0.0022942089 -0.0079587512
0.0243941955 0.0023431424 -0.0090207644
0.0246039070 0.0014794637 -0.0068967603
-0.0185041018 0.0014418028 0.0060033761
-0.0175898485 0.0015094522 0.0051600300
-0.0249617659 0.0022867061 -0.0122301765
0.0207160525 0.0024410281 -0.0111603774
-0.0211359151 -0.0003542807 0.0002373569
0.0276434571 0.0020276997 -0.0021802448
0.0274006687 0.0019672383 -0.0008683689
0.0207120180 0.0025050957 -0.0125503428
0.0207636058 0.0024028961 -0.0103326403
0.0283367299 -0.0001122020 -0.0083544068
0.0160179436 0.0019488875 -0.0005247779
0.0158424675 0.0018062349 -0.0000093989
0.0152379898 0.0023628045 -0.0095205270
-0.0206712261 0.0020840373 0.0005059801
0.0228916332 0.0024667792 -0.0117069893
-0.0245592855 0.0016700383 -0.0109198578
-0.0245715827 0.0026021004 -0.0118215121
0.0217406079 0.0025212318 -0.0128939338
0.0225213915 0.0025127809 -0.0127065144
0.0240950696 0.0025000777 -0.0124253966
-0.0083747795 0.0021437816 -0.0002046190
-0.0246553048 -0.0022695996 -0.0108402111
-0.0239578672 0.0016532056 -0.0088093244
0.0311168432 0.0029183794 -0.0215148516
0.0308843441 0.0028262921 -0.0195157938
-0.0268325657 0.0008905549 -0.0149866827
0.0317930356 0.0026278961 -0.0214945413
0.0296377800 -0.0016298927 -0.0099734403
-0.0239973255 0.0008886140 -0.0089088418
-0.0188610666 -0.0013504904 0.0059955679
-0.0268673785 0.0017040744 -0.0200259723
-0.0222429633 -0.0042053359 0.0028382130
0.0249037258 0.0000568293 -0.0041688941
-0.0239961185 0.0024788659 -0.0088958181
-0.0236804783 0.0023509897 -0.0085444190
-0.0233581699 0.0023370963 -0.0082008429
-0.0224053375 0.0022702012 -0.0039216094
-0.0219590850 0.0022422932 -0.0032422431
0.0080063762 0.0022473037 -0.0160799213
0.0084026298 0.0022431761 -0.0159862153
0.0094721923 0.0024829730 -0.0122379847
-0.0055006063 0.0021533780 -0.0003061332
0.0022167517 0.0024932735 -0.0078025870
0.0025480995 0.0025922712 -0.0100515224
0.0032827118 0.0026055705 -0.0103326403
-0.0260463469 0.0025908258 -0.0138845332
-0.0161120221 0.0020309016 0.0020052753
-0.0156567991 0.0018389877 0.0008183308
0.0197985657 0.0023903642 -0.0166733898
0.0204517841 0.0024645384 -0.0188442282
-0.0212211646 0.0005836710 -0.0012067370
-0.0216906816 0.0009062458 -0.0027268641
0.0250637718 0.0010609198 -0.0057098307
-0.0201784335 0.0020160489 0.0021067895
-0.0119562950 0.0022607259 -0.0030548312
-0.0119496947 0.0022906642 -0.0037420057
0.0281151272 0.0023863595 -0.0075527020
0.0278862268 -0.0015892927 -0.0050851218
-0.0228868052 0.0016717203 -0.0049317814
-0.0232699960 0.0016627517 -0.0060896613
-0.0237032138 0.0016930066 -0.0067405887
0.0020398675 0.0022041481 -0.0012119524
0.0014148830 0.0022211540 -0.0016180165
0.0237003900 0.0015700143 -0.0118943937
0.0304483958 0.0029161666 -0.0170794465
-0.0174098574 -0.0002704132 0.0051912628
0.0167724602 0.0023044702 -0.0032110102
0.0176843293 0.0023327973 -0.0038461350
0.0186406486 0.0024261437 -0.0059597092
0.0189834796 0.0024853498 -0.0073028244
0.0196161419 0.0025257580 -0.0082164593
0.0205588080 0.0025614314 -0.0090207644
0.0217593126 0.0025576055 -0.0089270584
0.0239510760 0.0025565680 -0.0088958181
0.0091320807 0.0023742002 -0.0185787417
-0.0198703520 -0.0012318697 0.0041917376
0.0359626710 0.0023132451 -0.0034296550
-0.0072189299 0.0021687821 -0.0007278062
0.0210387707 0.0025876705 -0.0096142329
0.0216727220 0.0025988147 -0.0098641180
0.0226621777 0.0023914706 -0.0051475950
0.0229639038 0.0023557786 -0.0043354752
-0.0247458331 -0.0030544195 -0.0106449910
0.0082489839 0.0024851337 -0.0074590035
-0.0197595395 0.0016037803 0.0029891916
-0.0268779360 0.0028400030 -0.0150960125
-0.0248992927 0.0026935637 -0.0122692250
-0.0245490111 0.0028254334 -0.0118631683
-0.0249565132 0.0015734211 -0.0121099241
-0.0245964862 0.0016869381 -0.0116558783
-0.0188556351 -0.0003258288 0.0059955679
0.0300115831 0.0025752205 -0.0169892125
0.0297540575 0.0028792284 -0.0162361003
0.0237624273 0.0014994387 -0.0096142329
0.0275155902 -0.0043622497 -0.0001968108
-0.0269495733 0.0008180272 -0.0201613270
-0.0228715688 0.0024004858 -0.0051684193
-0.0226388462 0.0024824422 -0.0047727711
-0.0223375335 0.0025019217 -0.0037940703
0.0012995536 0.0025994591 -0.0050226562
0.0240064263 0.0024267398 -0.0152990408
0.0238328353 0.0022570249 -0.0160174482
0.0166703798 0.0017508771 -0.0142995156
-0.0107744550 0.0022279061 -0.0022427179
-0.0260567032 0.0028973799 -0.0137685128
-0.0264859311 0.0026099812 -0.0147309564
0.0365777612 0.0023582485 -0.0044604205
-0.0210659541 0.0007346440 0.0001103468
0.0250495300 0.0008065458 -0.0052256770
0.0043547051 0.0024501625 -0.0013681315
0.0047888430 0.0023479648 -0.0017273314
0.0052640913 0.0021995101 -0.0061783530
0.0056964541 0.0022194274 -0.0066000335
-0.0245398246 0.0006638207 -0.0111715309
-0.0246425644 0.0007276256 -0.0116132908
-0.0201679878 0.0022654310 0.0020833574
0.0089108320 0.0025886241 -0.0098016448
0.0020290809 0.0020320490 -0.0075058527
0.0266264230 0.0023972970 -0.0017325543
0.0258027650 0.0025432520 -0.0033463649
0.0253822692 0.0023820680 -0.0049289512
0.0281151123 0.0027206875 -0.0075839423
0.0288833790 0.0025580470 -0.0089348592
-0.0218576640 -0.0018492546 -0.0026800074
0.0018092310 0.0024426840 -0.0012536086
0.0014601042 0.0024653319 -0.0018054284
0.0237973891 0.0024119951 -0.0120609812
-0.0041915243 0.0021924395 -0.0011494793
0.0195980705 0.0025189389 -0.0027841302
-0.0233607069 0.0026793927 -0.0081930272
-0.0237453617 0.0024989638 -0.0066468827
0.0206338614 0.0026286896 -0.0053974725
0.0197165012 0.0024989042 -0.0023051910
-0.0206571184 0.0023306236 0.0004747473
-0.0198388956 -0.0014534350 0.0026986934
-0.0171431303 0.0021645203 0.0046915002
0.0051857894 0.0020300169 -0.0024926029
0.0276436619 0.0023796167 -0.0022271015
0.0274007469 0.0023219734 -0.0008839853
-0.0078897169 0.0024001282 -0.0005560182
-0.0072745336 0.0024171751 -0.0009412505
0.0216985792 0.0026590060 -0.0061158799
0.0225432962 0.0026438665 -0.0057514720
0.0228809901 0.0026107486 -0.0049601831
-0.0194646120 0.0015764181 0.0041396804
-0.0248341188 0.0030604936 -0.0122379921
-0.0245481916 0.0030468851 -0.0118631683
0.0137106925 0.0017096493 -0.0095829926
0.0306978598 0.0032032579 -0.0191097371
-0.0176889673 0.0007335078 0.0054099075
0.0299430341 0.0031166039 -0.0170378052
0.0294417702 -0.0021135956 -0.0081774108
0.0288843587 0.0006910563 -0.0088684894
0.0271553472 -0.0045214947 0.0001936294
-0.0228900537 0.0027964432 -0.0053037666
-0.0225988775 0.0027797371 -0.0048560603
-0.0268502384 0.0031657089 -0.0151428618
-0.0268917829 0.0031952150 -0.0159133337
-0.0050249686 0.0026973691 -0.0018991269
-0.0055358997 0.0024566539 -0.0010066889
-0.0041879890 0.0027296972 -0.0026878230
-0.0093240766 0.0023885723 -0.0003373660
-0.0157939382 0.0022852104 0.0018490963
-0.0266991481 0.0031602513 -0.0149866901
-0.0250484943 -0.0004329719 -0.0119256414
0.0124977576 0.0023767035 -0.0143932216
-0.0210471600 0.0017301738 0.0001754202
-0.0199125372 -0.0024263542 0.0027757399
0.0073727081 0.0021445937 -0.0140496306
0.0230218731 -0.0002021696 -0.0198437609
0.0048537971 0.0022684317 -0.0026019253
0.0075843902 0.0022640098 -0.0075214691
-0.0197864920 0.0024636667 0.0033796243
-0.0201444551 0.0025159586 0.0020287000
-0.0197146237 0.0024957340 0.0025675036
0.0270487666 0.0024478156 -0.0010713981
0.0274003707 0.0026740748 -0.0008371361
0.0033432441 0.0026563033 -0.0114883445
0.0195952766 0.0027888082 -0.0037315898
0.0203256570 0.0025815051 -0.0042730086
0.0216618143 0.0027846284 -0.0036170669
0.0220146477 0.0028692279 -0.0057410635
0.0230542868 0.0028879941 -0.0062095933
0.0225252435 0.0029128101 -0.0068342946
0.0225792266 0.0027314927 -0.0078494437
0.0223642513 0.0026017055 -0.0099265836
0.0304479487 0.0033209082 -0.0170950629
0.0157616306 0.0023550596 -0.0020102002
0.0156174395 0.0027059037 -0.0028486885
0.0145489601 0.0028341468 -0.0049133338
0.0170786828 0.0027501211 -0.0046894811
0.0210147649 0.0026542936 -0.0060065575
0.0021975571 0.0023903307 -0.0104263462
-0.0198326968 -0.0002159737 0.0041136481
-0.0007449491 0.0026060026 -0.0052413009
0.0239072926 0.0018701591 -0.0104731955
0.0024325578 0.0024004262 -0.0011755042
0.0037431447 0.0027480368 -0.0029298924
0.0276437029 0.0027300138 -0.0022427179
-0.0152436299 0.0025366880 0.0017553903
-0.0253658071 0.0033011138 -0.0128210448
-0.0260770321 0.0031139832 -0.0137294717
0.0361985676 0.0023103673 -0.0033671893
-0.0254160613 0.0026673954 -0.0128569342
0.0214900561 0.0021872725 -0.0146430992
0.0299393982 0.0033274442 -0.0172564499
-0.0190607794 0.0007009078 0.0049757473
0.0308855288 0.0033168048 -0.0194689371
-0.0172962584 0.0023740586 0.0057847314
-0.0239781924 0.0031617209 -0.0089270584
-0.0229681320 -0.0004097745 -0.0046400167
-0.0228746459 0.0030317344 -0.0053350069
0.0160853975 0.0030408744 -0.0043354817
0.0155571252 0.0030556172 -0.0047311224
0.0168612190 0.0025716629 -0.0040647723
0.0177309141 0.0026812721 -0.0039294176
-0.0268493965 0.0033814479 -0.0151428618
-0.0270760618 0.0033207797 -0.0164235048
0.0206516124 0.0030295532 -0.0040075146
-0.0053050024 0.0029291101 -0.0017741881
-0.0127713894 0.0019431990 0.0041917376
-0.0057182787 0.0029075332 -0.0012119524
-0.0040318547 0.0030001067 -0.0036274754
0.0110159190 0.0030929409 -0.0057722963
-0.0163743645 0.0027462319 0.0026924498
-0.0162130408 0.0027622450 0.0022707693
-0.0264316946 0.0033711232 -0.0148226954
-0.0023650667 0.0029531512 -0.0023286073
-0.0013414575 0.0028615016 -0.0019616000
-0.0008375747 0.0022837520 -0.0031173043
-0.0012309654 0.0024321824 -0.0038669519
-0.0076927049 0.0021535847 -0.0003998391
0.0003998363 0.0027787518 -0.0037732460
0.0007404191 0.0026987214 -0.0046556331
0.0013354598 0.0029306207 -0.0046946816
0.0304479972 0.0031188857 -0.0170950629
0.0037665600 0.0030250549 -0.0040933974
0.0044149598 0.0029753204 -0.0027580969
0.0056204079 0.0026117768 -0.0018324964
0.0042270096 0.0030039698 -0.0035233609
0.0294363983 0.0018791333 -0.0085105859
0.0281152949 0.0031739827 -0.0078338198
0.0226835124 0.0032482948 -0.0098016448
0.0228497088 0.0032106116 -0.0088021122
0.0236819871 0.0031706076 -0.0077401064
0.0270487703 0.0010340903 -0.0010713981
-0.0194885693 0.0008510165 0.0042581074
-0.0060745543 0.0025907978 -0.0012483923
0.0274023861 0.0029207543 -0.0011182465
-0.0155830784 0.0027743783 0.0019740351
0.0138445944 0.0030895192 -0.0056473576
0.0146520976 0.0030930676 -0.0057332478
0.0151488902 0.0030711759 -0.0051475950
0.0148248607 0.0027108043 -0.0037420057
0.0147569813 0.0025205929 -0.0028674267
0.0146606611 0.0022535995 -0.0020787306
0.0200170279 0.0019113515 -0.0184225701
0.0092346920 0.0026136171 -0.0103638731
-0.0260589495 0.0034425408 -0.0137607045
-0.0264180042 0.0035881791 -0.0148461275
-0.0194262825 0.0029603932 0.0021239631
-0.0185257830 0.0030196663 0.0018959455
-0.0175799467 -0.0012020599 0.0057951473
-0.0172008015 0.0030473154 0.0011697374
-0.0159346163 0.0030825343 0.0002248622
-0.0163477696 0.0030675996 0.0006309189
-0.0151724620 0.0027902201 0.0015679784
-0.0254898630 0.0035202987 -0.0128127225
-0.0245795064 -0.0003416911 -0.0097593777
-0.0141189164 0.0027247351 0.0001155399
-0.0133330626 0.0026751403 -0.0001343377
0.0149471201 0.0023762770 -0.0098172612
-0.0188486725 0.0019929595 0.0056597926
-0.0189787447 0.0017110445 0.0050261579
-0.0112638688 0.0026481226 -0.0001304410
-0.0112714497 0.0028855894 -0.0008215196
-0.0100689596 0.0026572160 -0.0010713981
-0.0103724850 0.0024405159 -0.0001811944
-0.0177564435 0.0021541230 0.0049101450
-0.0085025569 0.0023839325 -0.0001916029
-0.0246074758 0.0026708171 -0.0108167864
-0.0074374555 0.0026663952 -0.0012015440
0.0299413167 0.0035244003 -0.0171315111
0.0304479040 0.0035229251 -0.0170950629
0.0175726004 0.0017452482 -0.0088021196
-0.0024921810 0.0025114790 -0.0011321269
-0.0270598941 0.0001520514 -0.0214679949
0.0020841239 0.0026857313 -0.0013993643
0.0037787715 0.0025353637 -0.0020162649
0.0047565782 0.0028085597 -0.0018946715
0.0069788275 0.0027843211 -0.0027997531
0.0288840309 0.0017881524 -0.0088782497
0.0095224297 0.0026278384 -0.0032922216
-0.0283609293 0.0013647117 -0.0187895782
-0.0269820243 0.0018373150 -0.0166031085
-0.0232604407 0.0032915995 -0.0060971417
-0.0233968757 0.0033618361 -0.0081149377
0.0152384946 0.0022808015 -0.0077401139
-0.0221359022 -0.0041922508 -0.0017741807
0.0170062445 0.0030835364 -0.0054599456
0.0165981241 0.0030598696 -0.0048352368
0.0178280324 0.0025415141 -0.0033359565
0.0019832449 0.0022621881 -0.0100202896
0.0311167799 0.0031111632 -0.0215148516
0.0234676972 0.0016934052 -0.0168920346
0.0308842808 0.0030232612 -0.0195157938
0.0207769051 0.0027994495 -0.0030235909
0.0017045205 0.0032783393 -0.0047665276
0.0027838098 0.0032837708 -0.0048977099
-0.0041873781 0.0023811813 -0.0018626861
0.0038055899 0.0022701789 -0.0013212832
0.0122091817 0.0033054389 -0.0053662397
0.0118047567 0.0033175088 -0.0057098307
0.0114657963 0.0033440497 -0.0064594708
-0.0249678679 0.0006159898 -0.0120089315
-0.0244246908 -0.0032915454 -0.0088732578
-0.0247498229 -0.0029638205 -0.0099994652
-0.0210060477 0.0027123410 0.0000869222
-0.0202640072 -0.0013217460 0.0022114180
0.0260308124 0.0028842334 -0.0032110102
0.0255825259 0.0028296616 -0.0037732385
0.0253757387 0.0030551795 -0.0046790643
0.0096777072 0.0022995546 -0.0209630243
0.0056692148 0.0032223370 -0.0031173043
0.0030581104 0.0030042250 -0.0035545938
-0.0066528423 0.0029555988 -0.0025238357
-0.0048477603 0.0029565934 -0.0024926029
0.0307010747 0.0034951810 -0.0189847983
0.0307256766 0.0037588179 -0.0180477388
-0.0032068891 0.0025163535 -0.0017611720
0.0194531493 0.0032880455 -0.0048248284
0.0173208378 0.0021459218 -0.0215460844
0.0140818367 0.0025660247 -0.0039606579
0.0135705024 0.0028813072 -0.0049664266
-0.0236423127 0.0033787284 -0.0086147077
0.0145660536 0.0033269860 -0.0059492998
0.0088649904 0.0026729219 -0.0032734759
0.0086950688 0.0029724874 -0.0036326908
0.0158045776 0.0033252053 -0.0058894344
0.0165230520 0.0033378955 -0.0062408261
0.0178554729 0.0033301264 -0.0060143657
-0.0268755294 0.0028752200 -0.0159445666
0.0234609321 0.0023958422 -0.0167618953
0.0240299217 0.0034055971 -0.0081149377
-0.0091766296 0.0032297242 -0.0036873408
-0.0087951748 0.0032066852 -0.0030235983
-0.0085165566 0.0031848941 -0.0023988970
0.0221999772 0.0034355577 -0.0089582913
0.0218296684 0.0033454206 -0.0064282380
-0.0000762464 0.0024873037 -0.0077401139
0.0018961588 0.0023843627 -0.0078806765
0.0269324183 0.0031596143 -0.0012119524
0.0265918337 0.0031891242 -0.0020396896
0.0274080187 0.0031840540 -0.0018991269
-0.0204239152 0.0026792083 0.0009940378
-0.0200946629 0.0028512105 0.0019115694
-0.0179794207 0.0030342825 0.0015055053
0.0270876549 0.0029962659 -0.0010349564
-0.0269104354 0.0037082806 -0.0152443834
-0.0269991793 0.0036262330 -0.0160000958
-0.0143707683 0.0031123348 -0.0005560182
-0.0132662049 0.0029357430 -0.0009620674
-0.0121078333 0.0026811715 -0.0010089241
-0.0118020317 0.0026130378 -0.0000250153
-0.0092617199 0.0026448146 -0.0007295422
-0.0084487228 0.0027451273 -0.0008121394
-0.0072585596 0.0028739665 -0.0019537993
-0.0034687249 0.0029211640 -0.0027612261
-0.0012640534 0.0025761537 -0.0007278137
-0.0006287536 0.0022389051 -0.0020865388
-0.0235955827 0.0016642567 -0.0084741451
0.0016729208 0.0026968941 -0.0016908906
0.0028959280 0.0026241764 -0.0018054284
0.0025287690 0.0029943939 -0.0033047153
0.0077648098 0.0026662108 -0.0032913275
0.0098277209 0.0029363986 -0.0036743246
-0.0232510157 0.0035248306 -0.0061158799
-0.0237581395 0.0033086445 -0.0066156499
-0.0233963318 0.0035904050 -0.0081149377
-0.0180273987 0.0033502337 -0.0005872510
0.0024392167 0.0035619289 -0.0063657649
0.0118192313 0.0035652388 -0.0080056153
-0.0154388947 0.0033364296 -0.0000718720
-0.0146353794 0.0033742506 -0.0011807196
-0.0138987293 0.0034176987 -0.0024613626
-0.0205743350 0.0028838534 0.0004357062
-0.0202402994 0.0033139829 0.0004122742
-0.0197888501 -0.0006506499 0.0030360334
-0.0202310830 -0.0001024771 0.0022122078
0.0260320269 0.0033485871 -0.0032734834
0.0257008933 0.0033712313 -0.0039294101
0.0024347352 0.0022847261 -0.0104888119
0.0228150785 0.0014610197 -0.0213274397
-0.0183194801 0.0019840654 0.0058992691
0.0193192177 0.0023829453 -0.0099109598
-0.0233672410 0.0030214172 -0.0081774108
-0.0216696523 0.0015704483 -0.0016297288
-0.0216689184 0.0018642657 -0.0027659126
0.0164029263 0.0022384617 -0.0196407326
0.0278895274 0.0019961372 -0.0063657649
0.0173064731 0.0027189832 -0.0214211456
0.0281152241 0.0016082041 -0.0075339563
0.0150292460 0.0032969173 -0.0051007457
0.0143725993 0.0035614669 -0.0062095933
0.0153902881 0.0035930872 -0.0071466453
0.0167185608 0.0036229137 -0.0080290474
0.0106955925 0.0028869677 -0.0048508542
0.0117090056 0.0029534716 -0.0050851218
0.0114379739 0.0029713511 -0.0055536516
-0.0246986449 0.0034467150 -0.0106345825
-0.0245395787 0.0034902766 -0.0118770413
-0.0263914280 0.0038059205 -0.0148929842
0.0119328694 0.0029224027 -0.0042808093
0.0199456625 0.0022336524 -0.0195001699
-0.0100234328 0.0025411304 -0.0040387399
-0.0100377565 0.0029271152 -0.0018835105
-0.0042698598 0.0034482684 -0.0048274286
0.0184759907 0.0035761707 -0.0066260658
-0.0100270910 0.0034968089 -0.0047103055
-0.0101593090 0.0034841858 -0.0043354752
0.0219825618 0.0036557037 -0.0089895241
0.0217112079 0.0036274195 -0.0081461780
0.0213824101 0.0035708658 -0.0064594708
-0.0002637608 0.0024562515 -0.0070373304
0.0265636854 0.0033689383 -0.0027424805
0.0317927822 0.0031101052 -0.0214961059
0.0265906863 0.0028357189 -0.0019616000
0.0276481770 0.0029961336 -0.0031173043
-0.0265225247 0.0037326589 -0.0181793682
0.0123711070 0.0022418201 -0.0144765116
-0.0204821937 0.0020642765 0.0009745099
-0.0129179573 0.0024414528 -0.0017741881
-0.0122224791 0.0026080664 -0.0016403310
-0.0117811924 0.0022230186 -0.0021802448
-0.0107882572 0.0024923272 -0.0028986596
-0.0091725057 0.0029289015 -0.0018991269
-0.0080796843 0.0029151477 -0.0014930703
0.0363554880 0.0023542531 -0.0043667145
-0.0245775357 -0.0013471786 -0.0109313168
0.0218707398 0.0025210939 -0.0172668509
-0.0197461620 0.0008555409 0.0029501356
0.0308843777 0.0038105976 -0.0195053853
-0.0168717541 0.0006864909 0.0039730929
-0.0001836075 0.0028588399 -0.0028830357
0.0003676908 0.0027546082 -0.0031797774
0.0016685920 0.0028038342 -0.0029220833
0.0015086057 0.0027869716 -0.0039668940
0.0077530211 0.0030087568 -0.0035858266
0.0295846164 0.0017243326 -0.0137497820
-0.0178169161 0.0023742896 0.0057534985
0.0140508153 0.0022453498 -0.0018991269
-0.0233648792 0.0038132276 -0.0079275258
-0.0235709548 0.0037428923 -0.0086084493
-0.0231886581 -0.0003195591 -0.0060234927
-0.0043447195 0.0032523591 -0.0041793026
-0.0046141287 0.0037736818 -0.0060221814
-0.0032153530 0.0037740488 -0.0060065575
0.0301378109 0.0041393023 -0.0174230374
0.0245837159 0.0028695781 -0.0068655275
0.0252155215 0.0022539068 -0.0070841797
0.0058202902 0.0033638105 -0.0038513280
0.0056132963 0.0036353692 -0.0051007457
0.0067051547 0.0035499912 -0.0059440918
0.0063929139 0.0038161520 -0.0072091185
0.0069086617 0.0038261265 -0.0075214766
-0.0210800171 0.0035156440 0.0017710142
-0.0212101527 0.0035344251 0.0011619218
0.0010767533 0.0024520271 -0.0068967678
-0.0201108158 0.0035590511 0.0004122742
0.0016597649 0.0024231393 -0.0087396391
-0.0183715858 0.0036329739 -0.0018991269
0.0202014744 0.0025448371 -0.0086459406
-0.0086870110 0.0038176645 -0.0075214691
-0.0216337852 0.0026995894 -0.0016236939
-0.0216718502 0.0025804807 -0.0027541928
0.0278900713 0.0026780162 -0.0065719150
0.0281151123 0.0029438697 -0.0076151751
0.0288830735 0.0029978603 -0.0089739077
-0.0227575190 0.0020593312 -0.0045228861
0.0094468398 0.0032535400 -0.0039398335
0.0126656890 0.0036107227 -0.0076932646
0.0138426991 0.0035215002 -0.0068570040
0.0149285588 0.0035894979 -0.0070425309
0.0145927453 0.0038404036 -0.0079171099
0.0151098538 0.0038584732 -0.0084897615
-0.0100978492 0.0031962972 -0.0027737133
-0.0105707301 0.0031725187 -0.0021177791
0.0159087814 0.0037547462 -0.0086927898
0.0263028666 0.0037656855 -0.0055224188
-0.0173624828 0.0033535399 -0.0006601326
-0.0160664618 0.0034576561 -0.0000874959
0.0116195614 0.0039335843 -0.0109026767
0.0124376705 0.0039011538 -0.0098641180
0.0129567645 0.0038715061 -0.0089166425
0.0215879679 0.0038963351 -0.0096766986
0.0212979838 0.0038619731 -0.0085834675
0.0198448785 0.0018206015 -0.0179852657
0.0267471597 0.0037456937 -0.0048873089
-0.0268524662 0.0010580141 -0.0160070397
-0.0267525315 0.0008301958 -0.0157675706
-0.0264519006 0.0006537605 -0.0146014504
-0.0264068954 0.0043326132 -0.0182039179
-0.0255235285 0.0006587822 -0.0127789937
0.0262547471 0.0027525034 -0.0028049611
-0.0268321335 0.0032786895 -0.0180789717
-0.0212178193 0.0015960820 -0.0011590905
-0.0135880588 0.0022950303 -0.0039294176
-0.0116754984 0.0023524836 -0.0051475950
0.0270481072 0.0017380305 -0.0010089315
-0.0263782442 0.0031505860 -0.0147055648
-0.0091863759 0.0029680673 -0.0029455088
0.0311155394 0.0036907289 -0.0215491988
-0.0019094376 0.0024976227 -0.0026800074
0.0012932224 0.0026372615 -0.0059284754
0.0306970924 0.0030068215 -0.0191409700
0.0029283473 0.0035663862 -0.0064907111
0.0034570666 0.0039859805 -0.0079275332
0.0033258917 0.0040814467 -0.0086459406
0.0058447691 0.0040582977 -0.0078338198
-0.0255416296 0.0041768979 -0.0127127580
-0.0249186493 0.0041660350 -0.0123004653
-0.0246397927 0.0041619688 -0.0121442862
0.0071129994 0.0024318993 -0.0062720589
0.0075452747 0.0024268478 -0.0061471201
-0.0189065076 0.0022830460 0.0048008226
0.0086946944 0.0038237311 -0.0074277632
0.0098143267 0.0035779011 -0.0067405887
-0.0183216929 0.0023895893 0.0053396337
0.0122687006 0.0028050765 -0.0042105354
-0.0239319727 0.0037323404 -0.0090168603
0.0158033073 0.0036151502 -0.0078025870
0.0187638961 0.0027753972 -0.0039856471
0.0191064514 0.0025445390 -0.0033984222
0.0197514556 0.0030388292 -0.0042573921
0.0220362581 0.0031092335 -0.0061158873
0.0228747949 0.0037721097 -0.0108597241
0.0225766897 0.0038204622 -0.0117902793
-0.0055655343 0.0031780843 -0.0021177717
-0.0270967856 -0.0006812792 -0.0212337337
0.0067913951 0.0032560024 -0.0040465482
-0.0007759919 0.0032577794 -0.0042417757
-0.0005767616 0.0035433434 -0.0058660023
0.0218715370 0.0041954778 -0.0124566294
0.0171860941 0.0038842577 -0.0093018748
0.0176677182 0.0039480235 -0.0090103485
0.0183414333 0.0040873438 -0.0087708794
0.0127474610 0.0029589031 -0.0047950773
0.0205500573 0.0040910505 -0.0088958181
-0.0233339779 0.0040439982 -0.0079899989
-0.0142624639 0.0037841387 -0.0028049536
-0.0212109648 0.0026406553 -0.0012119524
0.0246319138 0.0019633863 -0.0079821907
0.0256142840 0.0036164951 -0.0051101111
-0.0225933716 0.0030150488 -0.0048664771
0.0234491937 0.0027216282 -0.0058139525
-0.0269227289 0.0040308349 -0.0152209513
-0.0172187425 0.0027261395 0.0031922124
-0.0167057067 0.0039031636 -0.0028986596
0.0130061349 0.0041231252 -0.0100046732
0.0131832333 0.0040924698 -0.0089582913
0.0135908406 0.0040854923 -0.0087188147
0.0134232147 0.0037486218 -0.0078338198
0.0064621894 0.0026808418 -0.0021646358
0.0283363871 0.0018689539 -0.0083023570
0.0200933069 0.0025698580 -0.0222644918
-0.0269038454 0.0020161923 -0.0159029178
0.0207131393 0.0033468287 -0.0032266267
-0.0218662173 0.0040670056 -0.0003061332
-0.0214218423 0.0036750846 -0.0011450239
-0.0200912617 0.0040986054 -0.0014306046
0.0255947709 0.0037274417 -0.0043042414
-0.0465827212 0.0035778992 0.0068154968
-0.0171966180 0.0039554499 -0.0047102980
0.0214470215 0.0028996971 -0.0026175417
-0.0219363198 0.0027201679 -0.0032890998
-0.0122327572 0.0040032882 -0.0062200092
-0.0109749017 0.0040092971 -0.0063970052
-0.0271263458 0.0040515382 -0.0159133337
-0.0092641367 0.0035017449 -0.0048352368
-0.0263821520 0.0040224567 -0.0149086080
-0.0072407974 0.0038121864 -0.0073106326
-0.0068976087 0.0040582009 -0.0079899989
-0.0065556346 0.0040579233 -0.0079743825
-0.0058461418 0.0040906854 -0.0090832300
-0.0052297181 0.0040636100 -0.0081461705
-0.0039501591 0.0040655769 -0.0081930272
-0.0041399961 0.0037866924 -0.0064282380
0.0311142765 0.0043662488 -0.0215851255
-0.0034558577 0.0034429505 -0.0048977099
-0.0032436391 0.0032426957 -0.0038773678
-0.0023063244 0.0035024844 -0.0046790643
-0.0013310043 0.0035073459 -0.0048040114
-0.0014292942 0.0037794579 -0.0061471201
-0.0002894988 0.0036917124 -0.0069358088
-0.0062874062 0.0025504529 -0.0018272884
0.0007112520 0.0035757609 -0.0068108700
0.0017241845 0.0035736207 -0.0067280941
0.0018992303 0.0038499702 -0.0083439983
0.0029871119 0.0040947646 -0.0091040544
0.0025496250 0.0041223746 -0.0100515299
0.0316955000 0.0036891755 -0.0215117224
0.0361964367 0.0020807758 -0.0033984222
0.0078194058 0.0040678624 -0.0081461705
0.0073856646 0.0040863864 -0.0087812953
0.0088483142 0.0041238870 -0.0100515224
0.0087029496 0.0039730612 -0.0086771734
0.0106575964 0.0034766924 -0.0070529468
0.0105931247 0.0033264589 -0.0059753247
0.0127392141 0.0033237878 -0.0058764173
-0.0243598111 0.0043220539 -0.0098641105
-0.0247236565 0.0043409169 -0.0105825253
-0.0245341137 0.0043759998 -0.0118839853
0.0141337495 0.0041072182 -0.0094580539
0.0145021724 0.0041159522 -0.0097547881
-0.0213259868 -0.0032291282 0.0001467727
0.0187909678 0.0034784563 -0.0059597157
0.0196088105 0.0037467349 -0.0059507899
0.0204703324 0.0037893131 -0.0062720589
-0.0228664540 0.0033832937 -0.0053506233
0.0214892402 0.0032786429 -0.0045541264
0.0028487584 0.0043371674 -0.0099109598
0.0164444428 0.0022644810 -0.0023051910
0.0246506669 0.0036958233 -0.0068616308
0.0256017558 0.0040548742 -0.0076672398
0.0257747769 0.0040400531 -0.0071622618
0.0266788937 0.0040658731 -0.0080446638
0.0269004777 -0.0041399915 -0.0009308420
0.0277902745 0.0041109025 -0.0095830001
0.0284438133 0.0041071773 -0.0094580539
0.0219086222 0.0044229906 -0.0130344890
0.0167610012 0.0039437748 -0.0098203830
0.0175683908 0.0041179955 -0.0098172612
-0.0214658938 0.0037636403 0.0017553903
-0.0212758072 0.0038703736 0.0009120367
-0.0142960204 0.0041966401 -0.0049289512
-0.0135550564 0.0042232368 -0.0058972351
-0.0125942854 0.0042575542 -0.0071466453
-0.0120067028 0.0042743366 -0.0077557303
-0.0181243531 0.0039246585 -0.0036795400
-0.0103955036 0.0042983424 -0.0086147003
0.0275548212 0.0036378410 -0.0067874454
0.0278425850 0.0038715936 -0.0089036264
-0.0152729889 0.0038815495 -0.0021177791
-0.0260334164 0.0043164138 -0.0138036497
0.0111069018 0.0036348272 -0.0084272884
0.0089140357 0.0032629203 -0.0042105354
-0.0202356279 0.0038128886 0.0000999235
-0.0192622095 0.0039996933 -0.0021802532
0.0120480591 0.0039108787 -0.0101764612
0.0209716149 0.0044277050 -0.0132062770
0.0206867382 0.0044004973 -0.0122067519
0.0203832984 0.0043681841 -0.0110198148
0.0202034824 0.0024082977 -0.0190472640
0.0210382603 0.0035101194 -0.0046478324
0.0205323510 0.0033489391 -0.0039481558
-0.0219230019 0.0040106829 -0.0017929263
-0.0215955377 0.0034753811 -0.0016117729
-0.0216634162 0.0034170691 -0.0027685203
0.0250661373 0.0035481732 -0.0057827048
0.0200290233 0.0027743988 -0.0033671893
0.0278941467 0.0036233272 -0.0080212392
0.0288017243 0.0036181025 -0.0090180524
-0.0223173238 0.0028590206 -0.0038357116
0.0233156905 0.0023640692 -0.0045228861
-0.0113812862 0.0040144939 -0.0065844096
-0.0104871457 0.0040296558 -0.0070841797
-0.0103516458 0.0037631132 -0.0058191530
-0.0092509417 0.0038087480 -0.0072507672
-0.0081511168 0.0038136933 -0.0073809139
-0.0072940318 0.0040837098 -0.0088708289
-0.0055329977 0.0040881056 -0.0089895315
0.0311134905 0.0046557989 -0.0216085576
0.0316945463 0.0044609439 -0.0215330683
-0.0022464870 0.0037657004 -0.0057223253
-0.0023223916 0.0040338356 -0.0070841722
-0.0010429667 0.0037972797 -0.0067093559
-0.0013536019 0.0040631481 -0.0080732964
-0.0000665123 0.0038310681 -0.0077713542
0.0004884182 0.0038430952 -0.0081461780
0.0010154685 0.0038521644 -0.0084272884
0.0013748491 0.0038547851 -0.0085053779
0.0017234692 0.0041294321 -0.0103014000
-0.0183688588 0.0041765440 -0.0042730086
-0.0268551446 0.0019685086 -0.0149320252
0.0359628014 0.0020823553 -0.0034296550
-0.0011894768 0.0025728438 -0.0044604205
0.0067670858 0.0040935781 -0.0090311728
0.0098113799 0.0038823821 -0.0092862584
0.0107548898 0.0036310479 -0.0083179660
-0.0250622071 0.0045344625 -0.0123316906
-0.0255910084 0.0044590775 -0.0126842074
-0.0245371424 0.0008845050 -0.0096860714
0.0149534829 0.0041439235 -0.0107074641
0.0177241750 0.0035318770 -0.0069826655
0.0177106112 0.0037537068 -0.0079712532
0.0186951533 0.0039482657 -0.0078130029
0.0201539285 0.0040654000 -0.0080212317
0.0196112171 0.0040292088 -0.0067874379
0.0198408030 0.0035950188 -0.0049185418
0.0028411513 0.0045551993 -0.0098797269
0.0040013650 0.0045485236 -0.0096142329
-0.0221438557 0.0035846997 -0.0038318224
-0.0112957796 0.0045549963 -0.0099265836
0.0200232156 0.0033462476 -0.0043146573
-0.0172361471 0.0044922177 -0.0074902363
0.0289907791 0.0044277515 -0.0092185847
0.0078222966 0.0032754317 -0.0045775510
0.0086573744 0.0033568908 -0.0047207139
0.0093537541 0.0035547242 -0.0060534133
0.0179729871 0.0043961015 -0.0100515224
0.0187556706 0.0043101050 -0.0088854097
0.0136116790 0.0046313703 -0.0129251741
0.0146950334 0.0046614017 -0.0141225122
0.0274272189 0.0035069007 -0.0045541264
-0.0107274828 0.0045621693 -0.0102077015
0.0276840292 0.0044517871 -0.0101296119
-0.0024596760 0.0043037478 -0.0087188222
0.0058808355 0.0046107583 -0.0120922290
-0.0082918806 0.0035040807 -0.0048768856
-0.0244049802 0.0027409792 -0.0097829066
-0.0124630844 0.0045242049 -0.0087084137
-0.0255030990 0.0019803587 -0.0128002353
0.0048122266 0.0040255729 -0.0067249723
0.0038715592 0.0034051463 -0.0050799213
-0.0011459058 0.0045974702 -0.0115664341
0.0243610218 0.0045835134 -0.0110510476
0.0047338950 0.0043103676 -0.0089166425
0.0054820506 0.0043200850 -0.0092706420
0.0199207328 0.0024160445 -0.0106241740
0.0201974213 0.0046592001 -0.0140496306
0.0197778046 0.0046274327 -0.0127846040
-0.0225096680 0.0036323760 -0.0049601756
0.0163980406 0.0026409831 -0.0029611327
0.0248637050 0.0027193893 -0.0060132556
0.0251624323 0.0027345810 -0.0052022599
-0.0100026159 0.0040500108 -0.0077713542
-0.0094779013 0.0040644668 -0.0082555003
-0.0082688732 0.0040932279 -0.0092159845
-0.0083942777 0.0041066017 -0.0096766986
0.0311129950 0.0048487429 -0.0216241740
-0.0037247865 0.0037937928 -0.0066468827
-0.0032787947 0.0040529910 -0.0077526160
-0.0026479503 0.0040474087 -0.0075527020
-0.0219958797 0.0043252613 -0.0008839853
-0.0224131867 0.0044719819 -0.0019537918
-0.0006263470 0.0040920563 -0.0090519972
0.0004406171 0.0041226018 -0.0100827552
0.0231519938 0.0025846567 -0.0185787417
-0.0180017240 0.0041843783 -0.0045541264
-0.0174778141 0.0042024404 -0.0052100606
-0.0213143677 0.0036895070 0.0001051389
-0.0196999833 0.0033064783 0.0006621592
0.0096750399 0.0039757993 -0.0099578165
-0.0258061178 0.0047695767 -0.0129668079
-0.0260328762 0.0047525372 -0.0138036497
-0.0256614983 0.0048318859 -0.0124878697
0.0126866810 0.0041459780 -0.0107855536
0.0170138367 0.0033513568 -0.0066156499
0.0208219066 0.0037957057 -0.0064750947
0.0030695358 0.0044222884 -0.0089817159
0.0028101774 0.0047816429 -0.0102077015
-0.0214878023 0.0046393350 -0.0039918907
0.0164770447 0.0021437109 -0.0178290941
-0.0169800557 0.0044790450 -0.0069592334
0.0212247409 0.0032585952 -0.0039918907
-0.0005721366 0.0026631635 -0.0008996017
0.0076586762 0.0035569351 -0.0061393119
0.0085517755 0.0035536345 -0.0060299896
0.0100872247 0.0032912362 -0.0049914159
-0.0002341820 0.0032678284 -0.0045124711
0.0006690202 0.0032799989 -0.0048352368
0.0075447960 0.0043287836 -0.0095829926
0.0077950107 0.0046065208 -0.0119256340
0.0076681552 0.0048667509 -0.0139325000
0.0086471634 0.0047642477 -0.0140496381
0.0086642383 0.0048959330 -0.0152053349
0.0100923935 0.0046982765 -0.0155801512
0.0103689367 0.0049259085 -0.0165172108
-0.0169137530 0.0042154584 -0.0056785904
0.0298402272 0.0046355277 -0.0171419196
0.0263205133 0.0048311036 -0.0124878697
0.0269338973 0.0046834014 -0.0107386969
0.0267078169 0.0043399800 -0.0099968649
0.0270255581 0.0045409072 -0.0093643479
0.0097957077 0.0049314648 -0.0167546012
0.0134357540 0.0048916228 -0.0150491558
-0.0100921495 0.0048353951 -0.0124878697
-0.0193353593 0.0034033116 0.0002040453
0.0276544206 0.0032708161 -0.0043354752
-0.0069080135 0.0043191686 -0.0093331151
-0.0042944839 0.0048427451 -0.0128210448
0.0201460347 0.0043605361 -0.0107386969
0.0293875411 0.0042014420 -0.0126752816
0.0113682123 0.0048153810 -0.0147368051
0.0188895091 0.0048800949 -0.0145806260
0.0188090056 0.0048606731 -0.0137372799
0.0193896368 0.0048749950 -0.0143619813
0.0059051355 0.0048605409 -0.0136513822
0.0245079622 0.0043169539 -0.0091457032
0.0046134321 0.0048281644 -0.0122379921
0.0234397464 0.0037881043 -0.0096923150
0.0175856352 0.0030204672 -0.0047935881
0.0244507678 0.0036808848 -0.0075318776
0.0185128339 0.0030485895 -0.0045228936
0.0281155705 -0.0001676418 -0.0075527094
-0.0237590671 0.0029610675 -0.0066156499
0.0293981656 0.0035354104 -0.0117694624
0.0237125158 0.0026842449 -0.0067093484
0.0243450589 0.0027251504 -0.0076776482
0.0283362195 0.0026421659 -0.0083413981
-0.0219741352 0.0020028073 -0.0032110102
-0.0224409141 0.0017930139 -0.0038487362
-0.0043153791 0.0040850416 -0.0088645853
-0.0229777247 0.0048424993 -0.0023988970
-0.0219069384 0.0044924021 -0.0027893363
-0.0227650218 0.0048405249 -0.0023051910
0.0010193707 0.0041374285 -0.0105825253
0.0016968017 0.0048647802 -0.0138205774
-0.0109763173 0.0021946914 -0.0067249723
0.0166976489 0.0023525953 -0.0179852657
-0.0162953176 0.0041761156 -0.0042105354
-0.0163621716 0.0041959323 -0.0049445583
-0.0151585815 0.0041788518 -0.0042886250
-0.0155173419 0.0041875392 -0.0046165921
0.0095626144 0.0041505583 -0.0109573416
0.0106257508 0.0039105415 -0.0101764686
0.0110849170 0.0039351732 -0.0109573416
-0.0264016464 0.0047009364 -0.0150111280
-0.0260092877 0.0050805155 -0.0138466023
-0.0165150426 0.0034543052 -0.0007496737
-0.0154142706 0.0035913270 -0.0004623123
0.0167049337 0.0041489359 -0.0108740591
-0.0185080841 0.0027133860 0.0034733303
-0.0112955859 0.0031729341 -0.0021552630
-0.0099842874 0.0050938632 -0.0145181604
-0.0232599266 0.0027102716 -0.0061018132
-0.0093078492 0.0048421379 -0.0127814822
0.0001247516 0.0043872334 -0.0117694624
0.0008185739 0.0044018067 -0.0123004578
0.0008777259 0.0044077635 -0.0125191025
0.0020066733 0.0048121009 -0.0128492974
0.0031699045 0.0050488599 -0.0125503428
0.0098637035 0.0051648319 -0.0181726776
-0.0091844909 0.0051132999 -0.0154552199
-0.0236590989 0.0029221289 -0.0085834675
0.0242047980 0.0023789592 -0.0097860284
-0.0048524579 0.0051114969 -0.0154239796
-0.0060891090 0.0031731296 -0.0019928403
-0.0062440960 0.0032105967 -0.0030548312
-0.0048920689 0.0032152850 -0.0031485371
-0.0051490469 0.0034867357 -0.0042730086
