# .PCD v0.7 - Point Cloud Data file format
VERSION 0.7
FIELDS x y z
SIZE 4 4 4
TYPE F F F
COUNT 1 1 1
WIDTH 1189
HEIGHT 1
VIEWPOINT 0 0 0 1 0 0 0
POINTS 1189
DATA ascii
0.0029719966 0.0061713643 0.0008424490
-0.0260798521 0.0042482559 -0.0030287832
-0.0254226364 0.0042495020 -0.0030515448
-0.0305465683 0.0073692296 -0.0031088174
-0.0279747099 0.0072887465 -0.0029276714
-0.0110082859 0.0070544686 0.0004207760
-0.0099783288 0.0070576519 0.0003534749
-0.0010155337 0.0086622257 -0.0008286417
-0.0000747526 0.0086598936 -0.0007911653
0.0009626308 0.0086579584 -0.0007224486
0.0127107492 0.0059262794 0.0022636473
-0.0140476534 0.0082408693 0.0003409355
0.0070657553 0.0085356608 -0.0008817420
0.0080026323 0.0086366627 -0.0008911148
0.0089348061 0.0086349752 -0.0008786202
0.0099715451 0.0086329691 -0.0008786202
0.0110051483 0.0086313449 -0.0008661256
0.0120401504 0.0086295046 -0.0008723766
0.0129703963 0.0086280163 -0.0008754984
0.0137935700 0.0086272899 -0.0008520738
0.0151321804 0.0086260233 -0.0008286417
0.0156909935 0.0086162500 -0.0013127879
0.0099367565 0.0080175549 -0.0006370575
0.0109596318 0.0079841297 -0.0006436214
0.0120443786 0.0080633126 -0.0006099895
0.0130355470 0.0081175137 -0.0005428374
0.0181035325 0.0081154630 -0.0014895306
-0.0069848197 0.0064312108 0.0004520013
-0.0088780420 0.0089006927 -0.0008390502
-0.0164179690 0.0086885579 -0.0030151114
-0.0177592970 0.0069427155 0.0045281993
-0.0100302259 0.0082732104 -0.0004793808
-0.0090438994 0.0082874037 -0.0005190105
-0.0026133033 0.0088760946 -0.0007974089
-0.0017679436 0.0088732745 -0.0007869930
0.0019767424 0.0088562351 -0.0010160536
-0.0259958841 0.0072805267 -0.0029813827
-0.0030584345 0.0086711515 -0.0007224411
0.0110116312 0.0088363588 -0.0009161041
-0.0252235681 0.0089501496 -0.0029526383
-0.0184176601 0.0043405183 0.0067302855
0.0148685100 0.0083699953 -0.0007661611
-0.0204439089 0.0089214053 -0.0028589324
-0.0237228386 0.0081474110 0.0007018864
-0.0171765275 0.0071860980 -0.0003497035
-0.0235061832 0.0081466809 0.0007331192
-0.0092523592 0.0089032166 -0.0007974089
0.0021930067 0.0065805279 -0.0000946179
-0.0270630941 0.0083338507 -0.0029214278
0.0039732633 0.0072109401 -0.0003090084
0.0047723567 0.0076157469 -0.0003444955
0.0061744237 0.0074076299 0.0000095039
-0.0305515938 0.0082471445 -0.0031088174
-0.0279839784 0.0083393008 -0.0029214278
0.0106878234 0.0068822913 0.0006940707
-0.0299841724 0.0072967242 -0.0030697912
-0.0183348097 0.0087368339 -0.0008754984
-0.0168278068 0.0083974972 0.0009673804
-0.0153905535 0.0081156958 0.0012953549
0.0009708172 0.0063265190 0.0010537996
0.0275694914 0.0089536272 -0.0042645140
-0.0142753730 0.0090253055 0.0005352914
-0.0010237647 0.0086628366 -0.0007974089
0.0062973080 0.0057306755 0.0010767027
0.0079234475 0.0089429654 -0.0010410503
0.0089629441 0.0089402217 -0.0010597885
0.0099904221 0.0089392085 -0.0010098175
0.0110232728 0.0090403110 -0.0010035590
0.0120566757 0.0089354552 -0.0010066882
0.0129895993 0.0089331139 -0.0010433898
0.0139127607 0.0089325886 -0.0010035664
0.0149394730 0.0089318696 -0.0009723336
0.0155955059 0.0089217369 -0.0013908774
0.0160822272 0.0089017674 -0.0022758797
0.0168866701 0.0089031812 -0.0021748797
0.0178420357 0.0089183748 -0.0019565851
-0.0132227065 0.0056280363 0.0026072308
-0.0299474262 0.0090563577 -0.0030664310
-0.0043781968 0.0059513357 0.0012953475
-0.0270719081 0.0091733448 -0.0029162050
0.0008407338 0.0059421696 0.0016076982
-0.0020343820 0.0091161095 -0.0009450794
-0.0010133600 0.0090892911 -0.0009992376
-0.0070723230 0.0068420842 0.0002697974
0.0079490682 0.0092480555 -0.0011972219
0.0089940205 0.0092440266 -0.0012596950
0.0100129591 0.0092441272 -0.0011659816
0.0110340640 0.0092440713 -0.0010847778
0.0119691668 0.0092410780 -0.0011331842
0.0159900635 0.0092033241 -0.0023904026
0.0168865174 0.0092076249 -0.0021780015
0.0178931355 0.0092099030 -0.0020468191
0.0069517894 0.0091712456 -0.0011566163
0.0222161189 0.0076618716 -0.0043998687
-0.0138047831 0.0065385494 0.0008788824
-0.0299906321 0.0082442611 -0.0030678317
-0.0042070532 0.0055524465 0.0016210943
-0.0019860184 0.0094874911 -0.0011644245
0.0119747845 0.0094452854 -0.0011800409
-0.0148103507 0.0075741149 0.0008736744
-0.0260165818 0.0083273705 -0.0029526458
-0.0199355632 0.0049355738 0.0036145716
0.0079601957 0.0094518717 -0.0012659386
0.0090094386 0.0094467551 -0.0013596446
0.0100236190 0.0094476491 -0.0012409494
0.0110457120 0.0094473381 -0.0011722327
0.0160029195 0.0094018765 -0.0025387660
0.0168970972 0.0094068833 -0.0023154349
0.0178997628 0.0094104242 -0.0021467686
0.0230068900 0.0076626483 -0.0043051271
0.0239979103 0.0076627508 -0.0042863889
0.0249891393 0.0072658900 -0.0043321950
0.0259802341 0.0072659831 -0.0043353168
0.0269580781 0.0072765090 -0.0043269871
-0.0183972158 0.0063992515 0.0024510517
0.0275706761 0.0092522576 -0.0042332811
-0.0080046253 0.0071606003 0.0002403005
0.0159706958 0.0057337023 0.0002333566
-0.0166580193 0.0097088572 -0.0034836337
0.0079680579 0.0096559748 -0.0013159097
0.0089634899 0.0051791817 0.0009673804
0.0039694132 0.0080731194 -0.0006724626
0.0049270717 0.0081779603 -0.0006014809
0.0059748450 0.0081156120 -0.0004515827
-0.0305472165 0.0088790487 -0.0031244338
-0.0299915522 0.0096130017 -0.0030853853
-0.0290186927 0.0092665087 -0.0029868663
-0.0279899240 0.0092850626 -0.0029233724
0.0185018405 0.0093111098 -0.0020311952
-0.0030122353 0.0092875492 -0.0010269091
-0.0020649629 0.0096920040 -0.0012659386
-0.0149644520 0.0084089153 0.0008955419
-0.0165125057 0.0088997427 -0.0027964592
-0.0138024697 0.0092892405 -0.0002091408
-0.0129419873 0.0095948726 -0.0008945868
0.0059998659 0.0062824637 0.0006411567
-0.0202968232 0.0086949319 -0.0038740740
-0.0238355510 0.0068536513 -0.0011722327
-0.0184555948 0.0065648071 0.0017795011
0.0137258405 0.0060280338 0.0027321770
0.0163804553 0.0024454966 0.0042939307
0.0079770545 0.0098596886 -0.0013721318
-0.0225042626 0.0098620839 0.0005457073
-0.0140378857 0.0071717948 0.0005343452
-0.0019590864 0.0086684097 -0.0006646619
0.0017103134 0.0084476359 -0.0007661760
0.0052210847 0.0069945231 0.0008268326
-0.0020386437 0.0098957233 -0.0013658882
-0.0080471756 0.0099306013 -0.0011909709
0.0119959498 0.0098507032 -0.0013518289
0.0090311980 0.0098527931 -0.0015033216
0.0098231733 0.0059895888 0.0012172654
0.0100485953 0.0098530166 -0.0014158592
0.0154475803 0.0098237749 -0.0020155788
0.0158022940 0.0098060779 -0.0025621981
0.0169187896 0.0098035317 -0.0025965527
0.0179130360 0.0098102652 -0.0023466751
-0.0099696936 0.0076574404 0.0000334426
-0.0139288129 0.0059997756 0.0023823425
-0.0206708349 0.0064841099 0.0007539436
-0.0201453194 0.0065642521 0.0008669912
-0.0190026872 0.0066226199 0.0009330257
-0.0169112869 0.0100214444 -0.0034055517
0.0221856534 0.0093522575 -0.0041864170
0.0009990884 0.0092418194 -0.0011211291
-0.0020260205 0.0101007521 -0.0014158667
-0.0270792618 0.0100131165 -0.0029162050
0.0099526290 0.0064750612 0.0010107651
0.0000148071 0.0092726182 -0.0011572496
0.0162515566 0.0073837042 -0.0018594072
-0.0299648829 0.0100150406 -0.0030832544
0.0162321329 0.0098972395 -0.0028511242
-0.0279962122 0.0100209638 -0.0029240132
0.0100352280 0.0096506923 -0.0013221607
0.0110538779 0.0096509941 -0.0012346983
0.0119843576 0.0096483957 -0.0012581304
0.0129075758 0.0094421525 -0.0012284697
-0.0165298060 0.0076921787 0.0015139997
0.0277752243 0.0099529345 -0.0040771021
-0.0090096528 0.0075493362 0.0000967055
-0.0169475637 0.0103330202 -0.0033274621
-0.0070390636 0.0093061402 -0.0009835691
0.0050192149 0.0062358510 0.0008476570
-0.0289852768 0.0072927736 -0.0029838786
0.0079755690 0.0062678047 0.0005472794
0.0089606270 0.0064906925 0.0009790927
-0.0252982937 0.0072776377 -0.0030088604
0.0069408314 0.0096574929 -0.0013596446
0.0068883738 0.0057317484 0.0009309396
0.0090228124 0.0096494537 -0.0014470995
-0.0280146897 0.0104426034 -0.0028979734
0.0185182467 0.0100135691 -0.0023071126
-0.0236067511 0.0104583018 -0.0012190894
-0.0030265925 0.0101224892 -0.0013788745
-0.0024539018 0.0027827062 -0.0318139829
0.0049711382 0.0086448658 -0.0008286417
0.0009199930 0.0100871846 -0.0014387772
0.0170125291 0.0083604995 -0.0019902021
0.0099620363 0.0069550015 0.0006225898
0.0259810910 0.0093486942 -0.0043144850
0.0079154437 0.0067807790 0.0002708330
0.0089706136 0.0068722293 0.0005352914
0.0060175387 0.0092256349 -0.0011537776
0.0099676652 0.0053964760 0.0014029338
0.0217572823 0.0098120496 -0.0022029907
0.0222745016 0.0100837946 -0.0040979339
0.0230034031 0.0101492219 -0.0041166646
-0.0208473541 0.0104584657 -0.0020819560
-0.0207452849 0.0066297390 -0.0000009045
-0.0280169509 0.0106530283 -0.0028979734
0.0185229927 0.0104160607 -0.0023904026
0.0249892548 0.0086536109 -0.0043363599
-0.0090013491 0.0094037950 -0.0009732947
0.0009459136 0.0104951877 -0.0015533075
-0.0202257633 0.0091024972 -0.0040302528
0.0229898132 0.0083656143 -0.0042736186
0.0239977241 0.0083573107 -0.0042670099
0.0019729203 0.0101846941 -0.0014736683
0.0030204849 0.0101799145 -0.0014955283
0.0049450276 0.0101945624 -0.0015314475
0.0222152136 0.0083559137 -0.0043686209
0.0259803087 0.0083562210 -0.0043457178
0.0269721337 0.0083568767 -0.0043257279
-0.0169941522 0.0084090382 -0.0011409924
-0.0166503973 0.0079588424 -0.0005475238
-0.0170160271 0.0084997565 0.0013109639
-0.0184451193 0.0069648810 0.0015389964
-0.0168098845 0.0074815247 0.0022011742
-0.0040178029 0.0093089119 -0.0010316626
-0.0170320086 0.0099192951 0.0006706535
-0.0069951611 0.0103080031 -0.0013170720
0.0231020227 0.0105492268 -0.0040614856
0.0239972286 0.0102468003 -0.0041676788
0.0162305459 0.0095954146 -0.0028276995
-0.0143694850 0.0094814356 0.0002958223
-0.0289739296 0.0083269421 -0.0029799819
0.0185266398 0.0106162075 -0.0024528757
-0.0252552480 0.0102070607 -0.0029120327
0.0038592061 0.0085691810 -0.0008832992
-0.0190271586 0.0106085353 -0.0018594072
-0.0280193090 0.0108634811 -0.0028979734
-0.0180635080 0.0086011197 -0.0004694418
-0.0236987434 0.0109524541 0.0006081804
-0.0080272192 0.0093303919 -0.0009952143
-0.0236678831 0.0104321148 -0.0020155862
-0.0216714330 0.0098205302 -0.0007349357
0.0040106056 0.0102498326 -0.0015271858
-0.0290178098 0.0108709931 -0.0029776201
0.0269398503 0.0108112562 0.0024822920
0.0050228508 0.0092578959 -0.0010972649
0.0144076040 0.0106471740 -0.0018281669
0.0020563537 0.0086513590 -0.0009036094
0.0029218057 0.0083031803 -0.0009674535
0.0060740625 0.0085639786 -0.0008676753
-0.0208475180 0.0083611589 -0.0012006268
-0.0200296380 0.0087466873 -0.0008473874
-0.0189180039 0.0086969100 -0.0009223477
-0.0050008921 0.0092963986 -0.0010060996
0.0030504847 0.0106886346 -0.0016407624
0.0020050677 0.0106937699 -0.0016220168
-0.0150285270 0.0092620049 0.0007831051
-0.0270725787 0.0095930211 -0.0029214055
0.0289295837 0.0112060942 0.0067771273
-0.0253265239 0.0083232671 -0.0029651329
0.0140178846 0.0071711391 -0.0001961172
0.0069758566 0.0102664847 -0.0015645579
0.0070951534 0.0060251337 0.0003075346
0.0090443948 0.0103619248 -0.0015954778
-0.0280217417 0.0110739619 -0.0028979734
0.0185302831 0.0108161159 -0.0025153414
-0.0249813460 0.0109415501 -0.0027964592
-0.0252982602 0.0109428987 -0.0028433159
0.0119135259 0.0103574581 -0.0015189529
0.0039859647 0.0092603900 -0.0011234984
-0.0617006607 0.0132005624 0.0421822555
-0.0609917305 0.0132141933 0.0427601077
-0.0300191939 0.0105625894 -0.0030541450
-0.0189039968 0.0071301907 0.0005391433
-0.0190169625 0.0109279417 -0.0020259947
-0.0169778094 0.0092981663 0.0009361550
0.0020128256 0.0108978637 -0.0016595006
0.0275677703 0.0083574504 -0.0043082489
0.0143082822 0.0108500943 -0.0018594072
-0.0138831409 0.0055285655 0.0019669130
0.0230047219 0.0093518905 -0.0041895537
0.0239976831 0.0093501229 -0.0042482717
-0.0200196914 0.0092694294 -0.0011236474
0.0266284831 0.0110383704 0.0028258755
0.0269664787 0.0110700596 0.0035755232
0.0278663188 0.0111218616 0.0047936859
0.0019427566 0.0093837734 -0.0012347281
0.0029516378 0.0092625506 -0.0011684776
-0.0235550292 0.0106505305 0.0012797310
-0.0206745043 0.0108978637 -0.0028745488
-0.0200103596 0.0070383921 0.0004784360
0.0099871187 0.0109687969 -0.0017149404
-0.0208025910 0.0092709772 -0.0012784333
0.0109081594 0.0109672584 -0.0016907409
0.0007745707 0.0069709178 0.0004609271
-0.0217885338 0.0110676736 -0.0014689669
-0.0158677883 0.0098989606 0.0006198927
-0.0149679901 0.0100459214 0.0005613237
-0.0010200059 0.0110154152 -0.0016563789
0.0280683786 0.0114617050 0.0075580152
0.0283881426 0.0114433840 0.0071363347
0.0285985731 0.0114298053 0.0068239840
-0.0280413590 0.0112859458 -0.0028667406
0.0185319893 0.0110171661 -0.0025465817
0.0129420208 0.0102523044 -0.0015320734
-0.0619028397 0.0134828202 0.0413545109
-0.0603640489 0.0135133453 0.0425883122
-0.0180746838 0.0110521428 -0.0019928620
0.0020191101 0.0111021027 -0.0016907335
-0.0254236683 0.0112592839 -0.0028276995
0.0232000910 0.0107524414 -0.0039625792
0.0239965320 0.0107481182 -0.0040646000
-0.0202770047 0.0101954974 -0.0019758374
-0.0198898911 0.0100907721 -0.0016345188
-0.0039919680 0.0102892965 -0.0013951540
0.0058506364 0.0067834519 0.0004311770
-0.0090308012 0.0110704750 -0.0014783249
0.0059424220 0.0102696307 -0.0015695498
0.0239963010 0.0109496936 -0.0040083854
-0.0617783107 0.0136542730 0.0380592085
0.0271127634 0.0115512349 0.0096039223
0.0277967863 0.0115530938 0.0096351551
-0.0207017586 0.0114203952 -0.0028276995
-0.0059886714 0.0092842449 -0.0009757013
-0.0209337398 0.0102123879 -0.0015939057
-0.0149929347 0.0111703426 -0.0001227364
-0.0645525232 0.0135386102 0.0419011451
-0.0624617599 0.0132241100 0.0425570793
-0.0290095285 0.0102390219 -0.0029801310
-0.0269854404 0.0105381925 -0.0028870434
0.0261795521 0.0117121935 0.0081671001
-0.0600045435 0.0138211697 0.0425674953
-0.0603256188 0.0137983486 0.0419323780
-0.0280482732 0.0114969425 -0.0028589324
-0.0190158002 0.0092605427 -0.0012386248
-0.0180991404 0.0092565455 -0.0011670247
-0.0173012055 0.0090353414 -0.0014689669
-0.0109809460 0.0094920155 -0.0009089441
0.0162553675 0.0082235690 -0.0020847425
0.0249895155 0.0093486011 -0.0043082414
0.0283296406 0.0118839741 0.0118528577
0.0278868563 0.0119177625 0.0125920894
-0.0030528167 0.0106184501 -0.0015251741
0.0266500004 0.0112967677 0.0038410171
0.0285983272 0.0107701402 0.0014202937
0.0167092942 0.0110317413 -0.0028433159
-0.0110407853 0.0102765691 -0.0012067736
-0.0173241906 0.0087689832 0.0012328818
-0.0159821175 0.0092870332 0.0007034659
0.0241954215 0.0111496150 -0.0039938120
0.0249054804 0.0110001080 -0.0041574268
0.0178397074 0.0085224956 -0.0018531561
0.0290103629 0.0117388852 0.0086980956
-0.0281237736 0.0117112771 -0.0027964592
-0.0271049477 0.0116993487 -0.0027964592
0.0157954842 0.0096060783 -0.0024841086
-0.0000076564 0.0065822545 0.0006706461
-0.0652787834 0.0141515993 0.0413389094
0.0274800137 0.0111937299 0.0065116333
-0.0608726777 0.0138954483 0.0368878879
-0.0602047555 0.0138876550 0.0369191207
-0.0260257535 0.0092698466 -0.0029479743
-0.0252240933 0.0093683656 -0.0029578463
0.0139967138 0.0081452578 -0.0006467358
0.0070061469 0.0111815929 -0.0017500923
0.0090665026 0.0111746266 -0.0017500923
-0.0157818124 0.0056513958 0.0040336372
0.0269740261 0.0093502831 -0.0042720092
0.0049266880 0.0106797982 -0.0016782389
-0.0300566480 0.0113032721 -0.0030041963
0.0249900892 0.0103435460 -0.0042407764
-0.0090090679 0.0103689022 -0.0012897581
-0.0120324800 0.0112128071 -0.0014885024
-0.0206304379 0.0116207376 -0.0029838711
-0.0199836940 0.0112547986 -0.0022885308
0.0009570802 0.0106991231 -0.0016032786
-0.0207142010 0.0093544982 -0.0022081987
-0.0193909593 0.0057510864 0.0020918518
-0.0175933726 0.0097614229 -0.0018281669
-0.0172766708 0.0095445719 -0.0020468191
-0.0039970772 0.0074636191 -0.0000998334
-0.0246827379 0.0116774589 0.0021387010
-0.0100129070 0.0089068506 -0.0007896007
0.0253398679 0.0114188269 0.0018263503
0.0261852778 0.0109974667 0.0018575832
0.0272415169 0.0107858945 0.0018419668
-0.0634934753 0.0142862387 0.0379967280
-0.0620580651 0.0139460750 0.0376687683
-0.0010081613 0.0095839091 -0.0012753115
-0.0597943030 0.0140653215 0.0376375206
0.0149401659 0.0094225816 -0.0012882531
0.0259557739 0.0102903135 -0.0042247502
0.0020043226 0.0114952028 -0.0017634735
0.0030552549 0.0116381273 -0.0018385828
0.0038744351 0.0116113573 -0.0018420548
0.0295596868 0.0120617412 0.0083545120
0.0080371043 0.0111779943 -0.0017500923
-0.0000326885 0.0103147458 -0.0015024424
-0.0290539116 0.0114004612 -0.0029245198
-0.0279522724 0.0117078349 -0.0028276995
-0.0269977003 0.0111948662 -0.0028574199
0.0080485428 0.0116860718 -0.0018281669
-0.0269476287 0.0119090118 -0.0027730346
-0.0237269700 0.0119340569 -0.0014689669
0.0290800184 0.0115428865 0.0076777460
-0.0638446808 0.0140577704 0.0396522023
0.0258993804 0.0120845400 0.0096455636
-0.0248317160 0.0121091753 0.0019512891
-0.0604749732 0.0143551975 0.0404330827
0.0080124633 0.0103650838 -0.0015892342
-0.0136655876 0.0087271854 -0.0000789941
-0.0030011805 0.0113325156 -0.0017219887
-0.0019669579 0.0113095641 -0.0017201633
0.0258871093 0.0114839897 0.0032319322
-0.0150289880 0.0116919763 -0.0003210634
-0.0142055089 0.0112388730 -0.0003115267
-0.0070391493 0.0117735341 -0.0016907335
-0.0099745104 0.0102528818 -0.0012269199
-0.0100211995 0.0094494298 -0.0009448857
-0.0597342364 0.0145143867 0.0375282057
-0.0637657940 0.0135238729 0.0417865999
-0.0609677471 0.0137538500 0.0406829603
0.0154303787 0.0096258316 -0.0018281669
0.0259683616 0.0119837523 0.0091353925
0.0169072039 0.0096057672 -0.0024466321
0.0179072730 0.0096101761 -0.0022592128
0.0292264260 0.0120667145 0.0084638419
0.0217591189 0.0096073374 -0.0022654638
-0.0288825445 0.0120605379 -0.0027464807
-0.0280114263 0.0120294578 -0.0027277500
-0.0269671343 0.0121212490 -0.0027418018
0.0276454203 0.0116714537 0.0123213874
0.0080541121 0.0118887648 -0.0018656582
0.0119609172 0.0118733682 -0.0019156293
0.0129845701 0.0118702874 -0.0019218728
0.0001107650 0.0068274010 0.0003322631
0.0039254734 0.0119058490 -0.0018719018
-0.0235082507 0.0105220228 0.0007018864
-0.0299623609 0.0120204203 -0.0028784529
-0.0659215450 0.0144682936 0.0412139632
-0.0651536062 0.0138760768 0.0422759540
0.0070182970 0.0116899349 -0.0018281669
0.0280293860 0.0124117322 0.0117859216
-0.0190002769 0.0101085864 -0.0016095296
-0.0181878060 0.0101710930 -0.0016265765
-0.0178866312 0.0103530958 -0.0019270808
0.0119353468 0.0110663399 -0.0017011568
0.0217926614 0.0061704442 -0.0034211681
0.0089837322 0.0118840896 -0.0018906400
0.0266849287 0.0125332139 0.0109470384
0.0282988064 0.0125345029 0.0109470384
-0.0205750503 0.0119259395 -0.0031088174
-0.0214397423 0.0120014921 -0.0017500774
0.0049580792 0.0119017698 -0.0018594072
-0.0138279246 0.0115522705 -0.0008442656
0.0162324272 0.0118124075 -0.0028901652
0.0176415630 0.0118125416 -0.0028433159
-0.0120151686 0.0102483612 -0.0011887804
-0.0059530335 0.0119691454 -0.0017657012
0.0206922516 0.0120318942 0.0027529940
-0.0271902345 0.0128366128 0.0070113959
0.0249487273 0.0124372877 0.0091353925
0.0291249119 0.0124184042 0.0087189209
0.0295674987 0.0124080069 0.0085106911
-0.0289715454 0.0123609193 -0.0026777640
-0.0267608352 0.0123312064 -0.0027027533
0.0080618039 0.0120906457 -0.0019156293
0.0183839574 0.0088089406 -0.0017656938
0.0119619491 0.0120768622 -0.0019281239
0.0129862493 0.0120733529 -0.0019406185
-0.0010813707 0.0120366737 -0.0018437908
-0.0001166398 0.0120573863 -0.0018320784
0.0010042181 0.0121284090 -0.0018281669
0.0089744525 0.0116828009 -0.0018281669
0.0249487571 0.0126642846 0.0091353925
-0.0000635842 0.0113167055 -0.0017157451
0.0009807190 0.0113115609 -0.0017132417
0.0029722368 0.0111369193 -0.0017344758
0.0039608376 0.0111314878 -0.0017615438
-0.0292592347 0.0120040812 -0.0028485239
0.0162813067 0.0103513673 -0.0028433159
-0.0260095038 0.0101861004 -0.0029186860
0.0070255129 0.0119945779 -0.0018750310
0.0139518799 0.0054053143 0.0007785603
0.0259244926 0.0125870965 0.0095726894
0.0270039476 0.0127007216 0.0097835269
0.0288133733 0.0121127181 0.0094087021
0.0049419673 0.0111888722 -0.0017641515
-0.0207401663 0.0071530659 -0.0002635673
-0.0204817466 0.0116264187 -0.0028276995
-0.0110208178 0.0082961190 -0.0004606203
-0.0079969773 0.0119871125 -0.0017032356
-0.0599629171 0.0142833665 0.0390275009
-0.0255013108 0.0125021785 0.0009205311
-0.0135675417 0.0101810526 -0.0009223477
-0.0140404077 0.0101824421 -0.0003771514
-0.0010351455 0.0115415305 -0.0017633021
-0.0136657553 0.0118459798 -0.0012659386
-0.0144022154 0.0120692141 -0.0002913952
-0.0608706959 0.0141599104 0.0360601582
-0.0602738820 0.0145296119 0.0345686711
-0.0602642335 0.0145812593 0.0356306620
-0.0602156706 0.0143637247 0.0367598273
-0.0070262523 0.0120817907 -0.0017375902
-0.0656449124 0.0135989189 0.0430568345
-0.0059487028 0.0121749789 -0.0017844394
-0.0100233601 0.0112007186 -0.0014845908
-0.0599498786 0.0149718150 0.0345816799
-0.0283776484 0.0130751394 0.0069020735
-0.0267315805 0.0130514540 0.0068239840
0.0290164687 0.0126501732 0.0088230418
0.0295766629 0.0126440376 0.0086981030
0.0151624968 0.0104342885 -0.0020312027
0.0148477303 0.0100870673 -0.0016623840
-0.0200960115 0.0075517911 -0.0001050264
0.0179241188 0.0103106517 -0.0025168837
-0.0606249161 0.0137863345 0.0415575542
-0.0606632940 0.0139675848 0.0409432538
-0.0272623710 0.0132006519 0.0094789835
-0.0250579566 0.0121189468 -0.0025914714
-0.0661660135 0.0140664764 0.0427288748
-0.0160240084 0.0085078739 0.0010012209
-0.0215470754 0.0116973631 -0.0015158162
0.0080673834 0.0122930557 -0.0019531131
0.0139368894 0.0094402544 -0.0012347207
0.0070326841 0.0122990161 -0.0019218728
0.0049526980 0.0116984099 -0.0018281669
-0.0020243665 0.0121451057 -0.0018489987
0.0002671806 0.0119284838 -0.0017969341
0.0269916952 0.0128990151 0.0092525231
0.0274128467 0.0116726682 0.0123526203
-0.0079793492 0.0123983845 -0.0017657012
-0.0227696560 0.0104248859 -0.0019999624
-0.0609996282 0.0134815536 0.0416044034
-0.0159586705 0.0121803954 -0.0006040439
-0.0145049514 0.0125373788 -0.0002664060
-0.0089622634 0.0120983943 -0.0017001212
0.0272324979 0.0111515746 0.0055121081
-0.0604354925 0.0140938237 0.0415263213
-0.0619498082 0.0152976848 0.0344983973
-0.0598829128 0.0152622759 0.0344671495
-0.0548181795 0.0151496306 0.0338424481
-0.0290626511 0.0132935196 0.0065303864
-0.0239928998 0.0120223984 0.0020410835
0.0169269107 0.0103048515 -0.0027089820
0.0059735244 0.0111854263 -0.0017500923
-0.0222308673 0.0115353912 -0.0005475238
-0.0000336384 0.0124411248 -0.0018594072
0.0262195133 0.0122877136 0.0106659131
0.0169369206 0.0115100332 -0.0028589324
0.0176071934 0.0115442015 -0.0028276995
-0.0260086991 0.0111143738 -0.0028589249
0.0252328999 0.0123874955 0.0092681395
0.0070396466 0.0125011019 -0.0019656077
0.0080718612 0.0124957114 -0.0019843460
-0.0179437101 0.0110305846 -0.0015548647
-0.0169198178 0.0113418736 -0.0011370808
-0.0119907903 0.0063316189 0.0008223772
-0.0150720784 0.0072084405 0.0015730008
-0.0603519790 0.0146328621 0.0336238034
-0.0281701982 0.0129078180 0.0038254082
-0.0608709790 0.0136745907 0.0388296880
-0.0605494790 0.0136957876 0.0394335575
-0.0010756934 0.0124466196 -0.0018750310
-0.0050231917 0.0113469511 -0.0016720102
-0.0170037635 0.0120902359 -0.0007661686
-0.0164243802 0.0125234090 -0.0008598820
-0.0143655138 0.0127434991 -0.0003444955
-0.0090564759 0.0126154795 -0.0017500774
0.0089922342 0.0122894868 -0.0019531131
0.0099136382 0.0121849626 -0.0019359395
0.0150483558 0.0121588372 -0.0021483258
-0.0168615617 0.0104594640 -0.0003679201
-0.0089972029 0.0114812814 -0.0015845329
-0.0248548798 0.0123069324 0.0015139997
-0.0238637663 0.0124039091 0.0022115826
-0.0060332818 0.0103566535 -0.0013583109
-0.0050000874 0.0103233177 -0.0013784051
-0.0641676709 0.0153493173 0.0376531519
-0.0019934354 0.0105091259 -0.0015428916
-0.0009695394 0.0102821440 -0.0015015185
-0.0598048680 0.0148100890 0.0373564102
-0.0601585992 0.0149395391 0.0368176140
0.0256864242 0.0117542446 0.0043876367
-0.0312495492 0.0134762265 0.0093228044
-0.0576222949 0.0158801340 0.0408391394
-0.0571157224 0.0158900656 0.0411514975
-0.0519470759 0.0157740377 0.0404330827
0.0059863860 0.0116940476 -0.0018281669
-0.0601738133 0.0152202360 0.0335925706
-0.0228865445 0.0118183978 0.0008268252
-0.0000276817 0.0127478205 -0.0018906400
0.0162416548 0.0112533867 -0.0028554604
-0.0259412974 0.0116162710 -0.0027912513
0.0252895765 0.0131240115 0.0092290984
0.0259702764 0.0131246746 0.0092353197
-0.0205077752 0.0108331703 -0.0017969341
-0.0120310346 0.0082827937 -0.0003771663
-0.0166222677 0.0110118985 -0.0006974519
-0.0159772560 0.0112765543 -0.0004982830
0.0039334996 0.0124156624 -0.0019218803
0.0049682641 0.0124106072 -0.0019218803
-0.0281295665 0.0129541159 0.0046999874
-0.0280194357 0.0129929259 0.0054496350
-0.0080354335 0.0112673491 -0.0015724332
-0.0010719160 0.0127540976 -0.0018968910
-0.0163538493 0.0129423365 -0.0009067312
-0.0214266106 0.0114740767 -0.0017657012
-0.0079965936 0.0104449559 -0.0013518587
-0.0143429795 0.0129513368 -0.0004069686
0.0024640029 0.0117098987 -0.0018281669
0.0109394556 0.0122832954 -0.0019431144
0.0129900733 0.0124790780 -0.0019822598
-0.0121075967 0.0075945053 0.0000875860
0.0283013731 0.0106813964 -0.0007974089
-0.0624198355 0.0158530362 0.0336238034
-0.0607339926 0.0158252902 0.0336550362
-0.0603450350 0.0158293173 0.0338424481
-0.0601545833 0.0158547126 0.0343422182
0.0250623822 0.0131202601 0.0091666253
0.0158372894 0.0103727579 -0.0026544810
0.0272163972 0.0132341422 0.0091510080
0.0280394442 0.0131320134 0.0090572955
0.0289854668 0.0130812787 0.0088003250
-0.0237148032 0.0106709730 -0.0012347058
-0.0233965218 0.0106781311 -0.0009535805
-0.0216940753 0.0102355126 -0.0010551021
0.0264604017 0.0122037679 0.0112906229
0.0269983336 0.0124069303 0.0117055979
0.0278257765 0.0122051425 0.0124853747
0.0099230511 0.0128953420 -0.0020155788
0.0109475506 0.0128916577 -0.0020155788
0.0119707966 0.0128882602 -0.0020155788
0.0079735564 0.0126986876 -0.0020155788
-0.0577642359 0.0160673559 0.0413701423
-0.0128998952 0.0120836720 -0.0016069144
-0.0602452196 0.0140016340 0.0394960232
-0.0000290023 0.0129535459 -0.0018906400
0.0070502115 0.0129060075 -0.0020343245
0.0251764245 0.0135795809 0.0092447149
0.0259705968 0.0135797635 0.0092415856
-0.0612424128 0.0152411312 0.0336706527
-0.0598161854 0.0155522823 0.0343526192
-0.0599878915 0.0151807815 0.0357165672
-0.0069237771 0.0129301623 -0.0018281743
-0.0619947724 0.0136715695 0.0384027995
-0.0254728384 0.0126989968 0.0047312276
-0.0232597440 0.0123755075 0.0017638847
-0.0210645273 0.0127427131 -0.0016095222
-0.0149502279 0.0131434649 -0.0008286417
-0.0144198956 0.0131075680 -0.0013284043
-0.0150992395 0.0130211152 -0.0005475238
0.0157044865 0.0128376186 -0.0026611045
0.0119661288 0.0124827921 -0.0019697726
-0.0606000535 0.0161692537 0.0344983973
-0.0608793087 0.0161214843 0.0336081870
-0.0605006330 0.0161267743 0.0338112153
0.0273297019 0.0135740452 0.0091353925
0.0280080698 0.0135707818 0.0090729194
0.0287973732 0.0135647915 0.0089635970
-0.0207100362 0.0082238428 -0.0005865649
0.0171910301 0.0109797940 -0.0027786077
0.0179812461 0.0111671910 -0.0026984692
0.0185373090 0.0114174075 -0.0026402802
0.0049783951 0.0130212680 -0.0019874678
0.0079782559 0.0130031034 -0.0020507232
-0.0060417606 0.0129995048 -0.0018463985
-0.0000240179 0.0131576546 -0.0019156293
0.0010183593 0.0130486041 -0.0019093857
-0.0205933265 0.0122393183 -0.0030775771
-0.0204180628 0.0120349079 -0.0029734627
0.0161974430 0.0123510882 -0.0028866932
0.0169381723 0.0122149140 -0.0028901503
0.0178004131 0.0123450831 -0.0028589249
-0.0260497183 0.0121101364 -0.0027418018
0.0276728943 0.0096519943 -0.0041551916
0.0251765922 0.0138080046 0.0092603313
-0.0208449252 0.0124913044 -0.0023123131
-0.0130274082 0.0091343317 -0.0006525770
-0.0119984681 0.0090226904 -0.0007154078
-0.0110523561 0.0090056360 -0.0007522807
-0.0179552026 0.0118711516 -0.0015470565
-0.0180951357 0.0123155415 -0.0022491023
-0.0189448260 0.0082061738 -0.0004491315
-0.0148830423 0.0105728209 -0.0000165284
-0.0153788337 0.0133737288 -0.0005943805
-0.0143216597 0.0132646896 -0.0004694418
-0.0656516254 0.0153233781 0.0396678187
-0.0547812544 0.0153384730 0.0346077122
-0.0549663045 0.0156106055 0.0336363055
-0.0080858776 0.0126062259 -0.0017719448
-0.0070132138 0.0124932043 -0.0017875761
-0.0280771703 0.0131197758 0.0078000920
-0.0060173450 0.0124161430 -0.0017969341
-0.0170182586 0.0131600127 -0.0009171397
-0.0222488716 0.0124150030 -0.0000477612
-0.0147859650 0.0133438483 -0.0009691969
-0.0208391696 0.0110681932 -0.0022904531
-0.0190722756 0.0076109786 0.0000498488
-0.0181009173 0.0115186982 -0.0020735890
-0.0622415133 0.0147548281 0.0354979225
0.0281225704 0.0110099707 0.0038358241
-0.0631048232 0.0164904892 0.0341235735
-0.0239752717 0.0137653723 0.0040752860
-0.0129509838 0.0102875270 -0.0011410073
0.0060195690 0.0131152645 -0.0020364106
0.0079815583 0.0133079067 -0.0020780519
0.0259708650 0.0139215216 0.0092509585
-0.0290437341 0.0134016648 0.0084794508
-0.0291685946 0.0129730999 0.0048145177
0.0029024715 0.0131364502 -0.0019656077
0.0049849553 0.0133258663 -0.0020280734
-0.0606634952 0.0162577331 0.0326555111
-0.0157747529 0.0131361708 -0.0005876825
-0.0150106074 0.0135750361 -0.0006912083
-0.0142635750 0.0135712922 -0.0006256134
-0.0126469750 0.0131726600 -0.0016798035
-0.0119693587 0.0131615810 -0.0017516569
-0.0231104121 0.0138916671 0.0027321696
-0.0170242973 0.0135829449 -0.0009145394
-0.0234155543 0.0114899352 -0.0018594072
-0.0234650858 0.0107689686 0.0015764653
-0.0597499944 0.0156028681 0.0300629921
0.0119718211 0.0131934136 -0.0020312027
0.0129954759 0.0130874142 -0.0020426542
-0.0321933068 0.0135480687 0.0104004191
-0.0238120742 0.0129221082 0.0029976710
-0.0231144764 0.0134320892 0.0024198263
-0.0607120432 0.0167772770 0.0346545614
-0.0673466548 0.0163829513 0.0386761166
-0.0547549762 0.0170916580 0.0411827303
-0.0538683347 0.0170148090 0.0402144380
-0.0289634019 0.0143801160 0.0104941251
-0.0130397649 0.0111872181 -0.0013923824
-0.0541514494 0.0157224052 0.0389650203
-0.0534253232 0.0157401189 0.0394647904
0.0149382027 0.0112483352 -0.0020436973
0.0259711035 0.0142629780 0.0092540877
0.0280209929 0.0126866475 0.0095102089
0.0286424309 0.0124160498 0.0108845653
0.0269525200 0.0101733021 -0.0041629924
0.0251767263 0.0141492411 0.0092603313
-0.0258225575 0.0125062354 0.0038045913
-0.0251523890 0.0124255829 0.0038254007
0.0029042261 0.0135456137 -0.0019843460
0.0049888557 0.0135289766 -0.0020530627
-0.0227941312 0.0131786652 0.0019096404
-0.0158750005 0.0138103813 -0.0004772425
-0.0150259407 0.0138071738 -0.0003835440
-0.0142783718 0.0137848333 -0.0005943805
-0.0261381753 0.0127518438 0.0056058140
-0.0626225844 0.0156059265 0.0344671495
-0.0621299632 0.0142065920 0.0366848446
-0.0059379963 0.0125861168 -0.0018281669
-0.0109920027 0.0111711547 -0.0014702857
-0.0070634009 0.0112595074 -0.0016048506
-0.0237219036 0.0112118535 -0.0010004372
-0.0616266020 0.0160639435 0.0324056335
-0.0606283806 0.0162466168 0.0308751054
-0.0605987944 0.0170614049 0.0344671495
-0.0604572780 0.0169753805 0.0331865139
-0.0268852934 0.0127619877 0.0056370469
-0.0651043504 0.0159660317 0.0374501236
-0.0040641883 0.0113400295 -0.0016945035
-0.0583245046 0.0161033049 0.0365755297
-0.0100403288 0.0122113600 -0.0016907558
-0.0540673397 0.0160159692 0.0388088562
-0.0300690383 0.0121578835 -0.0027964592
0.0162288137 0.0132269040 -0.0028807924
0.0169372782 0.0132239312 -0.0029026673
0.0178883635 0.0132524259 -0.0028631643
0.0286130160 0.0121077746 0.0116576375
0.0278354473 0.0102406424 -0.0039878590
-0.0520381518 0.0158198066 0.0412139632
-0.0199925788 0.0133079737 -0.0024890855
-0.0248087868 0.0121451393 0.0027113527
-0.0180685036 0.0132944658 -0.0023354173
0.0029043304 0.0137504116 -0.0019905970
0.0049902415 0.0137329176 -0.0020655573
-0.0169933438 0.0138940886 -0.0009965331
-0.0163681246 0.0138934292 -0.0008989230
-0.0605279766 0.0169158764 0.0322494544
-0.0609182231 0.0141806155 0.0364974625
-0.0040193563 0.0082339924 -0.0004674077
-0.0132271359 0.0065658949 0.0007643520
-0.0136993462 0.0139454901 -0.0012346983
-0.0239966698 0.0121529661 -0.0013908774
-0.0243350007 0.0120325536 0.0004624173
-0.0597836711 0.0163545571 0.0297506340
0.0208354816 0.0133251548 0.0007608875
-0.0604858659 0.0173091702 0.0337487496
-0.0059833014 0.0113537312 -0.0016557679
0.0099700158 0.0116446614 -0.0018437833
0.0109290760 0.0115731135 -0.0018531636
0.0119545236 0.0115699098 -0.0018594072
0.0130264414 0.0114960186 -0.0018690259
0.0140269222 0.0113747269 -0.0019037977
0.0157318190 0.0111937523 -0.0026480809
0.0272855684 0.0142120682 0.0091603817
0.0280094258 0.0141401589 0.0090947794
0.0288002528 0.0140225142 0.0090208622
-0.0234544836 0.0113005787 -0.0013127879
-0.0216029063 0.0110508502 -0.0018594072
0.0099274842 0.0139130242 -0.0020718083
0.0109507516 0.0139093697 -0.0020655573
-0.0618516169 0.0155565664 0.0338112153
-0.0183745362 0.0081227291 0.0007799685
0.0079834992 0.0136131570 -0.0020975724
0.0275576673 0.0128963664 0.0091978656
-0.0183245055 0.0075651892 0.0008268252
-0.0261495262 0.0126258954 0.0031694665
0.0029086368 0.0139538273 -0.0020155788
0.0039448636 0.0139474832 -0.0020155788
0.0049916161 0.0139368400 -0.0020780519
0.0157062784 0.0133419037 -0.0026923448
-0.0139466459 0.0076716095 0.0000875934
-0.0290180929 0.0136020519 0.0104785012
0.0211100802 0.0140726939 0.0019200563
-0.0233037770 0.0141416565 0.0031382337
-0.0079417238 0.0133989006 -0.0018305809
-0.0081979679 0.0130582154 -0.0017969490
-0.0070018293 0.0134214535 -0.0018469200
-0.0073321583 0.0128058940 -0.0017969341
-0.0060359044 0.0135145523 -0.0018789351
-0.0614236556 0.0165960304 0.0315622725
-0.0199673735 0.0122617744 -0.0025153339
0.0088970270 0.0126953423 -0.0020093352
0.0273316018 0.0147127993 0.0091666253
0.0278977491 0.0147105530 0.0091275843
0.0182310343 0.0121068992 -0.0027791068
0.0205318071 0.0119136684 0.0032319322
-0.0244089104 0.0126238801 0.0035130500
-0.0161109641 0.0133580901 -0.0009691969
-0.0606142692 0.0165674947 0.0337096937
-0.0143995881 0.0133309364 -0.0011097596
-0.0126076946 0.0136861540 -0.0017969341
-0.0239286721 0.0116578415 -0.0022654638
0.0070582582 0.0134134293 -0.0020921037
0.0259716436 0.0149462372 0.0092603387
-0.0642670840 0.0174201466 0.0342797376
-0.0168808326 0.0142953470 -0.0012737543
0.0039475495 0.0141511746 -0.0020343245
0.0049916813 0.0141412243 -0.0020842955
0.0129141388 0.0110111348 -0.0017422766
0.0259866118 0.0112987272 0.0026853203
-0.0673666522 0.0176683329 0.0370596685
-0.0238667838 0.0117685013 -0.0004850582
-0.0619075187 0.0171707273 0.0312499292
-0.0629400313 0.0167368576 0.0333426930
-0.0605852045 0.0166458562 0.0326086618
-0.0599431358 0.0162114054 0.0305106826
-0.0582705326 0.0162976459 0.0425258465
-0.0029422706 0.0123208836 -0.0018553392
-0.0620022826 0.0137188062 0.0395272560
-0.0150367450 0.0143382363 -0.0003718317
-0.0606394745 0.0170316808 0.0339986272
-0.0138946632 0.0143618658 -0.0013075799
-0.0134817557 0.0141129158 -0.0017969341
0.0158785023 0.0140646212 -0.0026982904
-0.0598850437 0.0156462304 0.0307813920
0.0079848440 0.0141226314 -0.0021196932
-0.0185362995 0.0081186574 0.0003687113
0.0163239874 0.0138369575 -0.0028276995
0.0169319771 0.0140357874 -0.0028568387
0.0179410242 0.0140344352 -0.0028485090
-0.0189810842 0.0114304163 -0.0022258938
-0.0236334018 0.0107397810 0.0007174953
-0.0200230516 0.0142518654 -0.0024512962
-0.0168484263 0.0146047324 -0.0013596371
-0.0180729479 0.0142329857 -0.0023529038
0.0109177530 0.0112707280 -0.0017657012
0.0039462755 0.0143562965 -0.0020343245
0.0049904743 0.0143461116 -0.0020842955
-0.0280384868 0.0136542469 0.0105604948
0.0269921683 0.0149423182 0.0091978656
0.0089025507 0.0133051462 -0.0020593137
-0.0626775548 0.0178162642 0.0318746306
-0.0150357308 0.0123276189 -0.0003195212
0.0253481679 0.0116771534 0.0027946427
-0.0110244015 0.0122215785 -0.0016517073
-0.0637400150 0.0173738152 0.0337487496
-0.0602974556 0.0172788128 0.0307439156
0.0109850857 0.0102579631 -0.0014916912
0.0213037357 0.0135812089 0.0024979084
-0.0158391744 0.0143326186 -0.0005807087
-0.0603157170 0.0153817423 0.0326421298
0.0250172056 0.0113710947 0.0007955849
0.0210110694 0.0143745430 0.0017014116
-0.0286852457 0.0133294240 0.0072612809
-0.0670785978 0.0168328360 0.0385277309
-0.0671289712 0.0172498077 0.0377843417
-0.0020068614 0.0132724829 -0.0019414008
-0.0159578286 0.0148641691 -0.0005787641
-0.0138424383 0.0147703849 -0.0014533505
-0.0659859031 0.0169140212 0.0376843847
-0.0242230259 0.0120580308 -0.0022001520
-0.0320045128 0.0163132586 0.0187558420
-0.0341583453 0.0168752223 0.0223478861
0.0079850396 0.0145305917 -0.0021327168
0.0169297792 0.0144417025 -0.0028401942
0.0179397017 0.0144396424 -0.0028401942
-0.0231743269 0.0105785076 -0.0007037029
-0.0181981288 0.0147583447 -0.0023357451
-0.0556571893 0.0161680765 0.0409953184
-0.0550879128 0.0164612830 0.0408859886
-0.0641351193 0.0182619616 0.0335301049
0.0361312814 0.0161391832 0.0360757746
0.0380358137 0.0167522952 0.0366015621
0.0157655366 0.0122308247 -0.0026496530
-0.0577028431 0.0176466666 0.0309375711
-0.0120044062 0.0122308359 -0.0016345263
-0.0606074221 0.0143601038 0.0340298600
-0.0159840025 0.0105850492 -0.0001727075
-0.0549816228 0.0178839713 0.0271268822
-0.0603244640 0.0175202861 0.0317059495
-0.0665476918 0.0156633407 0.0399333127
-0.0050393799 0.0120504834 -0.0017835528
-0.0129184695 0.0075613577 -0.0000009120
0.0185433663 0.0132295191 -0.0027777210
0.0256400555 0.0111454129 0.0004207685
0.0210679658 0.0139869787 0.0009428381
0.0209360942 0.0140512325 0.0023573458
-0.0656138510 0.0172784664 0.0363100357
-0.0050027175 0.0124548301 -0.0018344254
-0.0040005771 0.0123157836 -0.0018483952
-0.0020131553 0.0126570091 -0.0019023598
0.0010104040 0.0125375204 -0.0018635795
0.0020559141 0.0123253837 -0.0018769011
0.0029979357 0.0123186633 -0.0019078285
0.0059994264 0.0123040341 -0.0019106374
0.0070443759 0.0127038024 -0.0019968406
-0.0265482441 0.0150768049 0.0095102163
-0.0262567736 0.0153014697 0.0094165104
0.0099200653 0.0126926079 -0.0019905970
-0.0309309997 0.0142497532 0.0104378955
-0.0548827015 0.0152471475 0.0356228538
-0.0150493952 0.0149758607 -0.0003601194
-0.0139434794 0.0150012150 -0.0012034655
-0.0135042090 0.0149511136 -0.0017657012
-0.0393569209 0.0181836151 0.0346858092
0.0279963389 0.0104940180 -0.0034836337
-0.0609392859 0.0173427016 0.0297818668
-0.0000245431 0.0134658515 -0.0019218803
0.0149493711 0.0126656145 -0.0021873668
-0.0593714528 0.0170406774 0.0279233791
-0.0552508719 0.0176399276 0.0275641717
-0.0329269320 0.0164263770 0.0200989507
-0.0603680201 0.0164261386 0.0314998068
0.0170294270 0.0146448985 -0.0028276995
0.0178385749 0.0146419369 -0.0028433159
0.0140267806 0.0132814534 -0.0021455169
0.0149626257 0.0132660493 -0.0023372874
-0.0596534498 0.0180362090 0.0278140493
-0.0651331097 0.0183539242 0.0344983973
0.0029087877 0.0147730336 -0.0020405755
-0.0570137762 0.0160850473 0.0392149128
0.0268618576 0.0142435133 0.0091978433
-0.0119576911 0.0136794113 -0.0017969341
0.0183429644 0.0130264014 -0.0027964592
-0.0541649349 0.0163635463 0.0405205525
0.0140144797 0.0122709721 -0.0020068318
0.0276722722 0.0149406493 0.0091666253
0.0185416937 0.0122216083 -0.0027277500
-0.0120396251 0.0095427930 -0.0009056658
-0.0020026648 0.0141967498 -0.0019827888
-0.0548724420 0.0157913454 0.0347482748
-0.0670490339 0.0179892816 0.0373720266
-0.0614899285 0.0144134387 0.0348732062
-0.0598475449 0.0181199275 0.0314998068
-0.0160085820 0.0151920095 -0.0004663200
-0.0618932731 0.0180076621 0.0306876935
-0.0393525176 0.0181322396 0.0340298600
0.0070612310 0.0149430037 -0.0021530197
0.0170289762 0.0148473643 -0.0028276995
0.0178381763 0.0148443356 -0.0028433159
-0.0189874358 0.0122306757 -0.0023648397
0.0208405033 0.0111487433 -0.0004600689
-0.0238068886 0.0112395659 -0.0003601119
0.0149708344 0.0142747164 -0.0024466023
0.0029073609 0.0149784014 -0.0020405755
0.0049917577 0.0149589032 -0.0021092847
-0.0159631185 0.0127501450 -0.0005037889
-0.0627661496 0.0185235366 0.0314685740
-0.0350546576 0.0169624761 0.0233161785
-0.0130015882 0.0084486604 -0.0002887205
0.0185424425 0.0145432651 -0.0027964592
-0.0091602588 0.0139841400 -0.0017969341
-0.0401762538 0.0186768547 0.0370492674
-0.0175113827 0.0113205276 -0.0020468191
-0.0609839670 0.0181770958 0.0293133445
-0.0599034093 0.0182029456 0.0306356438
-0.0166816227 0.0153328441 -0.0006724701
-0.0160593688 0.0155205727 -0.0003538684
-0.0550472774 0.0173366480 0.0416929014
-0.0422081761 0.0186313614 0.0373199619
-0.0605843253 0.0170350149 0.0318121649
0.0172306001 0.0150494054 -0.0028276995
0.0178366601 0.0150481239 -0.0028276995
-0.0205190554 0.0147892199 -0.0023591698
-0.0658832937 0.0185445584 0.0348263718
-0.0180402547 0.0151432678 -0.0023942918
0.0099264951 0.0134036765 -0.0020515055
0.0109485546 0.0134008490 -0.0020358891
0.0119748712 0.0135993287 -0.0020655573
-0.0307517238 0.0159259476 0.0105409743
-0.0050538657 0.0059515908 0.0013734370
-0.0198672563 0.0150310732 -0.0024432570
-0.0173588544 0.0151509829 -0.0025049329
-0.0354821049 0.0175870843 0.0278140493
0.0060291151 0.0136225671 -0.0020999119
-0.0591815151 0.0189205818 0.0283138193
-0.0628710613 0.0135120004 0.0417761989
-0.0238352679 0.0113699995 0.0017103374
-0.0450297035 0.0192729235 0.0397459008
-0.0671762228 0.0186464489 0.0347795077
0.0172301456 0.0152519420 -0.0028276995
-0.0598297082 0.0173676424 0.0288073309
0.0178362466 0.0152506381 -0.0028276995
-0.0660903454 0.0190648809 0.0343318023
-0.0653509274 0.0189434364 0.0342797376
-0.0100186290 0.0132454596 -0.0017782107
-0.0143709974 0.0142548904 -0.0005412803
-0.0197094642 0.0156077817 -0.0024528757
0.0049936669 0.0146514885 -0.0021092847
0.0060320077 0.0143361986 -0.0021355182
-0.0342190675 0.0165149681 0.0210360102
-0.0651974455 0.0194386281 0.0329991020
-0.0640014932 0.0190953165 0.0327804573
-0.0662950873 0.0179328993 0.0367785580
-0.0289433524 0.0151826516 0.0105409743
0.0208373256 0.0126243308 0.0007227107
-0.0340758823 0.0165336356 0.0213171281
-0.0250909291 0.0115275271 -0.0027169615
-0.0419087596 0.0193510838 0.0372509845
-0.0402703770 0.0195806623 0.0372158475
-0.0190100521 0.0132981986 -0.0024544180
0.0149726989 0.0151858926 -0.0024919093
-0.0659311861 0.0193721019 0.0338268317
-0.0652019456 0.0191226192 0.0340506919
-0.0168272071 0.0159528367 -0.0003991679
-0.0159932040 0.0159533769 -0.0002585978
-0.0640689731 0.0194173492 0.0318434127
-0.0129382582 0.0143609829 -0.0018890903
-0.0568299778 0.0174247026 0.0305002816
-0.0174452402 0.0157935508 -0.0023279369
-0.0169809423 0.0150846243 -0.0010249719
-0.0163758583 0.0144220889 -0.0008963228
-0.0029845210 0.0132336505 -0.0019275576
0.0185413845 0.0151507668 -0.0027964592
-0.0171024613 0.0125513189 -0.0008598671
-0.0050764447 0.0131958574 -0.0018893958
-0.0040121423 0.0131858960 -0.0019156293
-0.0010655681 0.0132663287 -0.0019343749
0.0010704314 0.0135286152 -0.0019386963
0.0019661924 0.0133473799 -0.0019640431
0.0039425837 0.0133341812 -0.0019880936
0.0130014429 0.0135930888 -0.0021061630
-0.0408841111 0.0198828354 0.0371637978
-0.0348992907 0.0165852569 0.0218481235
-0.0452508815 0.0202793963 0.0408079065
-0.0010683117 0.0152196810 -0.0019818426
0.0140400240 0.0142891072 -0.0022954450
-0.0419025533 0.0199121088 0.0372991450
-0.0402756147 0.0198772177 0.0372158475
-0.0668249130 0.0184773803 0.0357009508
-0.0662178695 0.0183551684 0.0355916210
0.0149719128 0.0156936906 -0.0024997250
-0.0197182707 0.0159227960 -0.0024450675
0.0109522240 0.0144181810 -0.0020905465
0.0119800167 0.0143093057 -0.0021255270
0.0019673100 0.0151921138 -0.0020233870
0.0029044086 0.0153892785 -0.0020405755
-0.0134893442 0.0147395246 -0.0017969341
-0.0581526496 0.0175425895 0.0313904919
-0.0564987920 0.0175981298 0.0305939950
-0.0445587896 0.0198439583 0.0394335575
-0.0429255851 0.0193480700 0.0374553241
-0.0174485333 0.0160026997 -0.0023279369
-0.0100085484 0.0159406886 -0.0018906400
-0.0090424502 0.0159290992 -0.0018906400
-0.0060310299 0.0158881098 -0.0019687295
0.0185404606 0.0156572685 -0.0027964592
0.0271543004 0.0120591633 0.0125009911
-0.0418102555 0.0187107623 0.0371533819
-0.0412270911 0.0186231062 0.0370987244
-0.0602352954 0.0171552598 0.0300733931
-0.0571005009 0.0179786086 0.0297115929
-0.0010740170 0.0159411915 -0.0019843460
-0.0419284068 0.0202135369 0.0373407938
-0.0412316509 0.0201901346 0.0372158475
-0.0402958207 0.0201769173 0.0372470953
-0.0130226696 0.0160001442 -0.0018353865
-0.0605539642 0.0184060112 0.0286574103
-0.0596451797 0.0179477669 0.0285559036
-0.0593907572 0.0185634829 0.0285636969
-0.0190240890 0.0143427067 -0.0024544180
-0.0174510870 0.0143357590 -0.0022654713
-0.0119783664 0.0143206380 -0.0018395365
-0.0109873535 0.0138776824 -0.0017969341
-0.0407409780 0.0201788731 0.0371846147
-0.0429262631 0.0200901777 0.0374292918
-0.0109918537 0.0132553019 -0.0017672733
-0.0167780556 0.0162723735 -0.0001539693
0.0020176386 0.0159236528 -0.0020155788
0.0029450888 0.0158920549 -0.0020329386
-0.0462235101 0.0205924734 0.0424165167
-0.0100240158 0.0144020207 -0.0018281818
-0.0090106251 0.0143682174 -0.0018281818
-0.0080752308 0.0142603889 -0.0018494159
-0.0100111859 0.0161489062 -0.0018906400
-0.0090450058 0.0161371008 -0.0018906400
0.0049844915 0.0153710023 -0.0020863817
-0.0272673480 0.0135991313 0.0102754803
-0.0109783942 0.0153297260 -0.0018672228
-0.0597640909 0.0199567638 0.0269082375
-0.0592707656 0.0199440345 0.0269082226
0.0049786726 0.0159873329 -0.0020780519
-0.0560103469 0.0154301673 0.0386839099
-0.0168820806 0.0157298893 -0.0005266995
-0.0160778575 0.0157367028 -0.0003163919
-0.0673635826 0.0168969631 0.0394960232
0.0149724754 0.0159974210 -0.0025153488
-0.0266537406 0.0126592033 0.0037004619
-0.0640306324 0.0201642253 0.0308840163
-0.0632180721 0.0202187598 0.0305471309
-0.0060314229 0.0142362267 -0.0019140721
0.0140466476 0.0160107352 -0.0024091334
-0.0611076094 0.0168180056 0.0305627473
-0.0099826092 0.0139022022 -0.0017969341
-0.0642508417 0.0163159370 0.0358727463
-0.0540071465 0.0191191994 0.0416044034
-0.0606946461 0.0197741762 0.0278140493
-0.0119537385 0.0153421275 -0.0018594146
0.0372072756 0.0192725733 0.0364427902
-0.0429424681 0.0205387101 0.0374449082
0.0089054471 0.0143237934 -0.0021055371
0.0099276127 0.0144227631 -0.0020874247
-0.0419492535 0.0205141716 0.0373720266
-0.0633284748 0.0206285380 0.0301879235
-0.0174244530 0.0156631097 -0.0026246712
-0.0029489128 0.0142046213 -0.0019793466
0.0060461862 0.0152819008 -0.0021360547
-0.0041787615 0.0119554773 -0.0017969341
0.0186065473 0.0159959942 -0.0027860433
-0.0669876263 0.0180471987 0.0367473401
-0.0409104787 0.0207753293 0.0371846147
-0.0200288035 0.0081984140 -0.0004555539
0.0130101275 0.0142998770 -0.0021992356
-0.0000221292 0.0141839758 -0.0019518614
0.0009980584 0.0142309219 -0.0019758225
0.0130201569 0.0161231719 -0.0023404167
0.0149722574 0.0163019225 -0.0025231496
-0.0419702642 0.0208150223 0.0374032594
-0.0412428193 0.0207842179 0.0372158475
-0.0640760809 0.0206793323 0.0305315144
0.0099270204 0.0153408721 -0.0021117807
0.0109538697 0.0153344683 -0.0021305264
0.0119860219 0.0153236724 -0.0022029907
-0.0608549230 0.0203254260 0.0275329389
-0.0119661139 0.0162811391 -0.0018594146
-0.0428294726 0.0208424628 0.0375282057
-0.0302367359 0.0159178339 0.0105409743
-0.0319090933 0.0141927749 0.0104362415
-0.0174055435 0.0164097957 -0.0024424673
0.0370063595 0.0164419450 0.0362975337
-0.0250964724 0.0145156495 0.0066990452
0.0186393932 0.0162668228 -0.0027808428
-0.0659338012 0.0200560987 0.0330303349
-0.0110395784 0.0143844672 -0.0018333897
-0.0069994265 0.0142479166 -0.0018781528
-0.0050693126 0.0142255016 -0.0019418702
-0.0040059676 0.0142144896 -0.0019656077
-0.0405843146 0.0210633017 0.0371533819
-0.0546775199 0.0180479176 0.0416200198
-0.0309525542 0.0153046623 0.0104993330
-0.0299526453 0.0153141171 0.0105058374
-0.0020097001 0.0152271613 -0.0019890324
-0.0279441662 0.0151716284 0.0105852233
-0.0274243020 0.0152506493 0.0109626548
-0.0404162742 0.0182706490 0.0355916210
-0.0642459840 0.0209529884 0.0302660204
-0.0668111369 0.0165594369 0.0392149128
-0.0060298489 0.0152682513 -0.0019515560
-0.0592201836 0.0192113891 0.0283606686
-0.0190370604 0.0152834430 -0.0024567649
