# .PCD v0.7 - Point Cloud Data file format
VERSION 0.7
FIELDS x y z
SIZE 4 4 4
TYPE F F F
COUNT 1 1 1
WIDTH 1229
HEIGHT 1
VIEWPOINT 0 0 0 1 0 0 0
POINTS 1229
DATA ascii
-0.018466989 0.0042755576 0.0042123049
-0.018594904 0.0045697996 0.0037515759
-0.017765855 0.0045686802 0.0038140416
-0.023290856 0.0038317996 0.0076559782
-0.012655159 0.0042554247 0.002433449
-0.011264527 0.0045280289 0.0028665811
-0.010520654 0.0045059612 0.0028011501
-0.010101454 0.0043431674 0.0030019283
-0.009474704 0.0041976413 0.0032439977
-0.0084564369 0.0041745645 0.0033589154
-0.0074839387 0.0042188815 0.0032651871
0.017854623 0.0042256154 0.0021585822
-0.023375442 0.0036410959 0.0087023675
-0.01922719 0.0038542445 0.0043528527
-0.015228918 0.0039623464 0.0051884055
-0.013810283 0.0036886297 0.0051884055
0.0014804211 0.0049382597 0.0019555539
0.017708464 0.0048260181 0.0016067624
0.018517224 0.0047025159 0.0013811737
0.019109109 0.0046313186 0.0014948249
0.023469646 0.005119415 -0.0024173781
0.0184986 0.0037860228 0.0027895421
-0.023221822 0.0036651981 0.0032830387
-0.0059542395 0.0049360963 0.0018462241
-0.0041559879 0.0049428358 0.0017212927
-0.0033763181 0.0048825196 0.0015729219
-0.0024398733 0.0047445698 0.0015199929
-0.0015461594 0.0046845502 0.0015546829
-0.00081414729 0.0049371123 0.0019399375
-0.022781512 0.004434207 0.0035134256
0.028352616 0.0051229852 -0.0025267005
-0.017544473 0.0048528309 0.00357458
-0.013468577 0.0049135229 0.002189815
-0.011395359 0.004896862 0.0026791692
-0.010501465 0.0049070441 0.0024501085
0.023163524 0.00049944688 -0.0019852892
-0.023122044 -0.0012447964 0.0039702207
-0.022811593 -0.0012373505 0.003907755
0.0097807553 0.0041312724 0.0022054315
0.010449043 0.0041309558 0.0022210479
-0.023391018 0.0042103231 0.0087492168
-0.016419845 0.0044470993 0.0054476559
-0.015457233 0.004540686 0.0053167939
-0.01484268 0.0045172828 0.0051675886
-0.030838085 0.0051719937 0.0017525256
0.02835387 0.0038367948 -0.0024954677
0.017709691 0.0036922139 0.0025146753
0.028363749 -0.00042962376 -0.0022221655
0.0097204521 0.0044915862 0.0015963465
0.010450322 0.0045794309 0.0015472621
-0.01747386 0.0051345984 0.0033642501
-0.023244066 0.0044039967 0.0075310469
-0.01511292 0.0051172609 0.003907755
-0.013897752 0.0051644132 0.0026895851
-0.011126479 0.0051851366 0.0022210479
-0.010390857 0.0051921736 0.0020544678
-0.00022759475 0.002964701 0.0037671924
0.0056004021 0.0046953056 0.0014323592
0.0055324901 0.0041030138 0.0027520508
-0.031902991 0.0048276088 0.0035016984
0.014693076 0.0052440069 0.00108096
0.019256944 0.0041154255 0.0026271045
-0.02330192 0.0048508523 0.0033767521
0.023454241 -0.0025038151 -0.001849927
-0.0035061669 0.0053620702 0.0012488663
-0.0024220813 0.0053634034 0.0012332499
0.024498474 0.003449183 -0.0024388358
-0.0095064845 0.0048223534 0.0023407936
-0.0083220508 0.0046358793 0.0025438219
-0.0055030901 0.0053345887 0.0014312416
-0.0045666602 0.0053744884 0.0014044791
-0.0014910437 0.0053617698 0.0012944192
-0.00056242943 0.0053596282 0.0013659894
-0.017244136 0.005402599 0.0035225153
-0.015392957 0.0054070111 0.0034548342
-0.022925144 0.0047222339 0.006656453
-0.014584629 0.0054360712 0.0026583523
0.0045295358 0.0048724194 0.0014297515
-0.0274908 0.0055021718 0.00030007958
-0.023052061 0.0056844247 0.0030956417
-0.022745935 0.0056738658 0.0034236014
-0.0034892354 0.0057644616 0.0011746585
-0.0025133751 0.0057696649 0.0010341108
0.018606437 0.0033871294 0.0033946037
-0.0095004458 0.0055756299 0.001690045
-0.0054821074 0.0057684104 0.0010236949
-0.0045631696 0.0057649268 0.0011434406
-0.0015774146 0.0057690768 0.0010653436
-0.00062307902 0.0057716123 0.001002878
-0.023246581 -0.00013817567 0.0039389879
0.022826973 0.0035765716 -0.0024121702
0.023470454 0.0037079724 -0.0024681389
-0.022450333 0.0056492575 0.004173249
-0.017342223 0.0056804623 0.0033923686
-0.016996028 0.0056729708 0.0036266446
-0.015399912 0.0056941812 0.0030331612
-0.015071025 0.0056996732 0.002876997
-0.01444391 0.0057226103 0.0022054315
-0.019549442 0.005520883 0.001624465
-0.01850708 0.0057308734 0.001846239
0.011352601 0.0045402222 0.0015078485
-0.032331094 0.0050678565 0.0044699907
-0.016305892 0.0050747893 0.0050009936
-0.0041169096 0.0024333708 0.0057974905
-0.0025423355 0.0028955247 0.0049697459
-0.0015802383 0.0027933139 0.0047198683
-0.00070434995 0.0029461188 0.0040951669
-0.027470356 0.006042459 0.00025323033
-0.026496368 0.0060422583 0.00029487908
-0.01420456 0.0037595532 0.0036891103
-0.013915585 0.0037168157 0.0045949221
-0.0037342235 0.0060342187 0.0010653436
0.025530135 -0.0012246612 -0.001972273
-0.010472478 0.0060215783 0.0013672858
-0.0095219519 0.0060212747 0.0013933182
-0.0018782709 0.0038385782 0.0024865568
-0.0042672493 0.0060349843 0.0010341108
-0.0026281811 0.0026088306 0.0051839501
0.026562167 -0.0014760662 -0.0020542517
-0.0084268656 0.0049313572 0.0018982887
-0.0064714011 0.0049401005 0.0017317086
-0.022855671 0.005572415 0.0064690411
-0.0035527647 0.0037984676 0.0032726377
-0.00296521 0.0038078115 0.0030956417
-0.0014627725 0.0036407555 0.0033901483
-0.00051208772 0.0034977687 0.003407985
0.008765094 0.004991624 0.00072176754
-0.022635413 0.0027441587 0.0042669624
-0.01941268 0.0060196035 0.001237154
0.025527004 0.0034467061 -0.0023958832
0.0045710113 0.0052368785 0.0011746883
0.017681656 0.0060781529 -0.00019967556
0.018465158 0.0060766865 -0.00015282631
-0.027456982 0.006312659 0.0002219975
-0.026483258 0.0063122855 0.00026364625
-0.025516296 0.0061770994 0.0003157109
-0.019395007 0.004331056 0.0035204291
-0.023041455 0.0035817395 0.0069688112
-0.014221633 0.0048506805 0.0037515759
0.0022154171 0.0042183432 0.0021169335
0.024497356 -0.00083457306 -0.0019957051
0.01750847 0.005397399 0.00050832331
-0.016219759 0.0062145125 0.0038452893
-0.022605034 0.0061543677 0.0057818741
-0.022564588 0.0062035928 0.0040951669
-0.022563135 0.0062187742 0.0035745651
-0.017352013 0.0062262607 0.0034236014
-0.015485292 0.0062436238 0.0028613806
-0.014639398 0.0062578702 0.0023876429
-0.022815732 0.0032325601 0.0028301477
-0.012551362 0.0049629789 0.00097164512
0.0044589955 0.0061947438 0.00022979081
0.017687151 0.0063426942 -0.00029338151
0.018475618 0.0063445107 -0.00035585463
0.019131932 0.0063458672 -0.00040270388
-0.030251043 0.0062615322 3.4585595e-05
-0.02744369 0.0065827188 0.00019076467
-0.02647022 0.0065821754 0.00023241341
-0.025497084 0.0065817409 0.00026884675
-0.019543329 0.0047091055 0.0025386214
0.013603165 0.0065977601 -4.8704445e-05
-0.015215321 0.0065147406 0.0028926134
-0.025531793 0.0047171987 0.00044347346
-0.02461311 0.0046618273 0.00042892992
0.023469636 0.0044767326 -0.0024173558
0.024498412 0.004478747 -0.002464205
-0.016761264 0.0048116245 0.0046469867
-0.0084966663 0.0054773604 0.0016457886
-0.0064898301 0.0054926244 0.0012605786
-0.0076044854 0.0047536143 0.0023210049
-0.0065313298 0.0046388553 0.0025255978
-0.0054998808 0.0048584086 0.0024522096
-0.0044818781 0.0047300644 0.002543807
-0.0035522282 0.0044797407 0.0025396496
-0.0035361834 0.0040726918 0.0031997561
-0.0016160179 0.0040755966 0.0031893402
0.007561218 0.0055170418 0.00078941882
0.008503912 0.0055209263 0.00069051981
0.017544201 0.0058126845 -9.0360641e-05
0.0044898093 0.0065951794 4.2393804e-05
0.017692605 0.0066068405 -0.00038708746
0.018483751 0.0066102049 -0.00051202625
0.019143689 0.0066139991 -0.0006525889
-0.016825428 0.0053718276 0.0044075102
-0.01571258 0.0050954395 0.0044699907
-0.029224304 0.0009084139 0.000315696
-0.028426649 0.00076912344 0.00044845045
-0.026531847 0.00049494021 0.00067293644
-0.029416544 0.0034369351 0.0002732873
-0.027437029 0.0068522487 0.00017514825
-0.026465839 0.0068514049 0.0002219975
-0.025484374 0.0068513188 0.00023761392
-0.019197756 0.0052603628 0.0023563951
-0.018443218 0.0053700488 0.0024787337
-0.017725689 0.0056745522 0.0025373101
-0.023040017 0.0041457503 0.0069688112
-0.015171437 0.0059753638 0.0027520657
-0.014587281 0.0059923683 0.0022210479
0.010539781 0.0063685016 0.00019314885
0.010620499 0.006859974 -3.8295984e-05
0.013484209 0.0068634418 -0.00018405914
0.0094502922 0.0055264905 0.00054474175
-0.017813606 0.0039741704 0.0048135817
0.0026400015 0.004611975 0.0019086897
0.0035285689 0.0045452924 0.0017993748
0.0065218117 0.0045480658 0.0011653155
0.017700816 0.0068717701 -0.00052765012
-0.018494202 0.00485607 0.0034548342
0.01921818 0.0034018401 0.0034860671
-0.0130418 0.0046648397 0.0016900599
-0.01853398 0.0039716549 0.0048343986
-0.017415466 0.0036424757 0.0054609925
-0.010263121 0.0034743561 0.0040951669
-0.016743405 0.0063301055 0.0045949221
-0.0082369726 0.0031920178 0.0043450445
0.0063373893 0.0049804649 0.00097164512
0.0015136916 0.0034012552 0.0032400936
-0.027464883 0.0015790556 0.00054214895
-0.030215027 0.0043405266 0.0004953146
-0.029428346 0.0045837718 0.00023446977
-0.028483419 0.0046918304 0.00029140711
-0.027523087 0.0046908562 0.00037296116
-0.026495827 0.0046642683 0.00042501092
-0.030065255 0.0071249888 3.3527613e-06
-0.027427128 0.0071218899 0.00015172362
-0.026457196 0.0071208272 0.00020118058
-0.025478071 0.0071204016 0.0002219975
-0.023539273 0.0067951409 0.0025021732
0.01621056 0.0071157613 0.0002219975
-0.017499303 0.0064599612 0.0023850501
-0.015649723 0.0067854244 0.0029394627
-0.014481129 0.0066856984 0.0025958717
-0.010541802 0.0065102386 0.0011278242
0.0084267017 0.0064570089 0.0002733022
-0.00094647519 0.0071238792 -2.7880073e-05
0.012445443 0.0071282629 -0.00030118972
0.013495759 0.0071283123 -0.00030899793
0.018640948 0.0071442891 -0.0010274127
-0.022420852 0.0070313597 0.0040951669
-0.023381079 0.0070689786 0.0024605244
-0.022710344 0.007048972 0.0033299029
-0.016415974 0.0070529012 0.003142491
-0.015629882 0.007058939 0.002876997
-0.01441917 0.0070657665 0.0025750548
-0.013480315 0.0063648988 0.0015026331
0.02758164 0.0055082524 -0.0025208741
0.017584428 0.0071384022 -0.00076711178
0.018463017 0.0071423883 -0.00094411522
0.019155417 0.0071413592 -0.00090246648
0.00041965954 0.0034664525 0.00325571
-0.027417334 0.0073914295 0.000128299
-0.025471764 0.0073894169 0.00020638108
-0.022511812 0.0036325878 0.0042736679
-0.017385131 0.0072089564 0.0022522807
-0.016299913 0.0073330468 0.0027832985
-0.015477521 0.0073316591 0.002837956
-0.014564572 0.0073364638 0.0025958717
-0.026521405 0.0055018663 0.00035387278
0.023469923 0.0056341025 -0.0024329796
0.0015750732 0.0053993124 0.0015269369
0.0024148356 0.0054579508 0.0014479905
0.0034709573 0.0053624767 0.001350373
-0.016216883 0.0066789277 0.0035433471
0.01907013 0.0052510453 0.00090917945
-0.024703028 0.0055033308 0.00039379299
-0.0095343161 0.0068359859 0.00094041228
-0.0085146036 0.0062948265 0.0012007207
-0.0068397652 0.0060338634 0.0010341108
-0.005541591 0.0064428495 0.00071197748
0.003453372 0.0068618935 -9.8161399e-05
0.0045154579 0.0068622339 -0.00011377782
0.0055773146 0.0068627666 -0.00013720989
0.0064905919 0.0068607535 -5.9120357e-05
0.0074989181 0.0064565046 0.00028669834
0.016186904 0.0074102189 -0.0012929142
0.017331947 0.0074018762 -0.00090246648
-0.019511255 0.0066058934 0.00089578331
-0.018548446 0.006782114 0.00091543794
-0.017722605 0.0065215742 0.001502648
0.019159801 0.0074035996 -0.00099617243
-0.0045473818 0.003790122 0.0034157932
0.0095280996 0.0064021791 0.0002219826
-0.0096974578 0.0051936768 0.002033636
0.025530793 -0.0025202278 -0.0019468889
0.018495947 0.0068772058 -0.00074629486
0.019152498 0.0068795113 -0.00084000081
-0.00042175129 0.0071228398 1.3768673e-05
0.023470992 0.0065359101 -0.0025149956
-0.010470251 0.0073497156 0.00074161589
-0.01737283 0.0059508695 0.003486082
-0.01465228 0.0051225061 0.0037828088
0.01766587 0.0075650746 -0.0012647957
-0.01735946 0.0044677048 0.004362911
-0.010487435 0.0055889664 0.0016989708
-0.022576323 0.0059266775 0.0041263998
-0.019056095 0.0051448182 0.0030331612
-0.018632723 0.0051454143 0.0030331612
0.011561862 0.0055250726 0.0005941987
-0.023110354 0.0059534926 0.0032518208
-0.022586161 0.0059419423 0.0036370307
-0.007190397 0.0049335533 0.0018774569
0.025526408 0.0047358959 -0.0024720356
-0.02546881 0.0077925324 0.00019855797
-0.011493323 0.0075343978 0.00072798133
-0.017539484 0.0074955383 0.001463607
-0.032786936 0.005310026 0.0055007488
-0.02455374 0.0064833616 0.00031001866
-0.0094976891 0.0075490549 0.00052317977
-0.014222587 0.006001404 0.0019399375
-0.013964439 0.0065392656 0.0020024031
-0.0042343587 0.0078291297 -6.9528818e-05
-0.0033825096 0.0076534003 -0.000104554
-0.0024816524 0.0074914936 -0.0001456216
-0.007826345 0.0024145748 0.0067918152
0.00062263943 0.0038215178 0.0029082298
0.0014580954 0.0038275118 0.0028041154
0.0021826178 0.0038406029 0.0025490224
0.0045605134 0.0075244652 -0.00038903207
0.0055575129 0.0074863918 -0.00037369877
0.0064730104 0.0075624287 -0.00044953823
-0.030701136 0.0049112844 0.0014401674
-0.011465928 0.0063979048 0.0011566728
0.026553176 0.0075638965 -0.0025501549
0.027580431 0.0075642006 -0.0025677234
-0.02330575 0.0065024253 0.0032294989
-0.014164707 0.0078927167 0.0017525256
-0.01266942 0.0052326429 0.00090917945
-0.0074929241 0.0054846783 0.0014609843
-0.0064694565 0.0041955314 0.0033884645
0.00059716962 0.0057742363 0.00094041228
-0.0054937825 0.0043344153 0.0033455044
0.0013982877 0.0057740454 0.0009560287
-0.0045564603 0.0042491457 0.0032587498
-0.02949127 0.0025289957 0.00029484928
-0.028486585 0.0025000279 0.00041252375
-0.027549135 0.0025504008 0.00050878525
-0.030264532 0.0057731671 0.000128299
-0.029424286 0.0055035693 0.00016471744
-0.028462345 0.0055024084 0.00024627149
-0.0255445 0.005502386 0.00038336217
0.024498098 0.0055051884 -0.002425164
0.025526326 0.0055065276 -0.002464205
-0.023213355 0.0075440919 0.0025802702
-0.028222239 0.008200841 1.8969178e-05
-0.0022870805 0.0037033195 0.0024865568
-0.00050413422 0.0076546595 -0.00023611635
-0.013577202 0.0042488435 0.0034704655
-0.018485112 0.0075135585 0.00057224929
-0.00043863989 0.0045191282 0.0025598705
-0.0085003134 0.0074747857 0.0004183203
-0.034463383 0.00749058 0.0092906207
0.02758047 0.0082061263 -0.0025657415
-0.013387298 0.0081789233 0.00056558847
-0.01252885 0.0081800362 0.00044064224
-0.015489535 0.0070555676 0.0030227453
-0.022467481 0.0045430907 0.0042148978
-0.0045213122 0.0083147278 -0.00018015504
-0.0034817345 0.0082967151 -0.00029560179
-0.002538763 0.0083353035 -0.00042054802
-0.0013620108 0.0042810161 0.0026271194
-0.00046330504 0.00831524 -0.00043783337
0.012487899 0.0055254917 0.00058987737
-0.025467722 0.0083298879 0.00019465387
0.0094250375 0.004902706 0.00074778497
0.0024554431 0.0075495727 -0.00030066073
0.025525974 0.0075629717 -0.0025013536
-0.0025417563 0.0042802584 0.0026166886
0.003568938 0.0057808785 0.000776425
-0.0085564721 0.0068383655 0.00084669888
-0.014274636 0.0082983812 0.0016588271
0.0055311434 0.006328539 0.00015951693
0.0065721925 0.0063250354 0.00028446317
0.016347069 0.0078397328 -0.0035418421
0.011501496 0.0068607004 -6.9528818e-05
0.011525121 0.0063016852 0.00020012259
0.018177602 0.0079417359 -0.0020581707
0.022705711 0.0077235484 -0.0014397129
-0.022642644 0.0066045341 0.0035329163
-0.021385452 0.0065724025 0.0032127649
0.014463766 0.0083138151 -0.00090246648
-0.016811987 0.0074635195 0.003064394
-0.03015822 0.0084192008 -4.6625733e-05
0.0025312975 0.0068627866 -0.00013200194
-0.018449126 0.0062637115 0.0012726486
0.0024884716 0.0084468145 -0.00063175708
0.027583152 0.0037073446 -0.002472043
0.010521195 0.0054552639 0.00044062734
-0.030975113 0.0054340395 0.0020648837
0.014409615 0.0055756397 0.00067178905
0.0015460793 0.0075213555 -0.0001866594
0.02552595 0.0084620677 -0.0024980679
-0.024498379 0.0075227921 0.00023499131
-0.0094871614 0.0083591035 0.00010746717
-0.0084809531 0.008182412 5.5417418e-05
-0.016339844 0.0077704992 0.0026458353
-0.022476336 0.0066629853 0.0041159987
-0.014275955 0.0039020102 0.0045428723
-0.013572061 0.0074385102 0.0013643205
-0.0035243444 0.0087122228 -0.00044435263
0.0004605446 0.0044469531 0.0024579316
0.0014150515 0.0043615056 0.0022245049
0.004486965 0.0084469141 -0.00074628741
0.0054182522 0.008447147 -0.00080874562
0.0064759012 0.0084470771 -0.00085040182
-0.01567982 0.0059662256 0.0030331612
-0.0074169468 0.0066615613 0.00081546605
0.010493942 0.0049942229 0.00067490339
0.011796467 0.0049866298 0.00087794662
0.012466296 0.0049897535 0.00080506504
0.0085281134 0.007525282 -0.00049443543
0.016314637 0.0084709357 -0.0030889437
0.010532797 0.0074936487 -0.00044593215
0.011444014 0.0075510903 -0.00050888956
0.012474458 0.0076570651 -0.00059009343
-0.017127341 0.0075979466 0.0031685233
0.00185146 0.0068605915 -4.349649e-05
0.0034623053 0.0063500842 0.00031258166
0.026554255 0.0044798292 -0.0024974495
0.027582172 0.0044800304 -0.0025072098
0.0025299974 0.0089727556 -0.00086342543
0.0035627838 0.0085780518 -0.00073651969
-0.030053163 0.0090115601 -2.7880073e-05
0.0074803848 0.0083949501 -0.00089933723
0.025525996 0.0089757945 -0.0024876595
0.022538487 0.0073999693 -0.00084000081
-0.010208679 0.008980182 -5.9112906e-05
0.028350579 0.0075646127 -0.0025891736
-0.0044719372 0.0088442108 -0.00039098412
-0.0035031624 0.0089760711 -0.00053805858
0.0045175795 0.0089716334 -0.00093370676
0.005441295 0.0089710839 -0.00095713139
0.0062350202 0.0089707952 -0.00099617243
-0.030155933 0.0036531244 0.00045314431
0.022819586 0.00084454753 -0.0019957051
-0.0075432081 0.0075524878 0.00030677021
0.0014345925 0.0085786581 -0.00065256655
0.013411381 0.0055251387 0.00060461462
0.0085854437 0.0083165662 -0.00092979521
0.0094998172 0.0083158985 -0.00091287494
0.010361065 0.0082970727 -0.00092477351
0.011460502 0.0081846761 -0.00090247393
0.012526476 0.0087074637 -0.0011107102
0.013573346 0.0087074051 -0.0011549592
0.018550279 0.008614351 -0.0022747293
0.026553852 0.005508156 -0.0025130659
0.022684962 0.0086463876 -0.0017223954
-0.022650732 0.005871024 0.0059068054
-0.0104935 0.0068355585 0.0009560287
-0.007595418 0.0061456002 0.0011055171
-0.006480502 0.0064770286 0.00078138709
0.00048664585 0.0029740245 0.0036162287
0.0088622663 0.0068598259 -2.7880073e-05
0.0092578232 0.0068598008 -2.7880073e-05
-0.030051665 0.0067216037 -2.7880073e-05
0.02449812 0.0065342677 -0.0024563968
0.025526173 0.0065346528 -0.0024739802
-0.023227451 0.0086484198 0.0026520938
-0.021434842 0.0079035806 0.0014089346
0.0035020355 0.0075246273 -0.00038121641
0.0025523622 0.0092350002 -0.00098836422
0.0034755208 0.0092341378 -0.00099617243
0.0093973093 0.0088396184 -0.0011406317
0.018435005 0.0055319364 0.00042241812
-0.024501374 0.008596791 0.00024019182
0.022537762 0.0084410515 -0.00080876052
-0.0094662402 0.00924554 -0.00029858947
-0.016570551 0.0085509624 0.0022437721
-0.016177615 0.0087009966 0.0019711703
0.027580475 0.0087197348 -0.0025657639
-0.022656282 0.0076074903 0.0028006434
-0.013957834 0.0085736811 0.00108096
-0.0044364426 0.0092401747 -0.00054325908
-0.0034796111 0.0092395954 -0.00064218044
0.0045276657 0.0092331441 -0.00099617243
0.012428141 0.0068621417 -0.00012940168
0.014413647 0.0062550325 0.00013275445
0.011481309 0.0087078307 -0.0010950938
0.0074734613 0.0075251204 -0.00047491491
-0.014527028 0.0077028777 0.0023251623
-0.007475229 0.0085811438 -0.00018015504
-0.00043356791 0.0057734377 0.00095082819
0.016382255 0.0092443563 -0.0040416121
0.0125089 0.0081847534 -0.00093370676
-0.026453765 0.0084654856 0.00019074976
-0.025479281 0.0087325741 0.0002219975
-0.03108356 0.0076206401 0.0023147613
-0.020354586 0.0085416259 -0.00040270388
-0.01950088 0.0085668629 -0.00041230768
-0.018600697 0.008781286 -0.00029025227
-0.017954482 0.0088591287 -0.00016844273
-0.022467678 0.0073208408 0.0034470409
-0.021702649 0.0072266804 0.003564164
-0.013070373 0.0089838374 -2.7880073e-05
-0.0094674584 0.00642851 0.001194194
-0.029625339 0.0090107853 -2.7880073e-05
0.006768832 0.00897092 -0.0010586455
0.010484685 0.0087954942 -0.0011315197
-0.012454202 0.0055402699 0.0012933761
-0.018396089 0.0082779685 0.00018034875
0.0095764538 0.0075246096 -0.00047296286
0.0014673099 0.0063965004 0.00038485229
0.025526023 0.0093611861 -0.0024798512
-0.002468057 0.0064802226 0.00033651292
-0.017419392 0.0082621779 0.0012423545
-0.0044146422 0.0095035639 -0.00063696504
-0.0034656562 0.0095025217 -0.00070464611
0.0017744098 0.0094973966 -0.0010586455
0.0025662333 0.0094965361 -0.0010664538
0.0034878813 0.0094955415 -0.0010690615
0.0043275245 0.0094424197 -0.001058653
-0.0034348425 0.006516885 0.00044064224
0.00140021 0.0093229981 -0.00093891472
0.012435925 0.0063533057 0.00015099347
-0.029509967 0.0064507741 3.7178397e-05
-0.028557098 0.0064487089 0.00013804436
0.028351795 0.00563769 -0.0025527254
0.028332248 0.0085366117 -0.0025891736
-0.021483639 0.0076090517 0.0026999861
0.024497824 0.0093609495 -0.0024290904
-0.020095268 0.009797954 -0.0011211187
-0.019843003 0.0097972229 -0.0010586455
0.0015177168 0.0097589763 -0.001097694
0.0025758315 0.0097577078 -0.0011211187
0.0034966469 0.009756607 -0.0011211261
0.0044202991 0.0097555984 -0.0011445433
0.0054650493 0.0094935801 -0.0011107102
0.0065240189 0.0094928602 -0.0011783838
-0.012485681 0.0064268755 0.0012156814
-0.018456301 0.0095278965 -0.00070723891
0.017714262 0.0094930613 -0.0029501244
0.0011780672 0.0071228365 3.3527613e-06
0.025526064 0.009746613 -0.0024642274
-0.0095115472 0.009661315 -0.00041608512
-0.017664501 0.0086209262 0.00052583218
-0.0045323484 0.0097667277 -0.00070464611
-0.0035842899 0.0097654033 -0.00076971948
0.00071579032 0.0097598918 -0.0010430291
0.013407702 0.0062413751 0.00016993284
-0.0036967862 0.0072274953 7.8305602e-05
0.026555337 0.003448457 -0.0024329722
0.013602255 0.0094887931 -0.0014725253
-0.030180553 0.0094154077 9.7066164e-05
-0.014849508 0.0084788455 0.0023459792
-0.0065739173 0.0095063057 -0.00055626035
0.00045548379 0.0064781578 0.00043229759
0.002536878 0.006297552 0.00037531555
0.016338944 0.0089854551 -0.0034325197
-0.02942363 0.0071923863 3.3527613e-06
-0.027410926 0.0077952072 0.00011266768
-0.025498649 0.0094042113 0.0002668798
0.018594597 0.0094913431 -0.0026360378
0.026553446 0.0065362607 -0.0025345385
0.027580908 0.0065365424 -0.0025482029
0.02835119 0.0065370472 -0.0025696456
0.022721944 0.0095403278 -0.0023143068
0.023469092 0.0094895419 -0.0023809299
0.024497403 0.0097463932 -0.0023549125
0.02655331 0.0094899619 -0.0025397316
0.027580762 0.0094901212 -0.002555348
0.028325021 0.0095417146 -0.0025891811
-0.022707747 0.0084777139 0.0024292916
-0.02036407 0.0079200063 0.00038859248
-0.01947598 0.0074875094 0.00054889917
-0.017823977 0.0075679007 0.00072176754
-0.020590236 0.0065285927 0.0023147613
-0.017363904 0.0065102773 0.0030331612
-0.010493325 0.0079118442 0.00047188997
-0.0065058079 0.0075154519 0.00024542212
-0.0064891223 0.0036563296 0.0037069619
-0.0053926669 0.0035402379 0.003560707
-0.001545798 0.0075493883 -0.00022153556
0.00055028498 0.0076533584 -0.0001892671
0.022818487 0.0012274021 -0.0019332319
-0.029510157 0.0076981988 -4.350394e-05
-0.028769938 0.0077984938 -2.7880073e-05
0.01764502 0.0079373037 -0.0017874613
0.018576097 0.0076512638 -0.0015981719
0.0094163287 0.0094909109 -0.0012955293
0.024498226 0.0075629223 -0.0024974346
-0.020061823 0.010062614 -0.0012148246
-0.019694908 0.010061643 -0.0010898858
-0.023213034 0.0093874857 0.0023850352
-0.021830702 0.0085796695 0.0013386607
0.0015292373 0.010020091 -0.0011601597
0.0025868043 0.01001866 -0.0011835843
0.0035071671 0.010017462 -0.0011835918
0.0044303387 0.010016314 -0.0012070164
0.0054919682 0.010015056 -0.0012851059
0.013520872 0.0076566809 -0.00058228523
0.01150638 0.0094894767 -0.0013293624
0.01255562 0.0094891014 -0.0014048442
0.010462393 0.0094901854 -0.0013163462
0.025526162 0.010003639 -0.0024408028
-0.019506251 0.0062926989 0.0011069924
-0.026477912 0.0094064251 0.00024540722
-0.024489084 0.0095628472 0.00034692883
0.0225612 0.0092298454 -0.0019957051
-0.020489873 0.0093993628 -0.00069944561
-0.019515531 0.0094287945 -0.00084959716
-0.017544443 0.0095201964 0.00064887106
-0.017744647 0.0095250206 -0.00038188696
-0.022330625 0.0088454746 0.0019243211
-0.00047686696 0.010022968 -0.0010274127
0.00046051852 0.010021597 -0.0010898858
0.015947502 0.0071157906 0.0002219975
0.013482957 0.010007651 -0.0015896335
0.015045175 0.01000664 -0.0016521141
-0.0065444354 0.010033002 -0.00067601353
0.00050048344 0.0071214996 6.5818429e-05
-0.0045154504 0.010029425 -0.00077752024
-0.0035703387 0.010027836 -0.0008321926
-0.030352106 0.0087422635 3.3527613e-06
0.018600915 0.010004868 -0.0027609691
-0.025570324 0.010076351 0.00044064224
-0.024439896 0.010073287 0.00043283403
0.024496969 0.010003643 -0.0022690147
0.026553722 0.010003702 -0.0025110841
-0.022540165 0.0103376 0.00097164512
-0.021722553 0.010334793 0.00065928698
-0.020719619 0.010152579 -0.00067341328
-0.020211494 0.010327594 -0.0011835843
-0.019415362 0.010325553 -0.0011054948
-0.018620213 0.010323547 -0.0010274127
-0.021241901 0.0085884742 0.00050310791
0.0015392434 0.010280974 -0.0012148246
0.0025920942 0.010279431 -0.0012148246
0.003515834 0.010278091 -0.0012356415
0.0044455733 0.010276709 -0.0013007149
0.0055039804 0.010275222 -0.001363188
-0.022754306 0.0096321832 0.0022960156
-0.027446033 0.0094088567 0.00019074976
-0.0020660441 0.010287135 -0.0010274127
-0.0015316363 0.010286187 -0.0010482371
-0.00059671514 0.010284559 -0.0010898858
0.00047715753 0.010282677 -0.0011757836
0.028458703 0.0045145489 -0.0025011525
0.014396044 0.010136495 -0.0016443059
0.015050056 0.010265428 -0.0017145872
0.023470705 0.0075632585 -0.002511099
-0.0054602493 0.010162427 -0.00073458999
-0.0045010857 0.010291851 -0.00084000081
0.013553162 0.0081843985 -0.00093370676
0.018604482 0.010261191 -0.0028312504
-0.025559789 0.010346048 0.00076341629
-0.024496248 0.010342604 0.00057339668
-0.020456063 0.0073624495 0.0014193505
0.02279857 0.010264259 -0.00084000081
0.023513749 0.010114786 -0.0015584156
0.024625661 0.010261196 -0.0022143424
0.025526516 0.010260909 -0.002354905
0.026554326 0.010260753 -0.0024642274
-0.0085147526 0.0087386137 -0.00018689781
-0.021836536 0.010066046 0.0013464689
-0.013139954 0.0076406654 0.00080506504
-0.019396534 0.010589906 -0.0011601523
-0.019195927 0.010060348 -0.00094932318
-0.01776083 0.010321674 -0.00073935091
-0.017510971 0.010323234 0.00054475665
-0.016782468 0.010324015 0.0021065325
0.016462106 0.0097543243 -0.0051660761
0.022813559 0.010003795 -0.0016833469
0.012577902 0.010267304 -0.0016312897
-0.0024592448 0.010549505 -0.0010508373
-0.0015231594 0.010547623 -0.0010898784
-0.00058425777 0.010545699 -0.0011523515
0.0004875809 0.010543544 -0.001230441
0.0076495577 0.0088838767 -0.0011107028
0.0084831715 0.0088402461 -0.0011471435
0.0035262853 0.010538468 -0.0012981072
0.0044555496 0.010536858 -0.001363188
-0.020484673 0.010593012 -0.0011914
0.025141036 0.010519425 -0.0020581707
-0.018465692 0.010587506 -0.0010794699
0.027581329 0.010132316 -0.0025306046
0.028480198 0.01013244 -0.0025579333
-0.013412481 0.0087150456 0.00034694374
-0.015419653 0.007742607 0.0026544482
0.022739274 0.010538833 0.0025021732
0.023020878 0.010534971 0.0015963465
0.024108393 0.010261877 -0.0019019991
0.027480548 0.010523499 -0.0011523515
0.027750807 0.010525531 -0.00068382174
-0.0060416162 0.0081813121 3.3527613e-06
0.00049262494 0.0053561027 0.0014792234
-0.0055278018 0.0086509231 -0.0002393201
-0.016348733 0.010438199 0.0017525256
-0.00053218752 0.0064617144 0.00038233399
0.017397424 0.008198428 -0.0019644648
-0.027464544 0.010171618 0.00045625865
-0.026508635 0.010233073 0.0005120337
-0.025029236 0.010884484 0.00084669888
-0.024470894 0.010727577 0.00065928698
-0.02332226 0.0098007042 0.00081546605
-0.022231927 0.0095240017 0.0019087046
0.00080240704 0.0049371398 0.0019711703
0.0044681728 0.010796658 -0.0014412776
0.022739464 0.0085457964 -0.0023288727
0.023470912 0.0085912179 -0.0025286376
-0.016133634 0.0096470388 0.0018306077
0.022829004 0.0065363552 -0.0025345087
0.015036572 0.009617894 -0.0015427917
-0.029457083 0.0095241079 8.8527799e-05
-0.018586179 0.010852064 -0.0011289269
-0.017915418 0.010850225 -0.0010898784
-0.023232939 0.0097081419 0.0015651137
-0.021499196 0.0095275622 0.00069051981
-0.013634717 0.0094605703 0.00038442016
-0.014466768 0.0095770871 0.0016041547
-0.012479683 0.0095143002 -0.00018405914
-0.003121281 0.010812546 -0.0010586455
-0.0035822075 0.010528203 -0.00094220787
-0.0024476256 0.010810897 -0.0011055022
-0.027252378 0.01062759 0.0024709404
-0.026419358 0.010693566 0.0025412142
-0.017333252 0.0076184282 0.0020961165
-0.010559166 0.0085495096 0.00018593669
0.022978362 0.01081773 0.0043138117
0.023258064 0.010813748 0.0036891103
-0.0064907875 0.0085700555 -0.00018645823
0.025146527 0.010807555 0.0027208179
0.026746042 0.010803946 0.0021273494
0.027411763 0.01080367 0.0020648837
-0.0025657322 0.0088438345 -0.0005588755
-0.0015079435 0.0085796891 -0.00052762777
-0.00047482736 0.0088240122 -0.0006615147
0.00045977347 0.0086091561 -0.00061412901
0.014502724 0.0088390829 -0.0013658032
-0.029469939 0.0084723607 -5.5640936e-05
-0.028770411 0.0083365953 -2.7880073e-05
0.018945543 0.0081976354 -0.0019332319
0.0084552448 0.010438269 -0.0015071034
0.0094493367 0.010399876 -0.0015642717
0.026553206 0.0085910726 -0.0025462508
-0.0014132466 0.010024389 -0.00098055601
-0.00057347119 0.010806642 -0.0012070164
0.0074955821 0.011051144 -0.0015792251
0.0084169954 0.011049369 -0.0016443059
0.009466582 0.011047525 -0.001706779
0.017708935 0.0086258342 -0.0024642423
0.011553896 0.011044563 -0.0017770529
0.022825239 0.0044719367 -0.002315864
0.012589021 0.010784883 -0.00174582
-0.023545435 0.010310259 0.00074258447
-0.022096036 0.010604227 0.00053435564
-0.021478614 0.010599023 -0.00037147105
-0.020613646 0.010862285 -0.000465177
-0.020030065 0.010855566 -0.0013085306
-0.020295059 0.0065439828 0.0017525256
-0.017617701 0.010851226 -0.00076191127
-0.0035203211 0.011075264 -0.0010586455
-0.0024395511 0.011072208 -0.0011445433
-0.0015041288 0.01106992 -0.0011835918
-0.00056588836 0.011067503 -0.0012460575
0.00050519407 0.011064766 -0.001324147
0.0015616063 0.011062657 -0.0013397634
0.0024877638 0.011060731 -0.0013709962
0.0034163892 0.011058677 -0.0014256611
0.0044742767 0.011056477 -0.0014803186
0.028023805 0.0105277 -0.00018405914
0.0065026395 0.0055178353 0.00075559318
0.007580854 0.0094922278 -0.0012460649
0.0085005108 0.0094915954 -0.0012807697
0.016476706 0.010770275 -0.0035886988
0.01788622 0.01009049 -0.0029743984
0.0176656 0.010488367 -0.0030958802
0.018608417 0.010645268 -0.0029093474
-0.019518668 0.010854543 -0.0012044087
-0.018447017 0.010124661 -0.00093370676
-0.017567215 0.010859617 0.00070613623
-0.014129756 0.010448851 0.00073736906
-0.013837611 0.010447079 0.00023761392
-0.0015642755 0.0032083448 0.0042617619
-0.0054239705 0.010687223 -0.00088685006
-0.0044832733 0.010685092 -0.00091808289
0.024872556 0.011129159 0.0090928078
0.025437355 0.01113418 0.0096862763
0.026425481 0.011134079 0.0096628368
0.02867304 0.011130419 0.0091708899
0.007504072 0.011310089 -0.0016416982
0.008422995 0.011308272 -0.0016911551
0.0094711985 0.011306302 -0.00174582
0.010513086 0.011175311 -0.0017614365
0.011558693 0.01130297 -0.0018239096
0.022825055 0.0055008703 -0.0023080558
0.027537802 0.01133656 0.0086867511
0.028238133 0.011266552 0.0086555183
0.012596476 0.011172453 -0.0018239021
-0.011532718 0.0112307 -0.0006473884
-0.015541134 0.010492784 0.0014624745
-0.028898587 0.011512518 0.0083119273
-0.0075093191 0.010459724 -0.00073426217
-0.0065191109 0.010558637 -0.00078012794
-0.019161204 0.0081905518 0.000128299
-0.024514204 0.011150745 0.00061243773
-0.027128415 0.010909244 0.0039389879
-0.026674965 0.01090537 0.0035329312
-0.017575001 0.011204479 -0.00075670332
-0.017565878 0.011261452 0.00069832802
-0.0094553437 0.0088739898 -0.00014033169
-0.017818497 0.011290291 -0.0011107028
-0.02403401 0.01088303 0.0011902899
-0.023513203 0.010612641 0.0014526695
-0.022696955 0.0108883 0.0028926134
0.024471017 0.010816438 0.0041263998
0.026257891 0.010833899 0.0068750978
0.016317649 0.010307455 -0.0052597746
-0.022749228 0.010889273 0.0030331612
0.025401464 0.010522733 -0.0012772903
-0.007574195 0.011218022 -0.00084780902
-0.0064886231 0.011214709 -0.00090637058
0.016273558 0.01076588 -0.0043071061
0.014515593 0.0094885333 -0.0015202388
-0.01539286 0.0066928808 0.0030123442
-0.005479129 0.0074779238 0.00021752715
0.024590876 0.011413453 0.0093739182
0.025437728 0.011418629 0.0098632723
0.026427446 0.011418354 0.009826839
0.027125636 0.011412393 0.0092489719
0.028678259 0.01141395 0.0093583018
-0.0015125386 0.010808829 -0.001141943
0.0075125434 0.01156879 -0.0017041788
0.008431023 0.011566797 -0.0017536283
0.0094757471 0.011564931 -0.0017848611
0.010519946 0.011563065 -0.0018239096
0.027679566 0.011688197 0.0087700337
0.012604697 0.011559529 -0.0019098073
-0.012476714 0.011365398 -0.00066038966
0.025809476 0.010535161 0.0016588271
-0.011526091 0.009512688 -0.0001944676
-0.011516904 0.005503275 0.0015310347
-0.02335622 0.01088752 0.0023772269
-0.0014463589 0.0095001981 -0.00082176924
0.023493506 0.010437837 -0.00086081773
0.023301641 0.010530189 0.00047187507
-0.021834234 0.010880929 0.0020961165
-0.018547745 0.011379552 -0.0012434497
-0.017754423 0.011641783 -0.0011679679
0.023675755 0.010806009 0.0024709404
-0.0064748134 0.01160798 -0.00096493959
0.0015748963 0.011452803 -0.0014139563
0.0024984069 0.011450754 -0.0014334694
-0.024448307 0.01151195 0.0099986196
0.0034279656 0.011448299 -0.0014959499
-0.012843078 0.007101085 0.0010341108
0.024731651 0.011695005 0.0093426853
0.02543769 0.011701214 0.0098320395
0.026426796 0.011700675 0.0097799897
0.027124211 0.011692922 0.0091552734
-0.028422287 0.0074381167 4.4986606e-05
0.0075180568 0.011827555 -0.00174582
0.0084348302 0.01182554 -0.0017848611
0.0094802948 0.011823415 -0.0018239096
-0.0045172051 0.0064756912 0.00063763559
-0.028255312 0.010914722 0.0042044818
-0.027627936 0.010911882 0.0040951669
-0.016452083 0.011577555 0.0013707578
-0.014255593 0.01138318 0.00054477155
-0.026447346 0.0076590637 0.00017686188
0.022852153 0.011291467 0.0065211058
0.0235397 0.011616064 0.0075123012
-0.030678889 0.012143263 0.01194562
-0.029549873 0.012141785 0.012205914
0.011538731 0.010397671 -0.0016325936
-0.018507658 0.011906208 -0.001363188
-0.017739264 0.011905267 -0.0012148246
0.00037632696 0.0094461106 -0.00092744827
0.015761897 0.011471394 -0.0053535029
0.016096283 0.011261939 -0.0053378716
-0.0068683419 0.01187124 -0.00099617243
-0.024411971 0.011203662 0.0074893832
-0.0025413223 0.010138407 -0.00093369931
-0.013405075 0.01145547 -0.000728935
0.024474829 0.010811803 0.0033923686
-0.0055040531 0.0081809144 3.3527613e-06
0.013493889 0.010525311 -0.0017111152
-0.024164876 0.011165043 0.0026271045
-0.010464938 0.0094870906 -0.00024368614
-0.023270858 0.011464229 0.0055944622
0.022699822 0.011909176 0.0047302693
-0.0075257178 0.0095075313 -0.00050681084
-0.0055034589 0.0095046749 -0.00055366009
-0.0025255866 0.0095013026 -0.0007436797
-0.00050185621 0.009499372 -0.00090246648
0.025437444 0.011982921 0.009748742
-0.028470492 0.011838222 0.011810258
-0.028985878 0.011846634 0.012341261
0.0075220559 0.01208634 -0.0017770529
0.0084386226 0.01208417 -0.0018161014
0.0094838459 0.012081886 -0.0018551424
-0.029893765 0.010088691 0.00025323033
-0.028522158 0.0093846926 0.00011786819
0.0015851632 0.01184279 -0.0014725104
-0.027782256 0.0114883 0.0062816292
-0.026338061 0.011487034 0.00673455
-0.0084876362 0.0095087243 -0.00042872876
0.026425255 0.011981441 0.0096394122
0.010524207 0.011821395 -0.0018629506
-0.0046079084 0.0074810442 0.00013679266
-0.011477022 0.010412551 -0.00046099722
-0.027631873 0.011191956 0.0044595748
-0.024629286 0.011196733 0.0065002739
-0.023285462 0.011188391 0.0060317516
-0.016463706 0.012201914 0.0011174083
-0.0014919415 0.0064146845 0.00038932264
-0.014867472 0.01219898 0.0013152361
0.0015504565 0.010671965 -0.0012772977
0.0025489386 0.010651669 -0.001290679
0.00340591 0.010798789 -0.001363188
0.0055176243 0.010665001 -0.0014529973
0.0065582227 0.010403682 -0.0014139637
0.0075507239 0.010365322 -0.001435712
0.010495558 0.010398724 -0.0016052648
-0.030676046 0.012437245 0.011935204
-0.012842173 0.012128558 -0.0025579333
-0.024309708 0.01115711 0.0015338808
-0.015575735 0.0085616754 0.0022659749
-0.021701446 0.011155402 0.0025021732
-0.0073958803 0.01213495 -0.0010274127
-0.0064525772 0.012131524 -0.0010586455
-0.0014731549 0.012112881 -0.0013397634
-0.0054816175 0.011679166 -0.0010497198
-0.0045814402 0.011601556 -0.0010742769
-0.0044680834 0.011077991 -0.00098576397
-0.030254995 0.011844 0.011664495
-0.029470412 0.011517704 0.0086086541
0.022692714 0.010822902 0.0051259249
0.024872294 0.012259881 0.009405151
0.025437482 0.012265875 0.009759143
0.026424596 0.012262952 0.0095769465
0.0075245351 0.012345213 -0.0017978773
0.0084392373 0.012343136 -0.0018239096
0.0094853956 0.012340543 -0.0018707663
0.010529601 0.012208749 -0.001913704
0.0066014268 0.012218595 -0.0017223954
0.01642812 0.011287229 -0.0029015243
0.024498276 0.0085907904 -0.0025150031
0.018739633 0.011157008 -0.0029744133
0.019252941 0.011028564 -0.0029952303
-0.014717093 0.010407431 0.0014401823
-0.0063235071 0.011869061 -0.0010378286
-0.0084554646 0.010405284 -0.00065466017
0.026424492 0.01254496 0.0095535219
0.027263569 0.012535853 0.0090615749
0.024489326 0.010526818 -0.00030900538
-0.01246172 0.0075385692 0.00074577332
-0.016471716 0.012471014 0.0011382252
0.011565485 0.011690273 -0.0018902794
-0.013099043 0.0095817214 -0.00016063452
-0.015533356 0.0097267926 0.0018649697
-0.014852462 0.0093729729 0.0021741986
-0.014813541 0.011446421 0.0013277233
0.025419112 0.01081665 0.0041576326
-0.0055050924 0.012258791 -0.0011159107
-0.031050188 0.012736099 0.012091383
-0.0014671665 0.012373407 -0.0013709962
0.0055463891 0.012221826 -0.0016521141
0.02765362 0.011115955 0.0074841827
0.016317245 0.011427986 -0.0034012869
0.024872277 0.012542548 0.0094363838
0.025437351 0.01254791 0.0097175092
-0.016641969 0.0095105963 0.0023928434
0.0075255577 0.012604239 -0.0018082932
0.0084419418 0.012601759 -0.0018473342
0.0094879521 0.01259899 -0.0018941909
0.010534996 0.012595849 -0.0019644722
0.0066053476 0.012607147 -0.0017536283
0.015143325 0.012313871 -0.0028911158
0.016238986 0.012270868 -0.0024204999
0.017621009 0.012299274 -0.0035496503
0.01841449 0.012324223 -0.0034296736
0.014439699 0.0067738527 -0.0001007691
-0.012737522 0.012512087 -0.0029015243
-0.012451546 0.0087152217 0.00018034875
-0.017534053 0.011790788 0.00019076467
-0.011499202 0.011757093 -0.00076711923
0.02660203 0.010533821 0.0013230443
-0.022118336 0.012693383 0.0044075251
-0.027085552 0.01180888 0.0098112077
0.0025108717 0.011840327 -0.0015063509
0.016448874 0.00950207 -0.0049786642
0.0034381486 0.011837678 -0.0015584081
0.004486382 0.011575636 -0.0015584156
0.0055336393 0.011443789 -0.0015623197
0.0065855738 0.01144153 -0.0016072169
0.024872312 0.011977368 0.0093739182
0.015587486 0.012268703 -0.0052753985
0.02753922 0.011968935 0.0087726414
0.025437249 0.012830231 0.0096966773
0.011669056 0.01250607 -0.0020581707
0.011487148 0.012163322 -0.0019696727
-0.013357261 0.010500366 -0.0003714636
-0.014139878 0.011907286 -0.00012158602
-0.028463775 0.01119974 0.0050634593
-0.014800644 0.012731837 0.0010965914
0.024314003 0.011635675 0.0083223432
0.027635815 0.011108453 0.0065939873
-0.0076761413 0.012202298 -0.00098055601
-0.006440958 0.012524095 -0.0011093989
0.026508031 0.010819513 0.0045949221
-0.0045606829 0.012385943 -0.0011705756
-0.031010343 0.012439843 0.01199767
-0.029533392 0.012582548 0.012159064
-0.014500817 0.008834146 0.0019399375
-0.013719657 0.01242287 -0.00089206547
0.015460894 0.011025322 -0.0036511719
0.022699082 0.012182117 0.004771933
0.024731731 0.01282241 0.0093270689
0.026425079 0.012828041 0.0095847547
0.027547766 0.012820633 0.0092177391
0.027634842 0.012344996 0.0088637471
-0.027675716 0.01237146 0.013332978
0.014412061 0.010653423 -0.0018356144
0.015066178 0.010652483 -0.0019176155
0.0066048224 0.012866586 -0.0017536283
0.015790612 0.012514102 -0.0035366416
0.017506316 0.012804572 -0.0037657022
0.0045224763 0.0056529124 0.00065408647
0.0054970942 0.0056089126 0.00066274405
-0.031684116 0.01037869 0.0099361539
-0.016459262 0.01273887 0.0010965765
0.015512261 0.011273175 -0.0043071061
-0.025895426 0.013154747 0.012263179
0.027241955 0.010528469 3.4585595e-05
-0.017356398 0.013025261 0.0017056763
-0.016788891 0.013012542 0.0012527555
-0.016270569 0.013003211 0.00094041228
0.00052164495 0.011585287 -0.0014126599
0.015582071 0.012772966 -0.0052129328
-0.013899403 0.012951465 -0.00090246648
0.024133258 0.01139372 0.0074789822
-0.0083742533 0.012750799 -0.0010482371
-0.0074832086 0.012683418 -0.0010728538
-0.0045461822 0.012908249 -0.0012382492
-0.028742509 0.012310631 0.01250191
-0.014132159 0.012437886 -0.00015282631
-0.017033355 0.0092369588 0.002876997
-0.010523209 0.010466997 -0.00053723902
-0.021934433 0.012269389 0.003907755
-0.026575295 0.011493915 0.0073436201
-0.025481066 0.01149583 0.0079683363
0.0228252 0.011645078 0.0053758025
0.023367381 0.011512097 0.0057506263
0.00049795769 0.010804196 -0.0012850985
0.024590325 0.013108335 0.0094988793
0.025437294 0.013113211 0.0097070932
0.026425974 0.013112182 0.0096550286
0.027552184 0.013107631 0.0094441921
0.0084435884 0.012860488 -0.0018629506
0.028831737 0.01079435 0.00053435564
0.007399803 0.013122034 -0.0018473342
0.008445181 0.013119175 -0.0018785745
0.009490991 0.013116054 -0.0019254237
0.010406937 0.013112951 -0.0019852892
0.0064774156 0.013125732 -0.0017770529
0.014447492 0.013099778 -0.0022768229
0.015561412 0.01307179 -0.0033388138
0.021449046 0.013171996 0.00080506504
-0.0094603244 0.0125115 -0.00093367696
-0.0090062153 0.012928825 -0.0010274127
-0.0014882218 0.011591611 -0.0012634173
-0.0085739028 0.012315009 -0.00096493959
0.0034504104 0.012486283 -0.0016364977
-0.017366404 0.013285934 0.0013152361
-0.017597625 0.013139571 0.0007686168
-0.017528078 0.013238741 -0.0006525889
-0.0095237177 0.010434145 -0.00058618933
-0.014783325 0.013266975 0.0010341108
-0.020023959 0.011516171 -0.0013319552
-0.015542617 0.011528738 0.0012722909
-0.012421874 0.011891004 -0.00084780157
0.0027366225 0.0057745641 0.0009560287
0.0055567939 0.013128943 -0.0017302036
-0.016266705 0.013271163 0.00092479587
-0.026207009 0.011501964 0.0083119273
0.015112842 0.011420935 -0.0025032759
0.02458928 0.01339724 0.009759143
0.025437376 0.013396523 0.0097279102
0.026426148 0.013395067 0.0096628368
0.027554441 0.013392651 0.0095535219
0.0094894487 0.012857543 -0.0019098073
0.0284607 0.010667522 0.0014349669
-0.0094712544 0.011486968 -0.000785321
0.0053996593 0.0052437698 0.001002878
0.007401526 0.013380829 -0.0018629506
0.0084478464 0.013377607 -0.0019019991
0.0094924485 0.013374523 -0.0019410402
0.01014831 0.013371831 -0.0019957051
0.0064815395 0.013384323 -0.0018082857
0.024589235 0.013680442 0.0097695589
-0.019493992 0.011514716 -0.001279898
-0.015500633 0.01246688 0.0011304319
-0.017583789 0.013540708 0.00072175264
0.015784102 0.012366772 -0.0045569912
-0.010523053 0.012542599 -0.00088682771
0.022167433 0.013527444 0.0041576326
0.00054175034 0.012495494 -0.0015252307
0.0015437417 0.01245511 -0.0015584156
-0.026247432 0.012987617 0.01116994
0.0044985097 0.012483878 -0.0016423538
0.005553361 0.012740142 -0.0017028749
0.0075279884 0.012863002 -0.0018291175
0.010930936 0.012852473 -0.0020269379
-0.026563203 0.011181425 0.0036110282
-0.013755908 0.013346219 -0.00093370676
-0.02544027 0.011499768 0.0083848089
-0.01226162 0.013273081 -0.00094932318
-0.011528341 0.01335457 -0.0009515509
-0.014623208 0.012719003 0.00053435564
-0.013490921 0.012676769 -0.0013397634
-0.012966907 0.011886785 -0.0012772903
-0.012275817 0.012549216 -0.00089204311
-0.0114669 0.01254615 -0.00088683516
-0.0015810747 0.01328511 -0.0014686137
-0.00051023252 0.013279859 -0.0015427992
-0.028607948 0.013583491 0.012375623
0.012480414 0.011817467 -0.0019644722
0.019133218 0.012433158 -0.0031826422
-0.012527669 0.010441391 -0.00048273057
-0.019561945 0.013360521 -0.0014959425
-0.016455667 0.013454796 0.0010757595
-0.0155672 0.013271407 0.0010684878
-0.014695866 0.013527375 0.00075300038
0.016389452 0.012837745 -0.0023705289
0.02543748 0.013679949 0.009748742
0.026426472 0.013678438 0.0096862614
0.0074042976 0.013639352 -0.0018863827
0.0084483419 0.013636426 -0.0019098073
0.0094939545 0.013632951 -0.0019566566
0.0064825285 0.013643423 -0.0018187091
0.024588887 0.013966471 0.0098736882
-0.019478774 0.012599314 -0.0014526993
-0.0095076282 0.013489279 -0.0010430291
-0.0085863341 0.013451054 -0.0011003017
-0.025930116 0.014185345 0.012341261
-0.0034774132 0.012511798 -0.0012616888
-0.0024599954 0.012470299 -0.0013241619
0.022169419 0.013795875 0.0040639341
-0.0015929025 0.012764629 -0.0014061481
-0.00052451901 0.012499532 -0.001462765
0.024453351 0.01252441 0.0084837079
0.0190145 0.01332302 -0.0033804551
-0.017532935 0.012575937 -0.00062916428
-0.02389775 0.011170259 0.0034236014
-0.0054947939 0.011167997 -0.00096493959
-0.013612414 0.013740588 -0.00096493959
-0.012632741 0.01354306 -0.001130037
-0.01116099 0.013727259 -0.0010274127
-0.012778403 0.012236386 -0.0013085231
-0.0015748236 0.013675548 -0.0015037507
0.029074993 0.011264941 0.0084993243
-0.017558759 0.013806569 0.00064367056
-0.016366793 0.013816865 0.0012215376
-0.015495969 0.013808891 0.0010965914
-0.01483524 0.013808284 0.0011902899
-0.014255652 0.013777717 0.0002219975
-0.010559114 0.011490589 -0.00074822456
0.025437621 0.013963796 0.0097799748
0.026426727 0.013961706 0.0097018927
0.014241145 0.011143828 -0.0019582137
0.01346182 0.011351489 -0.0019301027
0.024588782 0.014250668 0.0099049211
-0.019567007 0.013756875 -0.0014881268
0.015671957 0.013415387 -0.0047600195
0.016494352 0.013311896 -0.0038698167
-0.0034579262 0.01355545 -0.0013612583
-0.0025164671 0.013550382 -0.001425676
0.014532584 0.0074976129 -0.00047765672
0.016063347 0.011770831 -0.0049005747
0.004509693 0.01352112 -0.0017243475
0.0055621192 0.013646988 -0.0017718449
0.006485017 0.013902177 -0.001839526
-0.028100731 0.012304001 0.013637528
0.024029998 0.013094617 0.0089053959
0.022826601 0.0071755662 -0.0024017617
0.027495332 0.013798108 0.0096193403
0.010609125 0.01360635 -0.0020581558
-0.017508803 0.013634928 -0.00071506202
-0.014086636 0.013230926 -0.00030899793
-0.012376716 0.013996501 -0.0010274127
-0.011297053 0.013991297 -0.0010274127
-0.015008291 0.012996203 0.00087793171
-0.029538644 0.013502711 0.012278795
0.01839022 0.012807087 -0.0036277398
-0.017517855 0.014070606 0.00051873922
-0.015504906 0.014078255 0.001120016
-0.014826762 0.014075945 0.001159057
-0.014394106 0.014058396 0.00065928698
0.023491245 0.01235605 0.0068907142
-0.0035006311 0.011597877 -0.0011497512
-0.0024228767 0.011594309 -0.0012252405
-0.00054658577 0.011588455 -0.0013449863
0.025437754 0.014247475 0.0098007917
0.026427086 0.01424556 0.0097331256
0.0084488317 0.013895239 -0.0019176155
0.0094953766 0.013891341 -0.0019722804
-0.027374087 0.010625315 0.0017212927
-0.012442777 0.0048485403 0.0011590421
-0.025498366 0.010617732 0.0013152361
0.0094948439 0.01415022 -0.0019722804
0.0064843744 0.014161574 -0.001839526
0.0074053686 0.014157238 -0.0019019991
-0.018472245 0.014146383 -0.0014959425
-0.0054648425 0.014219018 -0.0013085306
-0.0045249723 0.014213893 -0.0013475716
-0.0045326799 0.013560902 -0.0013046414
-0.023499666 0.014030619 0.0073748678
-0.015030665 0.013533941 0.00094041228
-0.010485796 0.01425028 -0.0010430291
0.014451323 0.01361398 -0.0023288727
0.015129297 0.013601472 -0.0027349368
0.016288349 0.013085575 -0.0027609617
0.018394472 0.013441702 -0.0037155747
-0.013323443 0.014001187 -0.0010274127
-0.012378065 0.014260147 -0.0010274127
-0.011565847 0.01425582 -0.0010352209
-0.013241189 0.013641808 -0.0012876987
-0.0114791 0.0085495831 0.00025802851
0.011586469 0.012849861 -0.0020972192
0.01765931 0.013382698 -0.003896594
-0.017493347 0.014322511 3.4585595e-05
-0.014557773 0.014329332 0.00073738396
-0.0064088423 0.014224541 -0.0012616739
-0.012791729 0.013999499 -0.00099617243
-0.01176413 0.01383636 -0.00099617243
-0.010488527 0.013899745 -0.0010274127
-0.016397351 0.012734795 0.00090917945
0.026286263 0.014530057 0.0097799748
0.0064884052 0.01441988 -0.0018707588
0.0074058287 0.014416175 -0.0019098073
