# .PCD v0.7 - Point Cloud Data file format
VERSION 0.7
FIELDS x y z
SIZE 4 4 4
TYPE F F F
COUNT 1 1 1
WIDTH 1192
HEIGHT 1
VIEWPOINT 0 0 0 1 0 0 0
POINTS 1192
DATA ascii
-0.0138137508 0.0087996554 0.0009773672
-0.0116570238 0.0091549940 0.0002810210
-0.0098305661 0.0091476217 0.0001170412
-0.0097105633 0.0083565507 0.0003702641
-0.0231553931 0.0110315066 0.0044040754
-0.0078073386 0.0089992285 0.0000866726
-0.0212301929 0.0103258975 0.0033108369
-0.0038396867 0.0086952616 0.0000252053
-0.0028467367 0.0087299515 -0.0001548976
-0.0228117835 0.0097075142 0.0068716556
-0.0226981547 0.0088631772 0.0067154765
-0.0058723651 0.0097364075 -0.0004210696
-0.0048880745 0.0097882133 -0.0004955679
-0.0262032393 0.0111994799 0.0013117865
-0.0258071255 0.0107330773 0.0012756363
0.0261750743 0.0077419542 -0.0022349954
0.0188496783 0.0106933136 -0.0028654113
0.0165238492 0.0068611708 -0.0000938028
0.0088072177 0.0057112798 0.0013430193
0.0026037113 0.0091069527 -0.0007497370
0.0032302716 0.0089136679 -0.0010649338
0.0040674526 0.0089702792 -0.0008519515
0.0051781926 0.0090417396 -0.0007943586
0.0061587263 0.0089835115 -0.0008191392
0.0071540698 0.0089455210 -0.0008888766
0.0081124846 0.0088609736 -0.0009195805
0.0091593675 0.0088854469 -0.0009204894
0.0101088909 0.0089018270 -0.0008616671
0.0110831307 0.0089985207 -0.0008989722
0.0121399118 0.0088007841 -0.0009145960
0.0261729043 0.0027433187 -0.0024102256
0.0271918997 0.0027471669 -0.0024839342
0.0281769130 0.0027200747 -0.0024839863
0.0350698791 -0.0052409908 0.0399983451
0.0163316429 0.0084314719 -0.0019500554
0.0174073949 0.0086266808 -0.0021013767
0.0181527101 0.0087204613 -0.0019537061
0.0189731307 0.0088440012 -0.0019015372
0.0271943789 0.0058029834 -0.0023577437
0.0280093458 0.0057317689 -0.0024252906
0.0154990889 0.0074055418 0.0015928969
-0.0229239855 0.0047285054 0.0039147139
-0.0152229238 0.0100641474 -0.0038107932
0.0234174393 0.0086612478 -0.0024301857
-0.0277965870 0.0077957101 0.0014308840
-0.0268136431 0.0077936146 0.0013781786
-0.0261138063 0.0077922381 0.0013274103
-0.0147982184 0.0052296855 0.0029672533
-0.0199911129 0.0115297325 -0.0007653609
-0.0187569614 0.0115216225 -0.0007393286
-0.0180846136 0.0115171969 -0.0007289201
-0.0168715585 0.0112899356 -0.0009371489
-0.0189732779 0.0113546345 -0.0006560311
0.0261746347 0.0113191549 -0.0023115054
0.0090891970 0.0105477907 -0.0016287789
0.0090441545 0.0058878977 0.0010556579
-0.0048831590 0.0114279278 -0.0010933205
0.0241306555 0.0113207325 -0.0022490248
0.0251532365 0.0113218222 -0.0022177920
0.0271952488 0.0113176517 -0.0023739710
0.0251530260 0.0027358476 -0.0022727922
-0.0204684976 0.0117407832 -0.0009683818
-0.0198498126 0.0117404480 -0.0008309484
-0.0188431013 0.0117337555 -0.0008044019
-0.0179578979 0.0117285214 -0.0007653534
-0.0068590622 0.0105029810 -0.0006216764
-0.0059363283 0.0104350653 -0.0006622747
0.0020925866 0.0077638384 -0.0000221282
-0.0048528016 0.0107863173 -0.0008850917
-0.0044620689 0.0068867896 0.0015928969
-0.0118663106 0.0098232534 0.0001007169
-0.0117597524 0.0061123315 0.0027694255
-0.0254780892 0.0114129242 0.0012805536
-0.0187833142 0.0090726111 0.0001326576
0.0261750370 0.0086619686 -0.0022440553
0.0188610386 0.0113987960 -0.0030663460
0.0138637852 0.0114404298 -0.0019939467
0.0147694424 0.0114455540 -0.0017883107
-0.0295892153 0.0080213342 0.0014054924
-0.0288784746 0.0080192368 0.0014304891
0.0160801187 0.0076723304 -0.0004561320
0.0090814196 0.0110454299 -0.0017742515
0.0011035742 0.0093201324 -0.0006872714
0.0011427586 0.0098226387 -0.0009519458
0.0021194273 0.0059863850 0.0017664284
-0.0228389781 0.0097499546 0.0031354427
-0.0142948646 0.0068876557 0.0022488460
-0.0108717289 0.0107382704 -0.0003853068
-0.0048631746 0.0116351843 -0.0011636093
0.0241306592 0.0115253925 -0.0022490248
0.0251532756 0.0115265548 -0.0022177920
0.0261748116 0.0115239136 -0.0023052543
0.0271955542 0.0115223005 -0.0023677200
0.0240858141 0.0026788227 -0.0022646636
-0.0204132106 0.0119497310 -0.0010933280
-0.0199065376 0.0119502153 -0.0009605810
-0.0189076085 0.0119438674 -0.0009184107
-0.0178188104 0.0119385701 -0.0008309484
0.0011084357 0.0087213386 -0.0004572421
0.0020865498 0.0086734220 -0.0004126430
0.0188678689 0.0116990991 -0.0031860918
-0.0248259474 0.0077900365 0.0011946633
0.0280597825 0.0068599768 -0.0023574457
0.0147454180 0.0042532161 0.0062469468
-0.0295602102 0.0091262963 0.0013430193
0.0012005807 0.0059454124 0.0018860325
-0.0048593786 0.0082847141 0.0003200695
-0.0038700702 0.0096509978 -0.0004889145
0.0041614957 0.0068259500 0.0008557439
0.0041446071 0.0107372515 -0.0014458373
0.0111607723 0.0077371057 -0.0002624542
-0.0268267263 0.0049323440 0.0014054999
0.0177867971 0.0052555576 0.0024050176
-0.0277940352 0.0097802151 0.0014094114
-0.0222495813 0.0067727640 0.0048517808
-0.0225971285 0.0109176561 0.0034982488
-0.0148278493 0.0116930120 0.0001404658
-0.0212821197 0.0105301086 0.0023737848
-0.0188363735 0.0107790940 -0.0005466938
-0.0117380191 0.0075665973 0.0013180375
-0.0119557362 0.0115262084 -0.0006181225
-0.0108460318 0.0117524527 -0.0007462651
-0.0109054018 0.0113525409 -0.0006515682
0.0021302996 0.0097310692 -0.0010038763
-0.0148263108 0.0071815439 0.0020510107
-0.0200008322 0.0100702085 0.0015929043
-0.0117786955 0.0070037711 0.0014549568
-0.0087876525 0.0112484097 -0.0007185042
-0.0148226861 0.0099077616 0.0009057224
0.0241306033 0.0117302984 -0.0022427812
0.0251533184 0.0117313080 -0.0022177920
0.0261750035 0.0117287207 -0.0022990108
0.0271961652 0.0117274430 -0.0023489818
0.0281880796 0.0115372278 -0.0023784339
-0.0203865115 0.0121606439 -0.0011557937
-0.0198732223 0.0121606346 -0.0010386631
-0.0188680757 0.0121534746 -0.0010121167
-0.0177882966 0.0121488012 -0.0009059161
-0.0171942320 0.0121509880 -0.0007185042
0.0001524293 0.0086674336 -0.0004251376
-0.0048437752 0.0119468458 -0.0012338907
-0.0118651483 0.0107266698 -0.0002922118
-0.0258884151 0.0122987814 0.0013742596
-0.0187986363 0.0056577846 0.0046584159
0.0261746235 0.0096839108 -0.0022815391
-0.0260186661 0.0087606646 0.0013174862
-0.0255933683 0.0088032745 0.0012805685
-0.0182328690 0.0053077638 0.0001873150
-0.0154845696 0.0109963752 -0.0037170872
-0.0223643463 0.0013353452 0.0047788918
0.0160303693 0.0087853912 -0.0013022125
0.0091093266 0.0116578024 -0.0019600838
0.0082771424 0.0078618005 0.0000595450
0.0011185629 0.0107897669 -0.0013194084
0.0011175850 0.0070413090 0.0008120313
0.0020460782 0.0067893323 0.0005647391
-0.0108690094 0.0098767504 0.0000182912
-0.0038468617 0.0068403631 0.0017031431
-0.0028604402 0.0107917655 -0.0010383353
0.0041241627 0.0077420399 0.0000936165
-0.0268212277 0.0017423183 0.0013649017
0.0041294787 0.0118149649 -0.0017804801
0.0040203966 0.0114429202 -0.0016503558
0.0111684129 0.0084532946 -0.0005467087
0.0180888958 0.0099984221 -0.0027800351
-0.0268101003 0.0097741466 0.0013547540
0.0251530521 0.0111163780 -0.0022427812
-0.0117173996 0.0119627118 -0.0007434860
-0.0032084549 0.0065732263 0.0010306686
-0.0232151877 0.0113730729 0.0045290142
-0.0078789722 0.0097436104 -0.0003308803
-0.0068898406 0.0097955558 -0.0003966242
-0.0028797707 0.0100754350 -0.0007879063
-0.0018004293 0.0099871177 -0.0008146092
-0.0008365328 0.0098471362 -0.0008102655
0.0001065449 0.0098598227 -0.0008730441
0.0031257325 0.0097443536 -0.0011284575
0.0231450312 0.0027101133 -0.0022843629
-0.0228898097 0.0105559006 0.0031858981
0.0001403352 0.0093227550 -0.0006638393
0.0093978364 0.0072101280 0.0002706125
-0.0118426438 0.0064286608 0.0025478154
-0.0195835214 0.0053843111 0.0052786618
-0.0195600335 0.0058007296 0.0035555139
-0.0268142689 0.0087839253 0.0013727099
0.0189788174 0.0083571356 -0.0015514418
-0.0157963466 0.0078790393 0.0008640736
-0.0162668172 0.0077768695 0.0000780001
-0.0288407076 0.0088017844 0.0014326498
0.0091269519 0.0121680815 -0.0020803586
0.0010202320 0.0064706672 0.0018802658
-0.0156012531 0.0098219439 0.0009252504
-0.0221253168 0.0122569427 0.0011243746
-0.0078145918 0.0111624971 -0.0007809699
-0.0079056341 0.0106737893 -0.0006024987
-0.0008602201 0.0087246131 -0.0003545135
0.0064724088 0.0057145339 0.0012180805
0.0059970133 0.0059308503 0.0018938929
0.0061209425 0.0097472891 -0.0011913106
0.0040967483 0.0121939257 -0.0018617064
-0.0268052239 0.0107642710 0.0013321042
0.0251533855 0.0120384879 -0.0022177920
-0.0197458956 0.0113891028 -0.0006352067
-0.0118335802 0.0123217162 -0.0007934645
0.0022007765 0.0063473210 0.0015616715
0.0021090915 0.0107649714 -0.0013869554
-0.0223564524 0.0092259236 0.0042478964
-0.0135919061 0.0101594962 0.0001873150
-0.0268249344 0.0117559284 0.0013547540
0.0041628908 0.0097243562 -0.0011357963
0.0051733702 0.0096950941 -0.0011150539
0.0071179308 0.0097163208 -0.0012307763
0.0081722233 0.0097135380 -0.0012857467
0.0083114989 0.0055424385 0.0014679655
0.0103586456 0.0059564449 0.0014575496
0.0110193668 0.0058677401 0.0018958822
0.0261737537 0.0037606284 -0.0023390055
0.0271933656 0.0037637595 -0.0024139732
0.0280352440 0.0037386194 -0.0024286434
0.0153393373 0.0096118320 -0.0019054487
0.0162101761 0.0095625371 -0.0022750571
0.0173649527 0.0093557853 -0.0025863722
0.0182478037 0.0095272083 -0.0024327710
0.0271953810 0.0068233367 -0.0023202673
0.0233647693 0.0097346175 -0.0023141056
-0.0277942065 0.0087879207 0.0014195591
-0.0152270999 0.0096487366 -0.0013015568
-0.0198889095 0.0124646947 -0.0011488646
-0.0188819636 0.0124579966 -0.0011002719
-0.0178807471 0.0124731362 -0.0011037514
-0.0172264706 0.0124633871 -0.0009137243
-0.0231028777 0.0114495214 0.0032483712
0.0081077442 0.0068116356 0.0007424429
-0.0059156325 0.0123712793 -0.0012495071
-0.0129061546 0.0116822645 -0.0004983395
-0.0128956009 0.0076901503 0.0014341325
-0.0196622070 0.0108948462 -0.0003905445
-0.0157105234 0.0079948194 -0.0012807325
-0.0287724752 0.0097860564 0.0014425963
-0.0221859422 0.0028082989 0.0046656802
0.0091323033 0.0123722777 -0.0021178424
0.0091038765 0.0083662383 -0.0005623251
0.0010951941 0.0118021388 -0.0015743598
0.0011435670 0.0074262209 0.0005152896
-0.0159271229 0.0106866434 0.0008791462
-0.0149592627 0.0107290670 0.0006089807
-0.0078419615 0.0117628668 -0.0009559020
-0.0008091184 0.0124347396 -0.0015743449
0.0120709622 0.0067153685 0.0004535466
-0.0258382801 0.0128399469 0.0039355457
-0.0029975681 0.0074232779 0.0014523491
-0.0028687327 0.0118092410 -0.0013164356
0.0041284636 0.0084777866 -0.0004477948
0.0115283709 0.0060379393 0.0009525791
0.0041051377 0.0123988576 -0.0019054413
0.0110974079 0.0097073317 -0.0013482273
0.0180766191 0.0107185338 -0.0029443577
-0.0119323228 0.0125328265 -0.0008278266
-0.0128136855 0.0107522998 -0.0002109110
-0.0058480259 0.0117467903 -0.0011089519
-0.0038102923 0.0074229315 0.0016178861
0.0251534842 0.0123462398 -0.0022052974
0.0261758845 0.0123442300 -0.0022615269
0.0271975622 0.0123426989 -0.0023114979
0.0281186365 0.0123440456 -0.0022958815
-0.0232400652 0.0114730354 0.0040604845
-0.0152005116 0.0106812771 -0.0038732663
-0.0130384658 0.0095028765 0.0003434941
-0.0060055237 0.0067776777 0.0017803088
-0.0058568045 0.0109572764 -0.0008618236
0.0030694490 0.0077437442 0.0000436455
-0.0278146323 0.0017310958 0.0014367327
0.0051392093 0.0076343715 0.0003434941
0.0151723735 0.0086805914 -0.0009921864
0.0080731120 0.0117635485 -0.0019629151
0.0079590566 0.0075840522 0.0004302487
-0.0204051118 0.0111221652 -0.0000938028
0.0241307449 0.0107065290 -0.0022652969
0.0091386139 0.0125760660 -0.0021615699
0.0232182313 0.0071346611 -0.0027487874
0.0021600628 0.0116923843 -0.0016243160
0.0288326219 -0.0007350557 -0.0023739710
0.0263604317 0.0127631947 0.0025924295
0.0060937256 0.0106110387 -0.0015462264
0.0121933976 0.0077755582 -0.0001298264
0.0118188886 0.0075232480 0.0003356859
-0.0260386150 0.0128673129 0.0027069598
-0.0241162013 0.0131101720 0.0054036006
0.0041121393 0.0126039088 -0.0019429326
-0.0197285917 0.0051729530 0.0047788918
-0.0199805927 0.0126114860 -0.0022177920
-0.0198225770 0.0127950683 -0.0011636019
0.0259226244 0.0127340667 0.0019364879
-0.0287994314 0.0017214343 0.0014804602
0.0021794436 0.0122074224 -0.0017180294
-0.0205977764 0.0097624436 0.0029516369
-0.0139165800 0.0117171109 -0.0002483949
-0.0069011655 0.0124840382 -0.0012016147
-0.0008967558 0.0093606208 -0.0006404147
0.0062977821 0.0066778697 0.0007620454
0.0050950348 0.0107696932 -0.0015202165
0.0090849297 0.0067247804 0.0007424429
0.0101466496 0.0072102621 0.0002107397
-0.0038837104 0.0124902483 -0.0014008731
0.0040444415 0.0059408583 0.0016553774
-0.0240629185 0.0117933787 0.0013862848
-0.0156712215 0.0088505782 0.0009681955
-0.0098696109 0.0097834170 -0.0000952780
-0.0278507601 0.0134242922 0.0065280646
-0.0248718504 0.0134165809 0.0070278347
0.0073065534 0.0055881180 0.0019833446
-0.0209300201 0.0128268376 -0.0006456226
0.0150890555 0.0108157322 -0.0018855631
0.0160964895 0.0107819960 -0.0021587908
0.0120039592 0.0083422530 -0.0006247982
0.0147665273 0.0082566813 -0.0006872714
-0.0141104143 0.0083783716 0.0013638437
0.0241305009 0.0120381154 -0.0022240356
-0.0277907308 0.0107723884 0.0013898835
-0.0160220060 0.0089452956 -0.0016087070
-0.0287821125 0.0107806996 0.0014476702
-0.0222123619 0.0037070848 0.0047320426
0.0161253121 0.0107210167 -0.0013327971
0.0257815495 0.0132630281 0.0087613836
0.0021918470 0.0126193054 -0.0017804876
0.0255970489 0.0127091445 0.0013742596
-0.0158287864 0.0117337722 0.0005736351
-0.0150649119 0.0113162026 0.0004059598
-0.0078954678 0.0125979409 -0.0011382326
-0.0284374598 0.0134821013 0.0077150092
-0.0284851771 0.0135316849 0.0088394731
0.0062547568 0.0110979117 -0.0017492771
-0.0296492297 0.0137059353 0.0125564635
-0.0043135080 0.0082835797 0.0003122613
0.0044542197 0.0059298929 0.0011087582
-0.0242651533 0.0133764409 0.0062469468
-0.0028533007 0.0126578845 -0.0014785528
0.0112408372 0.0070697442 0.0001873150
0.0110236807 0.0066492110 0.0005286634
0.0111957695 0.0108674001 -0.0018273294
0.0110504190 0.0103810299 -0.0016600192
0.0241309796 0.0086617079 -0.0022902861
-0.0188998897 0.0128912218 -0.0012104660
0.0262624230 0.0130055733 0.0031858981
0.0262696743 0.0130279548 0.0036700442
-0.0068786014 0.0129002780 -0.0012807399
0.0140844360 0.0040778276 0.0050600097
-0.0137727354 0.0107844360 0.0000290722
-0.0169426668 0.0085294768 0.0003434941
-0.0154333208 0.0089520346 -0.0000469461
-0.0281646308 0.0136645511 0.0066530108
-0.0234442186 0.0125364363 0.0024362579
-0.0231501218 0.0125165489 0.0019781366
-0.0138899554 0.0097413585 0.0005074739
0.0168006495 0.0102923755 -0.0026863217
0.0251745638 0.0077470429 -0.0021898672
0.0288380571 0.0121430755 -0.0022177920
-0.0157398414 0.0079100393 0.0020510107
-0.0295121353 0.0097906049 0.0014718696
0.0081001325 0.0126832090 -0.0021397322
0.0081015565 0.0083674658 -0.0005349964
0.0251889769 0.0130614713 0.0044040754
-0.0138434190 0.0127747245 -0.0004576668
-0.0293760318 0.0103422776 0.0014367253
0.0261266623 0.0135024898 0.0089956522
0.0022042075 0.0130308345 -0.0018429682
-0.0268053804 0.0132323615 0.0077150092
-0.0272069816 0.0132062621 0.0069965944
-0.0058669411 0.0077713225 0.0004881471
-0.0078700688 0.0131194927 -0.0012260750
-0.0289905835 0.0137260780 0.0078087151
-0.0293726344 0.0136430487 0.0111821145
-0.0298838113 0.0139618777 0.0127646998
-0.0238224436 0.0135815181 0.0058096573
-0.0028367939 0.0130719580 -0.0015462413
-0.0260162149 0.0126757361 0.0015963688
-0.0260667484 0.0128606930 0.0044040754
-0.0256060716 0.0131699629 0.0064968318
0.0091600996 0.0096832886 -0.0012963638
-0.0278055239 0.0047085565 0.0014484525
0.0151736476 0.0077762865 -0.0003624260
-0.0272697899 0.0132400021 0.0024362504
-0.0247678366 0.0127814896 0.0027173683
0.0212448891 0.0131386593 0.0014601499
-0.0157848503 0.0098092742 -0.0000580996
-0.0098762643 0.0107494202 -0.0004980117
-0.0088607129 0.0107077304 -0.0005623102
0.0249611568 0.0131413974 0.0015304312
-0.0038676991 0.0108173750 -0.0009743422
-0.0018413609 0.0107583199 -0.0010734499
-0.0008786174 0.0108089112 -0.0011354238
0.0001479385 0.0107586104 -0.0012130588
0.0031698698 0.0107605737 -0.0014244318
0.0071258191 0.0104870666 -0.0015774667
0.0072259977 0.0109646283 -0.0017570555
-0.0098422188 0.0117315445 -0.0008051246
-0.0142376591 0.0104506165 0.0003122613
-0.0274473373 0.0131552778 0.0057159513
0.0281959381 0.0077588242 -0.0023230240
-0.0158149134 0.0130471401 0.0000765771
0.0287365410 0.0123485401 -0.0022021756
-0.0157646034 0.0130467974 -0.0041231439
0.0151095670 0.0097496677 -0.0014571249
-0.0128236767 0.0133877918 -0.0008200258
0.0245374944 0.0130734071 0.0001248494
0.0243318807 0.0129088610 -0.0011401847
-0.0197365042 0.0130946785 -0.0012539700
-0.0178030264 0.0091048032 0.0001404658
0.0145264994 0.0032554567 0.0085895956
-0.0160136279 0.0095121991 -0.0011870265
-0.0293943826 0.0115596857 0.0014523417
-0.0288351644 0.0117959753 0.0014642999
-0.0221973602 0.0047219377 0.0047039390
0.0160611384 0.0116770025 -0.0014123693
0.0160949845 0.0117847379 -0.0021622702
0.0011609753 0.0128687397 -0.0017546862
-0.0272303764 0.0131661333 0.0060283020
-0.0164403226 0.0126217119 0.0005309060
-0.0159355644 0.0125521701 0.0004282743
-0.0012713114 0.0067800581 0.0013950840
-0.0078612883 0.0133280605 -0.0012573153
0.0061426442 0.0077649504 -0.0002204627
-0.0250337664 -0.0021754280 0.0057784244
0.0061898828 0.0117720179 -0.0018904433
0.0047955122 0.0113701448 -0.0016867965
0.0287842117 0.0131791681 0.0069028884
-0.0235532951 0.0138043724 0.0057471842
-0.0028293247 0.0132789351 -0.0015774742
-0.0306932162 0.0139479898 0.0122753456
-0.0306996386 0.0141318962 0.0127282515
0.0111915451 0.0117518231 -0.0020616129
-0.0188533533 0.0134172589 -0.0013275892
0.0021018924 0.0132377408 -0.0018585846
0.0151050314 0.0068937857 0.0001404658
0.0141535811 0.0043999013 0.0048458278
-0.0068681892 0.0110091027 -0.0008098036
0.0080623049 0.0110010300 -0.0017748028
0.0101678083 0.0109711792 -0.0017852858
0.0122247301 0.0107633490 -0.0018483847
0.0130981375 0.0108728595 -0.0018563494
0.0138974246 0.0109569691 -0.0018234551
0.0253647771 0.0134206749 0.0088811219
0.0262430198 0.0137393288 0.0091596330
0.0271575339 0.0136257969 0.0091674551
0.0280710571 0.0136247650 0.0091323182
0.0289033987 0.0135756992 0.0091161421
0.0271962341 0.0077423453 -0.0022912174
0.0308147632 0.0137409791 0.0091049746
0.0233282484 0.0107199457 -0.0023159683
0.0091596479 0.0133909695 -0.0023115054
0.0101977661 0.0133851878 -0.0023552254
0.0111283474 0.0133808739 -0.0023817793
0.0120569821 0.0133769400 -0.0024052039
0.0130804330 0.0133758225 -0.0023739710
0.0140954535 0.0133788995 -0.0022677705
0.0288705043 0.0139671527 0.0090997666
0.0121456068 0.0097046383 -0.0014244318
0.0121821919 0.0060237255 0.0006433502
-0.0088623259 0.0134441964 -0.0011839196
-0.0018978326 0.0068390686 0.0017615706
-0.0149016436 0.0128009096 -0.0000344440
-0.0221200828 0.0114260092 0.0026549026
-0.0152260941 0.0089484304 -0.0005623251
0.0153138284 0.0105886031 -0.0014275387
0.0152377356 0.0071995612 0.0009681955
0.0008035374 0.0124222878 -0.0016867965
0.0080827661 0.0059515350 0.0010619089
0.0249946192 0.0128298029 0.0009161383
0.0247466080 0.0126400366 -0.0001875013
-0.0127943587 0.0098924115 0.0001560822
0.0282141604 0.0100907534 -0.0024364442
-0.0265246052 0.0134943351 0.0084334165
-0.0058914647 0.0128912851 -0.0013379976
-0.0058392435 0.0082867984 0.0003185049
-0.0078525562 0.0135365315 -0.0012885481
-0.0297559146 0.0144492649 0.0127594918
-0.0119173061 0.0129540786 -0.0008772835
0.0031482351 0.0067869220 0.0006757230
0.0040659420 0.0064167939 0.0016085207
-0.0029309785 0.0134869814 -0.0015993342
0.0251529850 0.0096846037 -0.0022240728
-0.0049195420 0.0126751699 -0.0013532117
-0.0255700741 0.0134425312 0.0074651241
0.0021044144 0.0134441070 -0.0018742010
-0.0238438006 0.0142968558 0.0063718930
0.0262440108 0.0139715113 0.0092221051
0.0271575563 0.0139687806 0.0091596330
0.0280709825 0.0139674619 0.0091205901
0.0304760300 0.0139735043 0.0091830641
0.0308142267 0.0139690749 0.0090893582
0.0091638798 0.0135947168 -0.0023427382
0.0102035850 0.0135880671 -0.0023989528
0.0111309905 0.0135847330 -0.0024052039
0.0120579982 0.0135812797 -0.0024177060
0.0130813681 0.0135801509 -0.0023864582
0.0140969530 0.0135830455 -0.0022865087
0.0288703684 0.0141954497 0.0090893582
-0.0019037055 0.0118400790 -0.0013692528
0.0261750761 -0.0003248490 -0.0023614913
-0.0009386281 0.0074274763 0.0006558448
-0.0151735302 0.0136654973 0.0000675768
0.0234483369 0.0124142915 -0.0022073835
0.0081167258 0.0135004967 -0.0022552684
-0.0268416274 0.0130777620 0.0039980114
-0.0188290905 0.0137327760 -0.0013900623
-0.0178666841 0.0098171439 -0.0001603290
-0.0287865084 0.0126917213 0.0015362948
-0.0152348559 0.0068039764 0.0005933791
0.0158799496 0.0128619857 -0.0015549138
0.0161872152 0.0126121379 -0.0021240786
0.0166287962 0.0124153402 -0.0031080022
-0.0261704680 0.0138144419 0.0103700012
-0.0279726628 0.0133710764 0.0052786618
0.0031338611 0.0060221031 0.0017584562
-0.0008401873 0.0118151475 -0.0014431700
0.0061406251 0.0084746983 -0.0004665256
0.0131157693 0.0060157012 0.0006558374
0.0131848762 0.0097029861 -0.0014469326
-0.0028232357 0.0136943161 -0.0016087070
0.0111623406 0.0127422810 -0.0022760257
-0.0019623435 0.0094864909 -0.0005883723
-0.0239178073 0.0145359412 0.0065280646
0.0261735152 0.0017213859 -0.0023939833
0.0262442194 0.0142009966 0.0092299134
0.0271582864 0.0141990110 0.0091830641
0.0280709192 0.0141959228 0.0091127828
0.0304763578 0.0142026022 0.0091830641
0.0308145694 0.0141979940 0.0090893582
-0.0018764439 0.0135653429 -0.0016539022
0.0251530036 0.0086620133 -0.0022103265
0.0271960404 0.0086618885 -0.0023052767
0.0280528311 0.0088865887 -0.0023614690
0.0303605795 0.0144297965 0.0091518238
-0.0256431643 0.0077914596 0.0012711883
0.0051950067 0.0136205107 -0.0021636635
0.0271943379 -0.0003168453 -0.0024601966
-0.0151257385 0.0140870586 -0.0000625625
-0.0224960204 0.0048068352 0.0043936744
0.0262444504 0.0144305564 0.0092377216
-0.0272975173 0.0141814277 0.0128063485
0.0021099707 0.0137531422 -0.0019054487
-0.0263181087 0.0134964250 0.0085271224
-0.0188152809 0.0140493773 -0.0014291033
-0.0224372800 0.0097444654 0.0037793592
-0.0058767013 0.0136212967 -0.0014017746
0.0032514313 0.0064264853 0.0015851036
0.0130734742 0.0127641745 -0.0023027733
-0.0289057624 0.0146854185 0.0127813593
-0.0158101264 0.0137736686 -0.0000274181
-0.0232979897 0.0090285409 0.0085271224
-0.0118905175 0.0136904009 -0.0009664372
-0.0108726751 0.0136775598 -0.0010511726
0.0267971363 0.0127785839 0.0029360130
0.0272232555 0.0129535310 0.0038066953
0.0281161871 0.0128129236 0.0036934689
0.0281419046 0.0130653009 0.0044509247
0.0101813516 0.0127751417 -0.0022315681
-0.0198440310 0.0105542205 0.0003643185
0.0091295606 0.0077373851 -0.0000488833
-0.0288696419 0.0047229324 0.0014630407
0.0172820576 0.0048081446 0.0029672533
-0.0029249436 0.0139022991 -0.0016305819
0.0048807189 0.0068031177 0.0006688535
-0.0108312760 0.0121020898 -0.0008278266
-0.0099669155 0.0112559162 -0.0006768554
-0.0018432999 0.0086710900 -0.0002414361
-0.0239347946 0.0147680789 0.0065593049
0.0216419529 0.0142572522 0.0061844811
-0.0186958779 0.0097927973 -0.0002714321
0.0301289409 0.0146548860 0.0090893507
-0.0018763246 0.0127534196 -0.0015540421
-0.0259336401 -0.0003304109 0.0013138875
-0.0088690687 0.0117407069 -0.0008654967
-0.0144043248 0.0110908821 0.0001560822
-0.0148805995 0.0066544358 0.0026765168
0.0164167695 0.0121153258 -0.0029986724
0.0021136792 0.0140625276 -0.0019288659
-0.0188073535 0.0142604969 -0.0014525279
-0.0110980030 0.0075079612 0.0013221949
-0.0215991680 0.0111849885 0.0020301938
0.0158183016 0.0137384534 -0.0012703240
-0.0058672428 0.0141425580 -0.0014447197
0.0271969549 0.0120351240 -0.0023271143
-0.0178028513 0.0075536836 0.0015929118
-0.0288663860 0.0151744857 0.0127959410
0.0143463723 0.0082569979 -0.0006560311
0.0061381701 0.0137170590 -0.0022060946
0.0133237904 0.0104327537 -0.0016624928
-0.0118743163 0.0142162554 -0.0010230467
-0.0108575951 0.0142025240 -0.0011058226
0.0111354124 0.0138901621 -0.0024442449
-0.0128522944 0.0087322462 0.0007479787
-0.0127255227 0.0128669515 -0.0007761717
-0.0130807525 0.0125477631 -0.0006649569
-0.0029263648 0.0141108446 -0.0016305819
-0.0014155416 0.0139917657 -0.0017180294
0.0213155597 0.0134220459 0.0014575496
-0.0164917614 0.0106898602 0.0008744970
-0.0068364460 0.0117540285 -0.0010523424
-0.0038443937 0.0117791574 -0.0012523457
0.0001292077 0.0118085723 -0.0015087500
0.0031262671 0.0115500931 -0.0016373321
0.0051668249 0.0118128881 -0.0018483996
0.0071337800 0.0117674638 -0.0019335374
0.0101519655 0.0117560290 -0.0020141378
-0.0098806564 0.0127031766 -0.0009802878
-0.0028890858 0.0095423292 -0.0005337000
-0.0231531952 0.0149202533 0.0053723678
-0.0019567797 0.0141015835 -0.0016789883
0.0271948781 0.0096830353 -0.0023602471
0.0121478252 0.0117291026 -0.0020883903
0.0216339007 0.0144965202 0.0064655989
0.0216946490 0.0145885423 0.0043103695
-0.0156386290 0.0105918348 -0.0033422634
-0.0189126302 0.0144729055 -0.0014743954
0.0160681978 0.0142495371 -0.0013744459
0.0163070671 0.0135053955 -0.0017336532
-0.0295072999 0.0056500044 0.0014575571
0.0003330314 0.0065254103 0.0019186363
0.0130866878 0.0139870010 -0.0024406090
-0.0288744364 0.0154196285 0.0128063560
-0.0247652549 0.0068060495 0.0010744259
-0.0241955277 0.0068050008 0.0011118799
-0.0157961864 0.0144143663 -0.0000781789
0.0130862324 0.0070016272 -0.0000375658
0.0132097956 0.0065190848 0.0006324127
0.0061424989 0.0142300688 -0.0022412166
0.0118677020 0.0103200916 -0.0016867965
-0.0164325405 0.0143511817 -0.0030923784
-0.0108550619 0.0144129731 -0.0011183098
0.0031270979 0.0084032994 -0.0004061535
0.0099101076 0.0057347342 0.0011113659
0.0041230265 0.0130142979 -0.0020033047
0.0180998556 0.0067340489 -0.0002633631
0.0111376662 0.0141963810 -0.0024676770
-0.0127973314 0.0139134489 -0.0009020194
-0.0221213605 0.0137692206 0.0029984936
0.0130684022 0.0117635671 -0.0020967573
0.0139134564 0.0119713936 -0.0020803586
0.0150325820 0.0119906515 -0.0018117204
0.0263591204 0.0147745423 0.0092403367
0.0271584932 0.0146568082 0.0091778720
0.0280693322 0.0146500878 0.0090503171
0.0290635116 0.0146649219 0.0090068132
0.0300116949 0.0148799010 0.0090268860
0.0307768993 0.0145032108 0.0090893582
0.0234152861 0.0117291138 -0.0022833869
-0.0230253879 0.0149022229 0.0050912499
0.0091737136 0.0144114681 -0.0024239495
0.0102109117 0.0144047663 -0.0024676770
0.0111380275 0.0144009776 -0.0024754852
0.0120660141 0.0143964402 -0.0024989098
0.0130909411 0.0143941008 -0.0024864152
0.0261744894 0.0107057355 -0.0023077726
-0.0289862175 0.0139544196 0.0128032193
-0.0009989946 0.0133820996 -0.0016778708
-0.0088781286 0.0127301663 -0.0010685921
-0.0218384285 0.0105437990 0.0029297695
0.0021181942 0.0143715888 -0.0019562021
-0.0048960373 0.0137163587 -0.0014544278
-0.0177509580 0.0114104040 -0.0006521270
0.0153589379 0.0138281360 -0.0015274882
0.0148871094 0.0138038173 -0.0019783154
-0.0271726307 0.0155201219 0.0127829164
0.0070977397 0.0084163155 -0.0004572719
0.0003923958 0.0074271280 0.0005100816
-0.0139080985 0.0136763044 -0.0005493164
-0.0165385026 0.0131430626 0.0001170412
0.0282195602 0.0120358597 -0.0023271143
-0.0288825911 0.0156648569 0.0128167644
-0.0158440452 0.0147432946 0.0000311434
-0.0108457971 0.0146221928 -0.0011495426
0.0031359938 0.0128364488 -0.0018994808
-0.0304794405 0.0155654065 0.0128688142
0.0280692615 0.0151068382 0.0090347007
-0.0066635739 0.0067400485 0.0019416958
0.0287811235 0.0128283240 0.0040292516
0.0263594091 0.0151187144 0.0092455298
0.0271587335 0.0151148587 0.0091752559
0.0290939622 0.0151020177 0.0089394227
0.0298954025 0.0151056685 0.0089800283
0.0241307653 0.0096839406 -0.0022677928
-0.0205434803 0.0108245239 0.0009838119
0.0188383218 0.0137567669 -0.0035765320
-0.0257021282 0.0097672455 0.0012779683
-0.0008776209 0.0145056322 -0.0017648786
0.0165075585 0.0137344301 -0.0031423569
0.0091481861 0.0129840374 -0.0022303015
-0.0162115153 0.0128917508 -0.0030611455
0.0150902867 0.0145241581 -0.0019710436
0.0031655056 0.0120641105 -0.0017457828
-0.0171498973 0.0129162893 -0.0014993846
0.0130925626 0.0145978145 -0.0025051609
0.0141348839 0.0096402764 -0.0014228597
0.0218118280 0.0147886351 0.0040136352
0.0218640678 0.0147026367 0.0061844811
0.0130475620 0.0077548139 -0.0004631057
0.0061425287 0.0145386532 -0.0022490323
-0.0164451879 0.0117661506 0.0007433072
-0.0038168824 0.0129769519 -0.0014712662
-0.0252931211 0.0134371072 0.0074026501
0.0101436749 0.0066610277 0.0008744821
0.0030713507 0.0137435757 -0.0019882023
0.0180581808 0.0116989426 -0.0032085702
0.0111405896 0.0146045499 -0.0024989098
-0.0134742539 0.0139974281 -0.0007705614
-0.0128801595 0.0146509260 -0.0009933859
-0.0224094298 0.0037214216 0.0043728352
0.0070619937 0.0127901398 -0.0021316037
0.0051530227 0.0078465231 -0.0000256449
-0.0146812480 0.0090644807 0.0011790320
-0.0211495142 0.0114758629 0.0007807836
-0.0208755080 0.0117564816 -0.0005779490
0.0180830490 0.0145132095 -0.0036296174
0.0188912433 0.0145117156 -0.0036337897
0.0131318225 0.0086724106 -0.0009821206
0.0157521032 0.0142539963 -0.0013119727
-0.0229924750 0.0126948133 0.0028162748
0.0150921680 0.0148311742 -0.0019991547
0.0158846285 0.0144550577 -0.0022177920
0.0162472166 0.0145866796 -0.0034404248
-0.0149618629 0.0145812035 -0.0003749207
0.0100905513 0.0097364336 -0.0013255626
-0.0249207933 0.0117612928 0.0013263822
0.0130927004 0.0148023292 -0.0025114119
-0.0008241592 0.0138351619 -0.0017348304
0.0061424654 0.0148472600 -0.0022568405
0.0100472476 0.0104792453 -0.0016373321
0.0111409193 0.0148091167 -0.0025067180
-0.0268582385 0.0126605295 0.0015792400
-0.0196045693 0.0137392320 -0.0014186949
0.0243298765 0.0132517405 -0.0004998595
0.0245371386 0.0133037344 0.0005309060
-0.0128583517 0.0150702670 -0.0010620877
0.0050785299 0.0085458905 -0.0004963800
0.0061216783 0.0127951130 -0.0020991042
-0.0108926985 0.0127504691 -0.0009241328
0.0211912021 0.0145894699 0.0019781366
-0.0224376414 0.0143725500 0.0038106069
-0.0068720225 0.0131088831 -0.0013057292
0.0160839427 0.0148029104 -0.0038888827
-0.0297953244 0.0157768354 0.0128604770
0.0189253036 0.0072148107 -0.0006143898
-0.0088282023 0.0148042254 -0.0013182089
0.0150906146 0.0150378086 -0.0019887313
0.0155709200 0.0148839839 -0.0027175546
0.0091700051 0.0140027404 -0.0023906305
-0.0220556054 0.0126570314 0.0002185553
0.0152838267 0.0115312673 -0.0015071929
0.0000449901 0.0127175637 -0.0016680434
-0.0140136201 0.0142587237 -0.0006247982
-0.0178942177 0.0137807727 -0.0014195591
-0.0248547662 0.0124016851 0.0014367327
0.0297792181 0.0153312720 0.0089331791
0.0070768241 0.0138143077 -0.0022365600
0.0214137770 0.0145684369 0.0039771870
-0.0160778780 0.0154093057 0.0003122613
-0.0008751138 0.0150241517 -0.0017883107
-0.0038625265 0.0136862919 -0.0015306175
0.0101014003 0.0077374168 -0.0002062246
-0.0315166973 0.0142164342 0.0126033202
0.0030758621 0.0146719217 -0.0020316243
0.0182291847 0.0048679356 0.0033368617
0.0180719160 0.0127030946 -0.0034272000
0.0280692391 0.0154494010 0.0090229809
-0.0128487479 0.0152799711 -0.0010933280
-0.0266507994 0.0141343623 0.0119629949
-0.0008639956 0.0128330626 -0.0016219169
0.0051742513 0.0128015056 -0.0020416230
0.0081115607 0.0131939203 -0.0022177920
0.0120831113 0.0127926469 -0.0023183078
0.0140864328 0.0127679296 -0.0021715760
0.0141147785 0.0087306742 -0.0010040998
0.0148698520 0.0152547434 -0.0018429682
-0.0058679488 0.0153977945 -0.0014759600
0.0231167283 0.0075414609 -0.0027644113
0.0102133462 0.0149157979 -0.0024973601
0.0217826087 0.0131266825 0.0012180805
-0.0161337983 0.0139217451 -0.0032693744
0.0155701786 0.0151905827 -0.0027175546
0.0161800999 0.0151089095 -0.0038420260
-0.0048861504 0.0153856166 -0.0015306249
-0.0118628237 0.0147424191 -0.0010679588
-0.0248169582 0.0131359249 0.0058617145
-0.0158904884 0.0150728039 0.0001365617
0.0422047712 0.0152374469 0.0184599236
0.0071591958 0.0067768581 0.0006063730
-0.0248613860 0.0087760109 0.0012602583
0.0071111396 0.0147838891 -0.0022944808
-0.0230680946 0.0154592656 0.0049038380
0.0431753062 0.0175973438 0.0305167213
0.0435871258 0.0176658072 0.0314537659
-0.0279580038 0.0147987194 0.0128141493
0.0290931053 0.0154145360 0.0089097461
-0.0196750443 0.0146558844 -0.0014681444
-0.0281360280 0.0135397799 0.0056014210
-0.0138831465 0.0154049397 -0.0011488646
-0.0128415469 0.0154900402 -0.0011183098
0.0140749179 0.0066287648 0.0008030906
0.0150366798 0.0127336234 -0.0018585771
0.0262832716 0.0157291330 0.0092299283
0.0271590725 0.0154205859 0.0091778636
-0.0278031882 0.0117655266 0.0013976991
-0.0258801598 0.0117689744 0.0013201386
-0.0240765307 0.0106526222 0.0012388974
0.0082012098 0.0104797129 -0.0015817285
0.0171295740 0.0117157660 -0.0033124983
-0.0098209176 0.0155521743 -0.0012963563
0.0051647443 0.0059101209 0.0019469112
-0.0157675948 0.0133559369 -0.0041231439
-0.0107831378 0.0149890743 -0.0011818334
-0.0145789916 0.0149321109 -0.0008434430
0.0130996257 0.0154117793 -0.0025863722
0.0061428938 0.0150528327 -0.0022646487
0.0433455333 0.0179602318 0.0317036584
-0.0288858507 0.0159094706 0.0128167644
0.0102029694 0.0084171277 -0.0005467162
0.0171808787 0.0097596664 -0.0028503090
0.0030740534 0.0153955184 -0.0020428821
-0.0240762476 0.0111838505 0.0013117865
-0.0003614521 0.0132592097 -0.0016867965
0.0449753813 0.0185029432 0.0390126929
-0.0149566736 0.0121647343 0.0001170412
0.0011495312 0.0137618743 -0.0018413961
0.0170967244 0.0127299204 -0.0034508929
-0.0164391231 0.0137275755 -0.0030611455
0.0051990189 0.0141341947 -0.0021959320
0.0217828993 0.0134441145 0.0012024641
0.0163079612 0.0153875910 -0.0041647851
0.0091773104 0.0149225332 -0.0024598837
-0.0237555932 0.0140567683 0.0061844811
0.0081311129 0.0155486614 -0.0023927093
0.0438655876 0.0176670291 0.0314537659
0.0183671918 0.0082544908 -0.0016555637
0.0271947403 0.0107043162 -0.0023814961
0.0281136911 0.0110106859 -0.0024051964
-0.0248588789 0.0097623765 0.0012454167
-0.0008768609 0.0155438147 -0.0017961115
-0.0022836367 0.0155624077 -0.0016867965
-0.0048896261 0.0147597156 -0.0015019029
0.0030720939 0.0157060884 -0.0020428747
-0.0225366857 0.0155073702 0.0039980114
-0.0279275160 0.0156891309 0.0127895251
0.0420851856 0.0165986568 0.0219660699
-0.0156958681 0.0070290193 0.0017525554
0.0000896135 0.0147026367 -0.0018367246
0.0051980466 0.0147522911 -0.0022068843
0.0261316150 0.0153519362 0.0093080029
0.0091780638 0.0156397447 -0.0024843365
0.0021195670 0.0148882456 -0.0019757152
-0.0108587015 0.0157100335 -0.0012236983
-0.0159918796 0.0156772509 0.0001467094
-0.0146820601 0.0156816468 -0.0011444390
0.0154009666 0.0131361187 -0.0015930831
0.0071156044 0.0078185089 -0.0001601502
-0.0178470369 0.0071138497 0.0019739643
0.0051938538 0.0155776739 -0.0022084489
-0.0298054237 0.0149620585 0.0127751082
0.0061401669 0.0155682787 -0.0022646636
-0.0017713851 0.0156773329 -0.0017382205
0.0434681512 0.0185816512 0.0325470045
-0.0247692969 0.0114074871 0.0012805536
0.0188672058 0.0154948346 -0.0036780387
-0.0039069187 0.0147477277 -0.0015712157
0.0172379985 0.0107232966 -0.0030732825
0.0102074360 0.0139964074 -0.0024343580
0.0188923851 0.0150152631 -0.0036650226
0.0261753704 0.0120362733 -0.0022833869
-0.0226335544 0.0025510378 0.0043822080
-0.0098579358 0.0137699507 -0.0011433139
-0.0078420881 0.0139543563 -0.0013301894
-0.0068573970 0.0137350522 -0.0013657063
-0.0239461381 0.0151143819 0.0065749213
0.0241131876 0.0125017818 -0.0021605194
0.0396952108 0.0181959867 0.0391064063
0.0051902141 0.0160941295 -0.0022052974
-0.0297643822 0.0142059848 0.0127829239
-0.0088299792 0.0162752233 -0.0013557002
0.0091765001 0.0160505734 -0.0024864152
-0.0108251441 0.0163042806 -0.0012557507
-0.0098205674 0.0162884183 -0.0013197809
-0.0271644983 0.0160060115 0.0127516836
-0.0171544310 0.0116678420 -0.0005757213
0.0041550919 0.0138184987 -0.0020915493
0.0130957868 0.0151073411 -0.0025457740
-0.0038811846 0.0158003643 -0.0016020015
0.0170788541 0.0066256579 -0.0001406446
0.0081231426 0.0140118264 -0.0023052618
0.0120626986 0.0139886327 -0.0024635196
0.0141000338 0.0139911957 -0.0023239926
0.0390320197 0.0179114603 0.0387276784
0.0390791595 0.0193401165 0.0387836471
0.0157661904 0.0162177831 -0.0026550889
0.0171027686 0.0137368031 -0.0035486594
-0.0021713416 0.0145976432 -0.0016828850
-0.0145380441 0.0164477080 -0.0013275892
0.0091755204 0.0162561275 -0.0024864152
0.0159529112 0.0100147426 -0.0011662096
0.0021189020 0.0157158114 -0.0019960105
-0.0108230840 0.0165145397 -0.0012682453
-0.0088420939 0.0139663741 -0.0012557507
0.0081328265 0.0162663981 -0.0024239495
0.0000911520 0.0157391615 -0.0018717051
0.0030700692 0.0160167515 -0.0020428821
0.0051889624 0.0163007006 -0.0022052974
-0.0024944062 0.0163962729 -0.0017180294
-0.0018490741 0.0163883306 -0.0017492697
0.0030693372 0.0163269863 -0.0020491257
0.0111414297 0.0151159614 -0.0025184378
0.0190959666 0.0159214176 -0.0037170872
0.0187911224 0.0160256028 -0.0036858469
-0.0188719127 0.0132069811 -0.0012807399
-0.0278812107 0.0127692670 0.0016286150
-0.0145359803 0.0167644918 -0.0013432056
0.0091745220 0.0164617263 -0.0024864152
-0.0171897653 0.0166268013 -0.0015071854
0.0152017027 0.0152371787 -0.0020772368
0.0141923465 0.0057236403 0.0008399561
-0.0058679488 0.0147702172 -0.0014587715
-0.0248663854 0.0107493233 0.0012477636
0.0131008485 0.0159221627 -0.0026113763
-0.0039110426 0.0165220983 -0.0016086996
-0.0178735051 0.0166691206 -0.0014646798
-0.0008757862 0.0160627030 -0.0018156394
-0.0078325141 0.0147915669 -0.0013806894
0.0390793346 0.0187569968 0.0388044640
0.0161840469 0.0150008388 -0.0036546141
0.0021150222 0.0165446438 -0.0020043552
-0.0153028835 0.0166976452 -0.0048103184
0.0000885834 0.0165696703 -0.0018866956
0.0139962286 0.0071694031 -0.0001062900
0.0281785801 -0.0003406890 -0.0025016442
-0.0039117001 0.0168352835 -0.0016165152
0.0190951694 0.0164273717 -0.0037170872
0.0187904388 0.0164305419 -0.0036858469
0.0157456677 0.0164409615 -0.0024364442
-0.0279294495 0.0132416040 0.0023113117
-0.0179175232 0.0129682571 -0.0013047606
0.0021107604 0.0169600807 -0.0019991472
0.0390881225 0.0199306346 0.0388495848
0.0011545920 0.0166606940 -0.0019429103
-0.0068271141 0.0157930069 -0.0014273971
0.0004244929 0.0129759796 -0.0017284378
0.0131012788 0.0166375265 -0.0026363581
0.0175064337 0.0047951639 0.0033576936
0.0189937204 0.0167312399 -0.0037170872
0.0186889172 0.0167345293 -0.0036858469
0.0140435435 0.0077155624 -0.0005519241
-0.0098284837 0.0148172788 -0.0012541935
-0.0068474356 0.0147805475 -0.0014231578
-0.0029252733 0.0147353560 -0.0016505644
0.0140317902 0.0104651302 -0.0016287863
0.0011490320 0.0171807185 -0.0019366741
0.0120683406 0.0149068311 -0.0025301650
0.0188722312 0.0120002721 -0.0032641739
-0.0008807613 0.0167913288 -0.0018195286
-0.0088256132 0.0157490112 -0.0013525784
-0.0163307879 0.0172891878 -0.0029049665
0.0150422044 0.0158993416 -0.0015118793
0.0081304200 0.0148304068 -0.0023689866
-0.0279570054 0.0140672848 0.0128297657
-0.0078600030 0.0173163004 -0.0013744459
0.0130997458 0.0170476623 -0.0026363432
-0.0178590510 0.0107923411 -0.0005329177
-0.0197502654 0.0158240832 -0.0014479384
-0.0108242575 0.0173578039 -0.0012932345
0.0021074039 0.0171683691 -0.0019913390
0.0102136713 0.0158374682 -0.0025251731
0.0111411242 0.0158327632 -0.0025364161
-0.0189085584 0.0148966461 -0.0014952198
0.0162417237 0.0167593844 -0.0057161376
0.0041205008 0.0147386603 -0.0021270514
0.0140306354 0.0147857182 -0.0024245456
0.0396972150 0.0187819265 0.0391064063
0.0450362824 0.0188270621 0.0394187495
-0.0171263386 0.0097208563 -0.0002321303
0.0208735652 0.0090910625 0.0000936091
0.0141885262 0.0035608280 0.0068091825
0.0000801606 0.0174025819 -0.0018804520
0.0163896084 0.0162137039 -0.0051226690
0.0021057890 0.0173760094 -0.0019913390
0.0188480802 0.0126569979 -0.0033927113
-0.0172615927 0.0104498100 -0.0005310923
0.0155363269 0.0169573724 -0.0024052039
0.0011443326 0.0173897743 -0.0019241795
0.0213771164 0.0141333900 0.0039980188
-0.0068959314 0.0167282857 -0.0014212951
0.0000962017 0.0136853494 -0.0017674789
-0.0058785118 0.0167605989 -0.0014837682
0.0120702172 0.0158265494 -0.0025701448
-0.0306981485 0.0147655047 0.0127542913
0.0129958913 0.0172536261 -0.0026316568
0.0111374762 0.0167565234 -0.0025379732
0.0162411667 0.0169578530 -0.0057161376
-0.0208340045 0.0106246620 0.0017646924
0.0188928302 0.0170342773 -0.0037274957
0.0162547603 0.0168713629 -0.0050289631
0.0162433907 0.0171534009 -0.0057473704
-0.0048985481 0.0174787045 -0.0015556067
-0.0008870980 0.0175207295 -0.0018195435
-0.0088341516 0.0168015771 -0.0013603866
-0.0161151867 0.0144832544 -0.0031548440
0.0151652880 0.0167241581 -0.0009948164
0.0155850686 0.0172165930 -0.0029362068
0.0081333462 0.0159582235 -0.0024176911
-0.0271710623 0.0147893019 0.0127985328
0.0214469805 0.0144268088 0.0052786618
0.0390504226 0.0207684338 0.0388096794
0.0443672687 0.0203176811 0.0300794169
0.0030653642 0.0168452598 -0.0020475462
0.0041296724 0.0167269669 -0.0021340922
0.0130966641 0.0174591690 -0.0026238486
-0.0188541431 0.0157168843 -0.0015036464
0.0438952744 0.0206794925 0.0325157717
0.0181847140 0.0173405223 -0.0037170872
0.0091737919 0.0168723203 -0.0024947524
-0.0278152917 0.0132614039 0.0027954578
0.0163157564 0.0173803456 -0.0054506436
0.0172729809 0.0173455328 -0.0036858469
0.0180800091 0.0137078241 -0.0035671368
0.0120681282 0.0167488195 -0.0025817007
0.0061373133 0.0160839222 -0.0022646487
-0.0162308421 0.0158092193 -0.0030923784
0.0070548858 0.0156986266 -0.0023142323
0.0011581217 0.0146917515 -0.0019004494
0.0135112368 0.0172494948 -0.0026550889
0.0130958511 0.0176644251 -0.0026238486
0.0111338878 0.0174759477 -0.0025353655
0.0415068865 0.0188184455 0.0395020470
-0.0128297340 0.0159104429 -0.0011620522
-0.0118396897 0.0156882890 -0.0011573732
-0.0098198634 0.0159726851 -0.0013119727
-0.0078356322 0.0157361366 -0.0013978705
-0.0098237898 0.0168152303 -0.0013275892
0.0130943079 0.0178703479 -0.0026176050
0.0150782950 0.0174100138 -0.0008590594
0.0164021365 0.0175931230 -0.0053100809
0.0161331631 0.0174601190 -0.0059972554
-0.0049041342 0.0180031322 -0.0015555993
-0.0038293845 0.0176887102 -0.0016230270
-0.0098363627 0.0177656524 -0.0013244674
0.0391879044 0.0216550939 0.0389413163
-0.0068824049 0.0177237429 -0.0014056861
0.0071235485 0.0074198917 0.0005543306
0.0139224529 0.0168380067 -0.0026551038
0.0051758625 0.0176466443 -0.0021834448
0.0111312438 0.0178876705 -0.0025301501
-0.0188439656 0.0168142766 -0.0014462844
-0.0058727432 0.0159220211 -0.0014759600
-0.0048907697 0.0159090981 -0.0015306175
-0.0029490853 0.0157402419 -0.0016626492
-0.0152927283 0.0169000365 -0.0048415512
-0.0170790236 0.0156051889 -0.0015642568
-0.0163479988 0.0166663527 -0.0028425008
-0.0159494448 0.0168947540 -0.0037951693
0.0163879357 0.0178084038 -0.0051539019
-0.0049095154 0.0183185749 -0.0015493631
-0.0038211944 0.0183006711 -0.0016118288
-0.0236435030 0.0154146887 0.0059033632
-0.0016927759 0.0147829391 -0.0017272010
-0.0161403064 0.0165836550 0.0001521781
-0.0155128371 0.0170901828 -0.0014056787
0.0446848869 0.0189332888 0.0370136425
-0.0166507270 0.0080990549 0.0001873150
0.0439746603 0.0187049694 0.0341087654
0.0434496440 0.0202432759 0.0323595926
0.0061221030 0.0177384950 -0.0022381172
0.0397017822 0.0198084973 0.0391142145
0.0415091664 0.0195531212 0.0394968465
-0.0178304818 0.0172235705 -0.0014681444
0.0139214545 0.0158166960 -0.0026155338
0.0153193641 0.0156540833 -0.0020060837
0.0091679040 0.0176964067 -0.0024851859
-0.0049137324 0.0185291804 -0.0015431121
-0.0038252773 0.0185109451 -0.0016055778
-0.0068980288 0.0184628516 -0.0013838187
-0.0059028938 0.0184432305 -0.0014642403
0.0011611336 0.0157263689 -0.0019416735
0.0051653851 0.0181675479 -0.0021490827
0.0428838991 0.0211883821 0.0364826396
0.0443294495 0.0211959518 0.0364826396
-0.0197527874 0.0165766776 -0.0019210577
-0.0188709740 0.0177759677 -0.0014193431
-0.0178656559 0.0177401118 -0.0014599264
-0.0170424413 0.0148921609 -0.0015649721
0.0081195775 0.0177112482 -0.0023927391
0.0061336607 0.0167030990 -0.0022646710
-0.0145433377 0.0178237520 -0.0013619512
0.0070673339 0.0177267268 -0.0022977814
-0.0078889746 0.0185853317 -0.0013327897
-0.0069049243 0.0187799260 -0.0013744459
0.0425826758 0.0211780332 0.0363889411
0.0180404149 0.0166611932 -0.0036858246
-0.0199237857 0.0178794153 -0.0024156198
0.0409736261 0.0209335387 0.0241525397
0.0070775580 0.0166928433 -0.0023202673
0.0145409666 0.0030356199 0.0084334165
0.0091584669 0.0185235180 -0.0024551898
0.0158238523 0.0156592950 -0.0032719895
0.0162494741 0.0158624686 -0.0041677654
-0.0163207632 0.0174957216 -0.0029362068
-0.0159406308 0.0176167153 -0.0038420260
-0.0170180518 0.0088959727 -0.0000982583
0.0436759144 0.0202106871 0.0319847688
0.0000843515 0.0170897879 -0.0018867105
0.0161635429 0.0183184892 -0.0059972554
0.0102051813 0.0176869854 -0.0025264248
0.0434330553 0.0210280903 0.0362796113
0.0180820692 0.0184547901 -0.0037295818
0.0188920237 0.0184499361 -0.0037587285
-0.0179043468 0.0157335959 -0.0015071929
-0.0128124561 0.0167519934 -0.0012345016
-0.0118224602 0.0167399794 -0.0012370124
-0.0108220931 0.0169357695 -0.0012849048
0.0414441898 0.0208957754 0.0277367756
-0.0078494754 0.0166837759 -0.0013853759
-0.0048925579 0.0167453997 -0.0015509203
-0.0037324729 0.0170765929 -0.0016295314
-0.0030616189 0.0167386569 -0.0016784519
-0.0415325612 0.0236113183 0.0348896459
-0.0410772040 0.0236398019 0.0352488533
-0.0108504165 0.0187355764 -0.0012713745
-0.0024917314 0.0160832442 -0.0017180294
0.0435660928 0.0199709907 0.0293297842
0.0436691046 0.0209943615 0.0359047875
0.0139128119 0.0185850486 -0.0026264638
0.0011358426 0.0179115199 -0.0019069910
-0.0173627082 0.0184843540 -0.0015618652
0.0111302454 0.0180933662 -0.0025301501
0.0188914109 0.0187542029 -0.0037587285
0.0213104989 0.0144898109 0.0026861355
0.0444120094 0.0222671852 0.0302980766
0.0081282537 0.0167820454 -0.0024130344
0.0161712766 0.0179147869 -0.0060701370
-0.0409994945 0.0238808431 0.0347542986
-0.0008959828 0.0179397464 -0.0018000230
0.0158392861 0.0165572539 -0.0034672022
0.0159940049 0.0166063383 -0.0040606782
-0.0025905950 0.0169638135 -0.0017180219
-0.0018523580 0.0169094577 -0.0017539337
-0.0163484793 0.0191732310 -0.0029362068
-0.0157196056 0.0185948052 -0.0044042617
0.0439846776 0.0205084272 0.0321721807
-0.0173100140 0.0138160624 -0.0015368685
0.0398491472 0.0218563341 0.0390439406
0.0021804066 0.0179127529 -0.0019744709
-0.0179221798 0.0147202052 -0.0014941767
-0.0397556722 0.0232495181 0.0374821648
-0.0167511757 0.0190154351 -0.0024989098
0.0188916177 0.0189559571 -0.0037691444
-0.0173526425 0.0169989020 -0.0015306175
0.0102102757 0.0167613961 -0.0025301650
0.0397037342 0.0205410309 0.0391064063
-0.0407469347 0.0241824277 0.0348688290
0.0428769961 0.0214706473 0.0364201739
0.0401887000 0.0202001892 0.0182100385
-0.0162478555 0.0194073170 0.0003122613
0.0091435863 0.0193556249 -0.0023927093
0.0022090969 0.0187553242 -0.0019470751
-0.0018621443 0.0177451856 -0.0017461255
-0.0159633439 0.0195888467 -0.0003020391
0.0071513839 0.0193850510 -0.0022490248
0.0000673251 0.0179265179 -0.0018476397
0.0130821792 0.0193146393 -0.0025676265
0.0139061715 0.0193081908 -0.0025926158
-0.0416223928 0.0237757079 0.0336491689
0.0180821382 0.0189601295 -0.0037483051
0.0188911948 0.0191589035 -0.0037691444
0.0394041091 0.0222884826 0.0389814600
0.0396940857 0.0222865939 0.0389502272
0.0061987117 0.0194025300 -0.0021553263
-0.0164448489 0.0107329246 -0.0019444898
-0.0398576036 0.0238698684 0.0376740471
-0.0178518277 0.0195628218 -0.0015097931
0.0180836730 0.0150175057 -0.0036514923
0.0111266924 0.0187111460 -0.0025270432
-0.0406572223 0.0244532339 0.0346710011
-0.0400985554 0.0239506923 0.0366950408
-0.0037844575 0.0061277933 0.0019208714
0.0130934669 0.0180757120 -0.0026176050
-0.0012547674 0.0191037208 -0.0016867965
-0.0088481251 0.0177512653 -0.0013519377
0.0031468810 0.0188197829 -0.0020116270
0.0208867323 0.0100270193 -0.0002655908
0.0001552587 0.0187637135 -0.0018078163
0.0120505868 0.0194257237 -0.0025395229
0.0130805224 0.0195211954 -0.0025613829
-0.0238122549 0.0124914516 0.0016371459
0.0180839654 0.0157241300 -0.0036745816
0.0120554538 0.0187040828 -0.0025501624
0.0188914090 0.0193606950 -0.0037795529
0.0091499155 0.0190428495 -0.0024208203
