# .PCD v0.7 - Point Cloud Data file format
VERSION 0.7
FIELDS x y z
SIZE 4 4 4
TYPE F F F
COUNT 1 1 1
WIDTH 1189
HEIGHT 1
VIEWPOINT 0 0 0 1 0 0 0
POINTS 1189
DATA ascii
-0.0076488312 0.0136074368 -0.0019228210
-0.0066333245 0.0134437699 -0.0019465437
-0.0007013998 0.0144092273 -0.0021914518
-0.0026008433 0.0138161872 -0.0020852587
-0.0276004281 0.0125943851 -0.0022000424
0.0018058789 0.0137767289 -0.0022664196
0.0122599369 0.0141188670 -0.0025017238
0.0280719511 0.0143056978 0.0102784289
-0.0186476465 0.0087780841 -0.0003064101
-0.0186332110 0.0082558822 0.0001058156
-0.0291531216 0.0158714335 0.0158187766
-0.0176265556 0.0124002006 -0.0019181272
-0.0186620299 0.0123180468 -0.0020269281
-0.0536650233 0.0182672422 0.0431808271
-0.0225419868 0.0145460833 0.0033559226
-0.0355523266 0.0168364402 0.0253767539
-0.0349830277 0.0168101620 0.0250956360
-0.0543495752 0.0180641394 0.0398698933
-0.0534811877 0.0177062210 0.0392451920
-0.0276723523 0.0151933935 0.0123573495
-0.0629853457 0.0165945981 0.0413379557
-0.0096105989 0.0147039499 -0.0019727997
-0.0653677955 0.0162391197 0.0428528674
0.0094143422 0.0145363379 -0.0024663187
0.0103884395 0.0142053422 -0.0024833432
-0.0568121858 0.0179317947 0.0371628441
-0.0571409576 0.0179009382 0.0365901925
-0.0246523153 0.0133284722 0.0050894790
-0.0165498760 0.0143704582 -0.0006679049
-0.0171158854 0.0143596139 -0.0021289862
-0.0178693850 0.0145173352 -0.0023024506
0.0063448381 0.0145560447 -0.0023913584
-0.0608303137 0.0181354377 0.0392451920
0.0003325434 0.0133845862 -0.0021527014
-0.0156610850 0.0103759188 0.0003751839
-0.0160456020 0.0108565111 -0.0009545361
-0.0228683744 0.0093461722 0.0011902848
0.0023291984 0.0145840030 -0.0023210770
-0.0252040680 0.0146582779 0.0085409684
-0.0246157255 0.0143496264 0.0072915577
0.0005637219 0.0144823212 -0.0022753454
0.0002338325 0.0141967330 -0.0022231615
0.0014153456 0.0143031273 -0.0022828332
-0.0535466261 0.0176497679 0.0432953574
0.0293235779 0.0111806989 -0.0045321709
0.0113925925 0.0113131534 -0.0020302585
-0.0256577637 0.0113056842 -0.0024238504
-0.0199731160 0.0085350927 -0.0005979290
-0.0194756594 0.0121394154 -0.0020758859
-0.0188543219 0.0048147272 0.0052175396
-0.0298810694 0.0162302274 0.0173492972
-0.0141768027 0.0127118137 -0.0012668868
-0.0136799272 0.0073639993 0.0012340123
-0.0200081710 0.0146052260 -0.0020894161
-0.0194486696 0.0143746715 -0.0023330501
-0.0127110239 0.0122978147 -0.0014329379
0.0265088957 0.0116971154 0.0004354293
0.0216288455 0.0141043421 0.0007633964
-0.0286692511 0.0134653319 0.0070416802
-0.0276634712 0.0131457951 0.0053081238
-0.0066547450 0.0128313024 -0.0018666064
-0.0056201983 0.0126029756 -0.0018871179
-0.0047340523 0.0128146913 -0.0019353231
-0.0415396504 0.0166231301 0.0293436218
0.0002998223 0.0123724025 -0.0020015216
-0.0587208383 0.0173841212 0.0375272520
-0.0670578629 0.0186352860 0.0403852649
-0.0657585934 0.0185702946 0.0397761948
-0.0626741201 0.0171743166 0.0412192531
-0.0628228635 0.0169356745 0.0391202457
-0.0628939196 0.0169126522 0.0386829562
-0.0096082147 0.0149094369 -0.0019853017
-0.0668911263 0.0175472926 0.0432120599
-0.0660773441 0.0171787571 0.0425248928
-0.0638880581 0.0181498695 0.0435868837
-0.0568847992 0.0180954989 0.0350596793
-0.0570599400 0.0180638302 0.0345286764
-0.0106848385 0.0149216931 -0.0019665561
0.0214869492 0.0137151983 0.0003495241
0.0063437652 0.0147588830 -0.0023913584
-0.0158957671 0.0113585312 -0.0005276551
-0.0431671999 0.0181588288 0.0393076576
0.0023278759 0.0147875044 -0.0023210770
-0.0645642057 0.0184640232 0.0384955443
-0.0056729894 0.0134347696 -0.0019774712
0.0393640064 0.0172594395 0.0372660197
-0.0619662069 0.0176517647 0.0410880633
-0.0221706200 0.0129190627 0.0016067500
-0.0264379885 0.0128329750 0.0036058077
-0.0116652939 0.0104120672 -0.0009694895
-0.0056680366 0.0073515810 0.0003278354
-0.0251778904 0.0128567945 0.0044491538
-0.0227134842 0.0122221876 0.0021169283
-0.0142763015 0.0130240526 -0.0012981271
-0.0186806973 0.0143660959 -0.0023210547
-0.0575454421 0.0173326563 0.0369962640
-0.0566878803 0.0176341590 0.0372461267
-0.0616124459 0.0167468134 0.0416815467
-0.0534070320 0.0174938347 0.0374647863
-0.0599288978 0.0166650806 0.0406507738
-0.0582654737 0.0166303720 0.0404789932
0.0114217959 0.0127202440 -0.0022664196
0.0138579514 0.0127121080 -0.0022976524
-0.0640117154 0.0184803288 0.0437742956
-0.0266423170 0.0126880687 -0.0022156588
-0.0257841479 0.0127834845 -0.0022143549
-0.0160058346 0.0090646558 -0.0020633913
-0.0643263236 0.0191136990 0.0436805971
0.0175190214 0.0143987108 -0.0034129224
0.0042875707 0.0137594882 -0.0023226417
-0.0096103791 0.0151158515 -0.0019853017
-0.0427465029 0.0170662124 0.0316550322
-0.0036569035 0.0136212837 -0.0020456812
-0.0637563094 0.0186359752 0.0367151387
-0.0624606349 0.0182834398 0.0363403149
-0.0623654835 0.0185018983 0.0351221450
-0.0165245701 0.0150983650 -0.0006308308
0.0063438788 0.0149612967 -0.0023976020
0.0365689583 0.0161969308 0.0359654911
-0.0006953275 0.0147133116 -0.0022226847
0.0212055463 0.0142215211 -0.0006377226
-0.0444723256 0.0185694788 0.0406195410
-0.0431718118 0.0184589271 0.0393076576
0.0392607786 0.0178562645 0.0372565426
0.0161205381 0.0136407893 -0.0043669841
-0.0258511212 0.0149806160 0.0099153174
0.0023302080 0.0149898808 -0.0023366935
-0.0047085565 0.0144484732 -0.0020589954
-0.0086020771 0.0128507782 -0.0017604133
-0.0535408221 0.0175743159 0.0420563556
0.0152354091 0.0130828042 -0.0019228285
0.0053263307 0.0149651375 -0.0024225912
0.0263261702 0.0094390698 -0.0044653839
0.0273604020 0.0149344113 0.0102979494
-0.0339400060 0.0162084270 0.0200980026
-0.0322888829 0.0162243415 0.0206914712
-0.0622049682 0.0187443737 0.0343412645
-0.0620960407 0.0191404950 0.0401197709
-0.0564326830 0.0186449755 0.0434931852
-0.0195964519 0.0124052744 -0.0024424619
-0.0543771274 0.0186131429 0.0435244180
-0.0536987819 0.0179427247 0.0381519534
0.0158075579 0.0144298542 -0.0036969907
0.0165930670 0.0142914895 -0.0040711141
0.0253426675 0.0094402004 -0.0043866760
-0.0626503304 0.0186289195 0.0415878333
0.0042970460 0.0143647809 -0.0023826188
0.0400595404 0.0173665266 0.0373710729
0.0032620800 0.0143732633 -0.0023451275
-0.0165815447 0.0155054685 -0.0005797123
-0.0170982648 0.0151865501 -0.0021935306
0.0063464046 0.0151627678 -0.0024163402
-0.0654030666 0.0188002046 0.0386829562
-0.0136878435 0.0113430824 -0.0010170167
-0.0431919806 0.0187615659 0.0393388905
0.0023306364 0.0151928272 -0.0023445017
-0.0579513051 0.0168551262 0.0390890129
-0.0580482446 0.0168338995 0.0386829562
-0.0135912057 0.0132873263 -0.0015524676
-0.0086888913 0.0133634824 -0.0018291076
-0.0586492755 0.0163244251 0.0412531830
-0.0290244278 0.0161362942 0.0160998944
-0.0661100969 0.0188498367 0.0392139591
0.0124105848 0.0113104377 -0.0020415015
-0.0216075908 0.0124730375 0.0004198054
-0.0147161502 0.0082996283 0.0010358567
-0.0194212627 0.0151793156 -0.0023562140
-0.0186681729 0.0151941385 -0.0023731417
-0.0176918451 0.0151836928 -0.0023413799
-0.0417343117 0.0190623756 0.0396408327
-0.0406673141 0.0190305579 0.0394221880
-0.0399886630 0.0190145764 0.0393388905
0.0214457102 0.0140591878 0.0000449891
0.0220012609 0.0119368229 -0.0012668868
0.0132747283 0.0144160260 -0.0025381721
-0.0531049855 0.0178844612 0.0421813019
-0.0552197583 0.0192374196 0.0389953144
-0.0548128076 0.0188779738 0.0383081324
0.0053256582 0.0145603213 -0.0024080253
-0.0164582897 0.0157319587 -0.0003532594
-0.0168402325 0.0155724715 -0.0025475300
-0.0639127865 0.0196503680 0.0424311794
0.0032641364 0.0151842516 -0.0023767925
-0.0535868444 0.0175247323 0.0412286259
-0.0533929132 0.0177693758 0.0402759500
0.0363603756 0.0172450077 0.0368088521
-0.0606702827 0.0192587022 0.0378396101
-0.0156819094 0.0123681854 -0.0003495415
-0.0668480396 0.0184211563 0.0371290036
-0.0574576370 0.0189255793 0.0340601392
-0.0660346299 0.0187165644 0.0372305252
0.0023292282 0.0153963920 -0.0023445017
-0.0646498650 0.0194704141 0.0396824814
-0.0648181215 0.0190866720 0.0370691456
0.0254707579 0.0121003371 0.0001699353
-0.0584765337 0.0168327969 0.0385424085
0.0073578097 0.0135418791 -0.0023226268
0.0152669996 0.0104192514 -0.0014014443
-0.0578509085 0.0170650836 0.0410255976
-0.0156781208 0.0112154111 -0.0000303363
-0.0140032601 0.0150381532 -0.0022976524
-0.0259221587 0.0129093807 0.0054799193
-0.0192177985 0.0156163629 -0.0023913584
-0.0186658185 0.0156087261 -0.0023913584
-0.0176893231 0.0155977886 -0.0023601255
-0.0417591743 0.0193663482 0.0396824963
-0.0407017283 0.0193354841 0.0394846536
-0.0400227271 0.0193191189 0.0394013710
-0.0612899400 0.0186656062 0.0334666707
-0.0225663539 0.0151771810 0.0028873929
0.0183757693 0.0134468246 -0.0033921353
0.0190706290 0.0135484990 -0.0033440269
0.0053239316 0.0153711271 -0.0024226061
-0.0165703278 0.0157087725 -0.0034221238
0.0032590830 0.0155918505 -0.0023663691
-0.0036492797 0.0144377518 -0.0020927317
-0.0639214367 0.0190737117 0.0364183970
-0.0626222715 0.0190950241 0.0349659659
-0.0161891673 0.0159105156 -0.0007358914
0.0365251191 0.0174620245 0.0365121104
-0.0008157215 0.0152969453 -0.0022329367
-0.0004120807 0.0153884869 -0.0022664196
-0.0611948557 0.0189482886 0.0333105065
-0.0667610690 0.0186809953 0.0364652611
-0.0660158172 0.0196848046 0.0379645415
-0.0645779446 0.0196513552 0.0379333086
-0.0433916710 0.0191752519 0.0392077155
0.0392638482 0.0184291545 0.0372669585
0.0273583513 0.0133340713 0.0102604879
-0.0650336370 0.0199105572 0.0413691886
-0.0538028367 0.0179001819 0.0374647863
0.0364997275 0.0180951040 0.0367463715
-0.0318548083 -0.0096177198 0.0433604307
-0.0161231402 0.0156619418 -0.0039531193
-0.0066370647 0.0083186533 -0.0002048960
-0.0199750680 0.0150170159 -0.0021727136
-0.0193315875 0.0158261601 -0.0023913584
-0.0186582264 0.0158148315 -0.0024147830
-0.0176702496 0.0158014763 -0.0024101040
-0.0655096024 0.0193956550 0.0320454724
-0.0156260300 0.0125616696 -0.0002257129
0.0052994899 0.0072374623 -0.0001018097
-0.0047192778 0.0134266447 -0.0019977740
-0.0627862066 0.0180371162 0.0371211953
-0.0016643892 0.0134018417 -0.0020664907
-0.0595639907 0.0185676422 0.0369181670
0.0013532524 0.0135640297 -0.0022195554
-0.0574104898 0.0185530912 0.0372929908
0.0132757369 0.0153221991 -0.0025712675
-0.0156325027 0.0092591569 -0.0029457784
-0.0326324701 0.0159536395 0.0163810123
-0.0557173155 0.0198739599 0.0392451920
-0.0165596399 0.0159115065 -0.0034533567
-0.0443368517 0.0188504327 0.0403384306
-0.0228084754 0.0103528071 0.0012128527
0.0399444513 0.0179639589 0.0373919047
-0.0161789116 0.0161186438 -0.0007671242
-0.0536037348 0.0181994867 0.0421500690
-0.0007527380 0.0158361923 -0.0022351793
-0.0004847872 0.0158314649 -0.0022664196
-0.0076864902 0.0143757518 -0.0019884086
-0.0157668907 0.0134023931 -0.0003235688
-0.0667766705 0.0193496589 0.0360904373
-0.0660430267 0.0198050756 0.0396200158
-0.0645559579 0.0197664704 0.0395263024
-0.0663262233 0.0193700548 0.0334822871
0.0154948533 0.0142818633 -0.0029410995
-0.0573928468 0.0171721298 0.0381519683
-0.0286213104 0.0013440270 -0.0024647764
-0.0126641188 0.0143295284 -0.0018378546
-0.0116788056 0.0143172722 -0.0018759569
-0.0573178120 0.0177826714 0.0346848555
-0.0571965836 0.0176714342 0.0353095569
-0.0576487072 0.0175935496 0.0363246985
-0.0202143472 0.0103560053 -0.0010716742
-0.0144321602 0.0147684123 -0.0017666569
-0.0126402210 0.0133224521 -0.0016610374
-0.0193131696 0.0160304587 -0.0024382151
-0.0186471846 0.0160202142 -0.0024460233
-0.0176677648 0.0160081815 -0.0024225987
-0.0416156314 0.0199665707 0.0396980979
-0.0407262780 0.0199381318 0.0395158865
-0.0400322713 0.0199182648 0.0394013710
-0.0541874804 0.0184922423 0.0372461416
-0.0538870953 0.0187100563 0.0361529030
-0.0668147430 0.0198669787 0.0402447172
0.0083755869 0.0133358371 -0.0023076138
0.0113743879 0.0135068912 -0.0023913658
0.0123042781 0.0133443978 -0.0023998967
-0.0530630015 0.0177838001 0.0405883081
0.0153528750 0.0134167727 -0.0025296859
0.0141822249 0.0153209288 -0.0025491095
0.0183739327 0.0144456383 -0.0033896393
0.0190714356 0.0144452509 -0.0033783815
-0.0547088645 0.0175892804 0.0420095213
-0.0116341058 0.0132729243 -0.0017302086
-0.0650994554 0.0197828766 0.0314363874
-0.0176652428 0.0162148755 -0.0024350858
-0.0146269072 0.0122503024 -0.0008549740
0.0033541934 0.0159999672 -0.0023445017
-0.0036482012 0.0153578203 -0.0021227202
-0.0570100434 0.0176856164 0.0363819636
-0.0625528470 0.0164780673 0.0392608084
0.0366478004 0.0186565537 0.0384486951
-0.0007544553 0.0160405766 -0.0022351793
0.0023805720 0.0157140065 -0.0023288853
-0.0056606811 0.0143549535 -0.0020399517
-0.0508799218 0.0194319393 0.0427123047
0.0155938473 0.0151162874 -0.0025319136
0.0385295115 0.0184125211 0.0370847620
0.0024242119 0.0160079133 -0.0023288853
-0.0047062077 0.0153694022 -0.0020930446
-0.0649048537 0.0193043780 0.0361763276
-0.0157361235 0.0158682447 -0.0038594133
-0.0670133233 0.0186079685 0.0352783240
0.0014146098 0.0067976508 0.0007071743
-0.0136009436 0.0144113246 -0.0018529942
-0.0193020385 0.0162359681 -0.0024694479
-0.0186362024 0.0162255112 -0.0024772561
-0.0417439453 0.0202629026 0.0396200158
-0.0406966098 0.0202317145 0.0394430198
-0.0400077589 0.0202123355 0.0393388905
-0.0492332764 0.0166341085 0.0428684838
-0.0194768477 0.0133836549 -0.0023192740
-0.0188022237 0.0136423949 -0.0022768280
0.0042861272 0.0160921756 -0.0023819855
-0.0568022169 0.0177894291 0.0349347331
-0.0186323728 0.0164321158 -0.0024928725
-0.0116547961 0.0093477890 -0.0005612572
0.0164147709 0.0153219122 -0.0045691407
0.0273598302 0.0143629815 0.0102921156
0.0033510046 0.0162042323 -0.0023366935
-0.0025787337 0.0154322069 -0.0021466664
-0.0641310588 0.0201380085 0.0325296260
0.0372549370 0.0186659154 0.0404008962
-0.0007583185 0.0162456911 -0.0022273711
-0.0004873557 0.0161379036 -0.0022664196
-0.0651435032 0.0205631386 0.0376834311
0.0385340229 0.0192711223 0.0371003784
0.0392279439 0.0192493554 0.0372383334
0.0094164386 0.0147373509 -0.0024850643
-0.0106895473 0.0147163700 -0.0019478177
-0.0294805858 0.0113819521 -0.0023402474
-0.0157758165 0.0152857993 -0.0003631463
-0.0144811515 0.0154596101 -0.0019884310
-0.0136172716 0.0153855067 -0.0020979918
-0.0192909744 0.0164413843 -0.0025006807
-0.0417038389 0.0205549989 0.0395263024
-0.0406967215 0.0205307882 0.0394326039
-0.0650276914 0.0208514314 0.0374960192
-0.0647707283 0.0204966124 0.0361654051
-0.0646787062 0.0203606095 0.0352262594
-0.0646916255 0.0200025197 0.0334901102
-0.0647238865 0.0203422289 0.0321235545
-0.0559203364 0.0186717305 0.0416971631
-0.0546686463 0.0181822162 0.0416190661
0.0122638233 0.0146208536 -0.0025444007
0.0175706111 0.0154500064 -0.0033492274
0.0103361486 0.0147306565 -0.0025241128
-0.0267025251 0.0113159474 -0.0023960671
-0.0638449639 0.0203521196 0.0315925665
0.0365357138 0.0191185381 0.0388079025
-0.0007094091 0.0164501499 -0.0022226847
-0.0159466993 0.0143125113 -0.0003142109
-0.0581805445 0.0175882932 0.0360904373
-0.0581569932 0.0184075590 0.0349347331
-0.0572012551 0.0184137020 0.0363949724
-0.0047088191 0.0161892939 -0.0021102256
-0.0546785034 0.0175310764 0.0410568304
-0.0193832945 0.0166470017 -0.0025475374
-0.0186286140 0.0166387018 -0.0025084889
-0.0416738875 0.0208487231 0.0394534208
-0.0407019071 0.0208308753 0.0394326039
-0.0621363632 0.0166193228 0.0391514935
-0.0648499951 0.0211297851 0.0372149087
-0.0277678948 0.0132230241 0.0069792070
-0.0658408552 0.0201707240 0.0333807804
-0.0638104603 0.0205967296 0.0322068669
-0.0185395237 0.0132330153 -0.0022055707
-0.0644803494 0.0209673475 0.0353407897
-0.0036589915 0.0162814166 -0.0021152250
0.0122651104 0.0153256413 -0.0025737709
-0.0554025955 0.0182384904 0.0423062481
-0.0568561889 0.0183872189 0.0364756621
-0.0096051823 0.0155266467 -0.0020123622
-0.0637467876 0.0206306782 0.0314363874
0.0366126336 0.0194132272 0.0380114056
0.0367246978 0.0193113666 0.0376521982
-0.0155265536 0.0144609567 -0.0002316585
-0.0106790084 0.0154360551 -0.0019977815
-0.0570531748 0.0186530743 0.0344974287
-0.0076796170 0.0152989868 -0.0020352579
-0.0168283079 0.0165002588 -0.0026060916
-0.0296039898 0.0151727442 0.0120504824
-0.0340702944 0.0164096709 0.0232215244
-0.0331086330 0.0163070653 0.0218159351
-0.0424738936 0.0199888516 0.0398074277
-0.0416031443 0.0196645278 0.0396824814
-0.0656383559 0.0194693450 0.0350909121
-0.0650601760 0.0195296686 0.0352720805
-0.0570202358 0.0207153019 0.0309053827
-0.0163310189 0.0166709963 -0.0000695413
-0.0415311716 0.0211490151 0.0394794531
-0.0408821218 0.0211367141 0.0394638367
-0.0066212509 0.0143652130 -0.0020071543
-0.0575195439 0.0203273166 0.0331230797
-0.0567217506 0.0203626920 0.0331751443
-0.0025947469 0.0144276153 -0.0021227202
-0.0016479066 0.0144186039 -0.0021523884
-0.0668368042 0.0186621938 0.0408694185
0.0009707303 0.0139873642 -0.0022351793
-0.0546549223 0.0190951657 0.0371680446
-0.0126100574 0.0153534692 -0.0020065210
-0.0269810427 0.0129066538 0.0051675686
-0.0116498526 0.0153444689 -0.0019821576
-0.0181630459 0.0139494818 -0.0022351793
-0.0557291694 0.0195717718 0.0392764248
0.0175680183 0.0163515899 -0.0033414192
0.0183691420 0.0163471159 -0.0033721304
0.0280444119 0.0149345230 0.0102901412
-0.0196902324 0.0093956068 -0.0006782239
0.0112521388 0.0153301004 -0.0025675199
-0.0640735775 0.0213608090 0.0365589596
-0.0637345240 0.0209004115 0.0311552752
-0.0639486909 0.0208695289 0.0307179708
-0.0175003801 0.0142082740 -0.0022039465
-0.0010298400 0.0168638285 -0.0022039465
-0.0056604426 0.0163024720 -0.0020992956
0.0165340789 0.0161892008 -0.0047496161
0.0163227506 0.0163679291 -0.0057439334
0.0094183283 0.0153422821 -0.0025138012
-0.0667435899 0.0191405546 0.0343516804
-0.0194792654 0.0168532711 -0.0025865859
0.0073636286 0.0143493135 -0.0023751236
0.0083851963 0.0143436473 -0.0023888699
0.0112831751 0.0143500026 -0.0025108731
0.0141837951 0.0146147218 -0.0025436259
-0.0636213124 0.0214060154 0.0345521010
-0.0646224022 0.0210102331 0.0304446686
0.0175674334 0.0168517623 -0.0033492348
-0.0202049036 0.0094093811 -0.0010794749
0.0103375725 0.0153352898 -0.0025506741
-0.0026209282 0.0169899147 -0.0021102480
-0.0625987947 0.0214343313 0.0343100317
-0.0634928420 0.0211164635 0.0320532806
-0.0636714026 0.0212041717 0.0313010402
-0.0638810694 0.0211294573 0.0303587783
-0.0007232747 0.0170668866 -0.0021914518
-0.0156814884 0.0151815321 -0.0002298852
-0.0151255336 0.0150641557 -0.0006109526
-0.0066194590 0.0163147580 -0.0020714975
-0.0047159884 0.0167034511 -0.0021039969
-0.0569833778 0.0193754565 0.0426185913
-0.0086448807 0.0153106060 -0.0020087115
-0.0427157395 0.0185109358 0.0396083035
-0.0416296013 0.0185387265 0.0395352282
-0.0407060571 0.0186088514 0.0393826254
-0.0125948172 0.0163833369 -0.0020789853
-0.0116494130 0.0163767990 -0.0020165197
-0.0569808297 0.0194363426 0.0344419070
-0.0106831286 0.0163650867 -0.0020165197
-0.0484613068 0.0168843549 0.0420251228
0.0122619187 0.0163357165 -0.0025800145
-0.0158820581 0.0158102345 -0.0019853017
0.0175669435 0.0170521941 -0.0033492348
0.0183672495 0.0170487408 -0.0033659018
-0.0036742745 0.0171048548 -0.0020914949
-0.0636341870 0.0214253124 0.0304837096
-0.0636708364 0.0213448536 0.0295466650
0.0132728266 0.0163319167 -0.0025775186
0.0063440911 0.0155686196 -0.0024163551
-0.0437529050 0.0186540131 0.0398230441
-0.0096083339 0.0163512696 -0.0020302585
-0.0086432192 0.0163389202 -0.0020461953
-0.0405616574 0.0168052185 0.0280317534
-0.0549827926 0.0184496250 0.0393909551
0.0042607989 0.0171177927 -0.0022976524
-0.0571269803 0.0210206714 0.0310615618
-0.0163102318 0.0174260829 0.0001386876
-0.0161031354 0.0172471311 0.0000762219
0.0249649398 0.0141758006 0.0090719713
-0.0552377962 0.0220624115 0.0366214402
-0.0650261864 0.0195975583 0.0413691886
-0.0576408543 0.0195199307 0.0340636261
-0.0117003825 0.0087519940 -0.0002736127
0.0122591024 0.0171444174 -0.0025850213
0.0175664444 0.0172526743 -0.0033492348
0.0183672644 0.0172485355 -0.0033721454
-0.0570599474 0.0203831363 0.0415253676
-0.0036823323 0.0175170470 -0.0020790077
-0.0400421731 0.0196213257 0.0394326039
0.0381417461 0.0161931124 0.0366006233
-0.0668466464 0.0185492318 0.0391202457
-0.0571458526 0.0201320183 0.0422750153
0.0094119012 0.0163556021 -0.0025050542
-0.0619933195 0.0182622615 0.0361529030
-0.0643908754 0.0202732589 0.0341928937
-0.0642104372 0.0212488938 0.0351846106
-0.0570428111 0.0184984487 0.0351221450
-0.0195879322 0.0173394512 -0.0027772165
-0.0646310896 0.0204892363 0.0312281568
-0.0195452999 0.0130007956 -0.0020894161
-0.0557444207 0.0230056066 0.0433370061
-0.0630172640 0.0216957834 0.0320845135
-0.0631121770 0.0216310229 0.0329981484
-0.0202892479 0.0081490725 -0.0006421854
0.0103333760 0.0163466912 -0.0025537959
-0.0107007455 0.0174011607 -0.0020052693
-0.0096257497 0.0173860844 -0.0020177639
-0.0531446822 0.0178321060 0.0413379557
-0.0427652784 0.0193440896 0.0396824963
0.0175659377 0.0174532030 -0.0033492348
0.0033591164 0.0157951284 -0.0023601181
-0.0632155165 0.0220073368 0.0305930395
0.0132693816 0.0172418896 -0.0025787852
-0.0160205755 0.0161072109 -0.0004391571
-0.0158188585 0.0160051342 -0.0021414733
-0.0668065101 0.0184166338 0.0382612832
-0.0577587299 0.0204173978 0.0431183465
-0.0573524795 0.0184003469 0.0341788419
-0.0196389798 0.0178576019 -0.0029952428
-0.0595596023 0.0213715937 0.0320298709
-0.0066162031 0.0152876917 -0.0020489967
-0.0056581236 0.0152768213 -0.0020742989
-0.0016469231 0.0154385883 -0.0021851859
-0.0597435646 0.0163829681 0.0412130095
-0.0652435645 0.0195865501 0.0411505438
-0.0201566014 0.0108778179 -0.0012044212
0.0113446061 0.0173527058 -0.0025694123
-0.0554615743 0.0172812399 0.0418377109
-0.0565514006 0.0207790975 0.0324734040
-0.0560624488 0.0202800613 0.0294061024
-0.0557001196 0.0204648506 0.0283128638
-0.0135930572 0.0084819123 0.0004224057
0.0104261087 0.0173612442 -0.0025300435
-0.0036961234 0.0179315377 -0.0020477674
-0.0633600056 0.0221383180 0.0288126338
0.0132672703 0.0177478697 -0.0025787703
0.0063352995 0.0163826104 -0.0023963652
-0.0159947667 0.0164824780 -0.0001580393
-0.0265072342 0.0154290702 0.0113052903
0.0165862963 0.0172202494 -0.0047066710
0.0163349919 0.0171461422 -0.0060458756
-0.0268846359 0.0132232774 0.0071900436
-0.0163433887 0.0181687418 0.0002167845
0.0165846050 0.0167293604 -0.0046715266
-0.0606066845 0.0223611277 0.0304680932
-0.0589450262 0.0219320413 0.0310147125
-0.0571977012 0.0220674593 0.0313895233
-0.0566718988 0.0222748760 0.0315057971
-0.0560862757 0.0224794205 0.0314363874
-0.0418610387 0.0181830246 0.0399323739
0.0163233690 0.0166908931 -0.0061161569
0.0370926000 0.0193885807 0.0385580100
-0.0203715432 0.0125382263 -0.0017354166
-0.0305916797 0.0160481911 0.0182863567
0.0113406889 0.0179611202 -0.0025631539
0.0033410338 0.0166144539 -0.0023054606
-0.0107170548 0.0181281660 -0.0019884384
-0.0566445701 0.0213493872 0.0319611318
-0.0156896394 0.0161858331 -0.0024538315
-0.0580330156 0.0214199964 0.0425561257
-0.0176734310 0.0166309234 -0.0024309359
-0.0077182259 0.0180853736 -0.0020165420
0.0003552248 0.0154143739 -0.0022963709
-0.0055920649 0.0180564318 -0.0020446531
-0.0662830099 0.0197583232 0.0389016010
-0.0136007229 0.0163614471 -0.0021713353
-0.0546193682 0.0200169403 0.0266261641
0.0093985861 0.0173741039 -0.0024563349
-0.0046464540 0.0180463064 -0.0020360625
-0.0036984480 0.0181372929 -0.0020477674
-0.0187177006 0.0180871915 -0.0026100106
-0.0176867452 0.0180847105 -0.0024559177
-0.0634293407 0.0217486750 0.0342475660
-0.0164372753 0.0185782816 0.0005603681
-0.0584017895 0.0223671440 0.0296403635
-0.0591271259 0.0224689487 0.0304993261
-0.0572455861 0.0222908091 0.0306711216
-0.0565241762 0.0227452945 0.0310719777
-0.0560167693 0.0227556508 0.0313114412
-0.0161472466 0.0179996956 0.0001543114
-0.0594292469 0.0174313765 0.0381207354
-0.0660381243 0.0201464910 0.0379801579
-0.0571800657 0.0224610809 0.0280005056
-0.0568544157 0.0224522110 0.0280005056
-0.0618450679 0.0216122027 0.0331543274
-0.0552276261 0.0217198413 0.0430871285
-0.0407213829 0.0196380746 0.0395158865
-0.0557472222 0.0223812442 0.0433682539
0.0253599901 0.0119377822 -0.0012356540
0.0113396402 0.0181638394 -0.0025631539
-0.0107227582 0.0184395928 -0.0019853017
-0.0560982935 0.0215173420 0.0320298560
-0.0612382703 0.0203634184 0.0343724973
-0.0086580273 0.0142844524 -0.0019415518
-0.0314149410 0.0161329266 0.0194420610
-0.0307152290 0.0156507362 0.0120393140
-0.0096463617 0.0182167273 -0.0019915453
0.0132667338 0.0180509593 -0.0025850064
0.0063213892 0.0174027551 -0.0023588738
-0.0077265333 0.0183967259 -0.0020040399
-0.0150572304 0.0173655543 -0.0019228285
0.0165699404 0.0179296229 -0.0045465878
0.0162219666 0.0144284647 -0.0044138483
-0.0634003431 0.0216061529 0.0312864520
-0.0140132960 0.0174913872 -0.0022664196
-0.0654333904 0.0190862510 0.0361424871
-0.0126047302 0.0174188595 -0.0020902283
-0.0626995564 0.0219291355 0.0331387110
-0.0198513959 0.0182912070 -0.0036173440
-0.0126174446 0.0182489958 -0.0020894087
-0.0555805601 0.0241596829 0.0423895456
-0.0611944161 0.0218016524 0.0321548022
-0.0554365776 0.0234739836 0.0433838554
0.0113385748 0.0183666106 -0.0025631539
0.0183709953 0.0154464748 -0.0033733970
0.0253425650 0.0083568990 -0.0043873019
-0.0026274363 0.0163481366 -0.0021355129
0.0042716246 0.0166054536 -0.0023309565
-0.0096544903 0.0186317470 -0.0019853017
-0.0640815049 0.0208452437 0.0339664407
-0.0170436744 0.0173754338 -0.0021414808
0.0052925963 0.0174123105 -0.0023351139
-0.0548907258 0.0220720004 0.0351924188
-0.0006337708 0.0167306270 -0.0022234670
-0.0608513914 0.0205605011 0.0341616459
-0.0144254100 0.0173374470 -0.0023132688
-0.0583812259 0.0195436571 0.0341746695
-0.0623251610 0.0236590933 0.0327482708
-0.0666996390 0.0202765372 0.0395106860
-0.0660937876 0.0186712127 0.0365277268
-0.0575449504 0.0230431575 0.0280317534
-0.0619178601 0.0220961403 0.0319517739
-0.0479672812 0.0165191200 0.0410880633
-0.0549028106 0.0229044948 0.0424624272
-0.0649712533 0.0206033569 0.0307179708
-0.0156845693 0.0186195541 -0.0009857764
-0.0154898483 0.0186704639 -0.0018082982
-0.0066755954 0.0073994193 0.0004076535
0.0113374926 0.0185694303 -0.0025631539
0.0043547042 0.0176290143 -0.0022742278
0.0263257734 0.0083565600 -0.0044768355
-0.0016578103 0.0163603779 -0.0021746508
0.0093867974 0.0182921607 -0.0024163700
-0.0627149791 0.0223817807 0.0291437078
-0.0170641895 0.0189386364 -0.0021570898
-0.0624443702 0.0232571978 0.0311552752
-0.0620421432 0.0236503985 0.0312958248
-0.0196607355 0.0184271354 -0.0048381216
-0.0568445660 0.0192938875 0.0352262594
-0.0613279901 0.0187727716 0.0394638367
-0.0126280207 0.0186655130 -0.0020790002
-0.0116805527 0.0183474701 -0.0020067669
-0.0056571886 0.0093657468 -0.0008894851
-0.0556399189 0.0234397780 0.0296247471
-0.0000866896 0.0168525483 -0.0022351793
-0.0652510300 0.0198992249 0.0411505438
-0.0551764630 0.0212045033 0.0371211953
-0.0551139675 0.0208946783 0.0370274968
-0.0196402837 0.0103514288 -0.0011029219
-0.0194288287 0.0183280017 -0.0029598451
-0.0548359789 0.0244417991 0.0422750153
0.0191371627 0.0163992066 -0.0033764518
0.0045206174 0.0181044620 -0.0022664196
-0.0555575900 0.0196554270 0.0384018458
-0.0026332999 0.0175055470 -0.0020852513
-0.0628489777 0.0217255708 0.0341538526
-0.0506118573 0.0204148721 0.0434445925
-0.0195040982 0.0177495684 -0.0051400638
-0.0197616275 0.0177201983 -0.0056353561
0.0183685571 0.0168471877 -0.0033783889
0.0034601965 0.0178032275 -0.0022351793
0.0033730192 0.0173651334 -0.0022698692
-0.0106333997 0.0190632697 -0.0019618697
-0.0565943383 0.0219404530 0.0317487456
-0.0570242815 0.0227082539 0.0305617917
-0.0640975088 0.0208500158 0.0304368604
0.0050155725 0.0187707078 -0.0022351793
-0.0096717980 0.0190499779 -0.0019540614
-0.0134788509 0.0183797870 -0.0021871231
0.0093816714 0.0188018251 -0.0024038530
0.0021811666 0.0178548004 -0.0022351793
-0.0170613136 0.0191456880 -0.0021727062
-0.0623498745 0.0234647747 0.0322797485
-0.0199402329 0.0190463085 -0.0035783029
-0.0573505126 0.0232898202 0.0277193952
-0.0187198352 0.0190204550 -0.0026443577
-0.0126391854 0.0189790409 -0.0020633913
-0.0116374139 0.0189831983 -0.0019887812
-0.0421311669 0.0196799766 0.0397761948
-0.0557313375 0.0250906553 0.0423062332
-0.0549151041 0.0251448508 0.0429934151
-0.0557923578 0.0237277020 0.0295935143
-0.0187287014 0.0101462230 -0.0011697238
0.0141801108 0.0163301360 -0.0025600470
-0.0203618463 0.0176906306 -0.0056960410
-0.0198377687 0.0187069457 -0.0036407686
-0.0547881611 0.0244916920 0.0412806906
-0.0196226779 0.0182342175 -0.0060826293
0.0042600241 0.0189984757 -0.0022039465
-0.0559479557 0.0231408980 0.0301323105
0.0113319783 0.0189779494 -0.0025397292
0.0034139825 0.0183552746 -0.0022335923
-0.0106366333 0.0192709323 -0.0019618697
-0.0636109263 0.0212203879 0.0332480259
-0.0170256179 0.0184525233 -0.0021414659
-0.0168527309 0.0181995947 -0.0026501617
-0.0659022182 0.0207124781 0.0393701382
-0.0156605672 0.0096618515 -0.0033908910
0.0014119574 0.0173521731 -0.0022746152
-0.0135154892 0.0173993092 -0.0022022850
-0.0628499761 0.0223093461 0.0302910823
-0.0139694344 0.0183107536 -0.0022664196
-0.0624536462 0.0233794246 0.0291205216
-0.0146987457 0.0162928682 -0.0021102480
-0.0195093285 0.0190912168 -0.0030889413
-0.0585663207 0.0233876798 0.0292499233
-0.0591404699 0.0232854132 0.0299683232
-0.0566256233 0.0232548509 0.0300481487
-0.0126479799 0.0192920323 -0.0020540110
-0.0115980562 0.0192838069 -0.0019790507
-0.0557341389 0.0255354997 0.0435088016
-0.0186319966 0.0168467294 -0.0025084889
-0.0197933447 0.0193864089 -0.0035939119
-0.0258956458 0.0129155163 0.0006696904
0.0044291262 0.0192696396 -0.0022039465
-0.0561187454 0.0201939475 0.0393388905
-0.0026553667 0.0183324944 -0.0020390130
-0.0170673113 0.0194590781 -0.0021727062
-0.0619889461 0.0218839627 0.0328419693
-0.0153272208 0.0191209372 -0.0024975589
-0.0628966689 0.0225151759 0.0283675212
-0.0584726818 0.0229468998 0.0420563556
-0.0204442274 0.0181084555 -0.0027037091
-0.0423748530 0.0181943867 0.0399948247
-0.0036864302 0.0177232716 -0.0020727641
-0.0634215474 0.0217168387 0.0289219487
-0.0177068729 0.0186080616 -0.0024319566
-0.0634607673 0.0216887724 0.0302182008
-0.0630760193 0.0217841025 0.0314051546
-0.0656469911 0.0211379062 0.0389640816
-0.0661032647 0.0200116988 0.0341538526
0.0093761850 0.0191095788 -0.0023819855
0.0013039110 0.0177091938 -0.0022351793
-0.0574151389 0.0204663184 0.0322931148
-0.0624915622 0.0234605055 0.0301557351
-0.0626402646 0.0241987091 0.0284794588
-0.0604275353 0.0240354221 0.0298589934
-0.0599684902 0.0242891964 0.0296559799
-0.0577129982 0.0200985949 0.0338883586
-0.0567976646 0.0200901199 0.0340289064
-0.0545629300 0.0207110588 0.0349763669
-0.0126539115 0.0195008088 -0.0020477674
-0.0116037820 0.0194924753 -0.0019728071
-0.0548291318 0.0250275861 0.0419314094
-0.0116777997 0.0123669561 -0.0015464401
0.0259748362 0.0117478315 -0.0008920705
-0.0016008730 0.0183176678 -0.0020727417
-0.0557370000 0.0240767431 0.0291249920
-0.0626269802 0.0220286641 0.0320819058
-0.0558255576 0.0236109961 0.0258452836
-0.0554600619 0.0232384633 0.0255953986
0.0034025812 0.0191752482 -0.0022148541
-0.0170734357 0.0197725948 -0.0021727062
0.0112493793 0.0163402166 -0.0025787628
-0.0566385947 0.0237566512 0.0296403635
0.0183662381 0.0176496934 -0.0033700443
0.0044260081 0.0194749217 -0.0021977029
0.0191655774 0.0174475666 -0.0033700443
-0.0626818985 0.0224202480 0.0313530900
0.0024279503 0.0173850376 -0.0022706515
-0.0126623409 0.0197104421 -0.0020352728
-0.0597661696 0.0224959720 0.0301646758
-0.0573207699 0.0231837537 0.0383706130
0.0013182384 0.0183288660 -0.0022209636
-0.0616038628 0.0250172596 0.0318424590
-0.0210436042 0.0198728200 -0.0019853017
-0.0047307312 0.0173228662 -0.0020777411
-0.0581668280 0.0239595752 0.0284378100
-0.0579771064 0.0243483242 0.0281254519
-0.0564488955 0.0242591258 0.0282905418
-0.0563625731 0.0239602160 0.0289375652
-0.0618065409 0.0233298596 0.0320663042
0.0003569329 0.0148033928 -0.0022851578
-0.0066352207 0.0173459481 -0.0020590029
-0.0056801233 0.0173337888 -0.0020727492
-0.0016787092 0.0172865819 -0.0021305284
0.0113330949 0.0187749732 -0.0025397292
-0.0193977263 0.0199431833 -0.0028911284
-0.0187049787 0.0199777093 -0.0024772561
-0.0649764761 0.0196977425 0.0343100317
0.0191645715 0.0184485149 -0.0033867038
-0.0026851187 0.0193689708 -0.0019765398
0.0053214487 0.0157772470 -0.0024225912
-0.0169949364 0.0199874695 -0.0021102405
-0.0559081845 0.0240351465 0.0262825731
-0.0559980236 0.0240083989 0.0255953986
-0.0144889075 0.0164787043 -0.0023601255
-0.0140376482 0.0166970622 -0.0022664196
-0.0203244258 0.0194784161 -0.0034845895
-0.0106610525 0.0198991504 -0.0019228285
-0.0037118627 0.0185522195 -0.0020186133
0.0042970758 0.0153783280 -0.0024113557
0.0183652639 0.0184507351 -0.0033833883
-0.0056099538 0.0185759868 -0.0020081974
-0.0152603891 0.0196921360 -0.0025787703
0.0083893491 0.0153528806 -0.0024413369
0.0023830493 0.0183640849 -0.0022351569
-0.0177291501 0.0199626628 -0.0024413369
-0.0006537794 0.0193563458 -0.0020551882
-0.0556497760 0.0264902096 0.0436181165
-0.0579719059 0.0247727837 0.0280942190
-0.0564332791 0.0247416068 0.0282399822
-0.0007332510 0.0174787473 -0.0021685339
0.0002298390 0.0174003076 -0.0022254041
0.0152144395 0.0141601060 -0.0017354166
0.0164016280 0.0187527444 -0.0059834099
0.0183631014 0.0193542261 -0.0033846176
0.0191635191 0.0193502735 -0.0034012846
-0.0186987687 0.0201837104 -0.0025006807
-0.0548408516 0.0222729575 0.0423791297
0.0122572053 0.0176501889 -0.0025881282
-0.0170127433 0.0202007387 -0.0020790077
-0.0556595959 0.0245428812 0.0284913350
-0.0560399778 0.0245460551 0.0266261641
-0.0559924804 0.0244240854 0.0255641658
-0.0627651811 0.0233284589 0.0284784008
-0.0588394888 0.0256412160 0.0437430628
-0.0197739881 0.0196734127 -0.0034923977
-0.0424535908 0.0196849722 0.0397761948
-0.0177105013 0.0193350594 -0.0024550832
-0.0563965850 0.0235293340 0.0262357164
0.0374585949 0.0162267070 0.0364027806
-0.0602241121 0.0209494960 0.0327795036
-0.0573115386 0.0213858169 0.0318632759
-0.0622082390 0.0241723489 0.0320298560
-0.0613972880 0.0239679348 0.0321860351
-0.0606614165 0.0249148738 0.0311865080
-0.0546955727 0.0212551262 0.0350659229
0.0002900527 0.0193030220 -0.0021115295
-0.0106702428 0.0201091189 -0.0019072121
-0.0077014994 0.0173603762 -0.0020390055
0.0142013617 0.0173596870 -0.0025683693
-0.0631038919 0.0217108671 0.0289531816
0.0217498224 0.0214411858 0.0110397888
0.0219790079 0.0214448776 0.0110710217
0.0183617920 0.0198566895 -0.0033846400
0.0191611480 0.0198552143 -0.0033804676
-0.0579822846 0.0250586215 0.0280942190
0.0219731033 0.0217040759 0.0112896664
0.0222457629 0.0214828793 0.0095404936
0.0122540435 0.0183590669 -0.0025900058
-0.0096619856 0.0188404452 -0.0019728071
-0.0557743050 0.0250026416 0.0282087345
-0.0623427667 0.0242492761 0.0303386915
-0.0560025908 0.0247040372 0.0255641658
0.0175655056 0.0184533503 -0.0033783740
0.0207514968 0.0207340997 0.0071353861
-0.0171690974 0.0201863404 -0.0022247634
0.0044167358 0.0199892949 -0.0021758354
0.0209976472 0.0204319712 0.0064794444
0.0033854803 0.0199993160 -0.0021727136
-0.0143276770 0.0203401092 -0.0022351793
0.0385418423 0.0164649021 0.0369837470
-0.0596285798 0.0232638028 0.0303353537
0.0093635507 0.0200312082 -0.0023413799
0.0013227051 0.0193035845 -0.0021626926
0.0023679917 0.0192880873 -0.0022076718
-0.0615717880 0.0249261912 0.0310303289
-0.0596930720 0.0255845357 0.0296715964
-0.0046609901 0.0185644161 -0.0020087264
-0.0107274186 0.0187508184 -0.0019853092
-0.0036585035 0.0193627533 -0.0019614897
0.0053103454 0.0163899455 -0.0023876182
-0.0186923612 0.0173769724 -0.0025870032
0.0183612518 0.0200577881 -0.0033846400
0.0191600621 0.0200576354 -0.0033700592
-0.0581566505 0.0253791418 0.0283440966
-0.0546225123 0.0268708672 0.0417752452
-0.0572627150 0.0218616892 0.0307179708
0.0209194273 0.0209131259 0.0086034415
0.0191709772 0.0154428240 -0.0034012771
-0.0016529004 0.0201828908 -0.0019603050
-0.0624328963 0.0244170036 0.0293186475
-0.0591641627 0.0259593111 0.0436805971
-0.0198856015 0.0199755970 -0.0034096218
-0.0171824526 0.0211929549 0.0025125691
-0.0172005314 0.0206115562 -0.0021727136
-0.0176855903 0.0203675907 -0.0024057827
-0.0563761704 0.0245588627 0.0266469810
0.0053436719 0.0200821515 -0.0021857223
-0.0167075451 0.0211101379 0.0019191006
0.0211690664 0.0216030199 0.0100784479
-0.0560702570 0.0248323400 0.0266573969
-0.0152770849 0.0201104265 -0.0025579459
-0.0146005135 0.0206021238 -0.0018447464
0.0013954544 0.0147948954 -0.0023038960
0.0093611469 0.0202359203 -0.0023351288
0.0164764859 0.0177262593 -0.0045986525
-0.0142639820 0.0183558073 -0.0023054606
-0.0076817553 0.0163270067 -0.0020614914
-0.0136347432 0.0192481074 -0.0021684370
-0.0619600676 0.0242916401 0.0311396439
-0.0597711243 0.0252785143 0.0300120581
-0.0591956563 0.0258260611 0.0294061024
-0.0512937866 0.0191845801 0.0434931852
0.0217476543 0.0219122898 0.0111022545
0.0219737403 0.0219321605 0.0112584336
0.0183602646 0.0202597659 -0.0033783889
0.0191595927 0.0202587973 -0.0033700592
-0.0176812541 0.0173579510 -0.0024397871
0.0214323718 0.0220199693 0.0101495860
0.0209918041 0.0219613370 0.0096966727
-0.0016631430 0.0205977689 -0.0019415667
-0.0585697778 0.0259797219 0.0430663116
-0.0194580797 0.0204488393 -0.0028149984
0.0206471030 0.0216325130 0.0098059950
0.0206505917 0.0212794337 0.0097279055
0.0212209523 0.0212709848 0.0096654324
-0.0171264801 0.0214621630 0.0029186257
-0.0164330844 0.0213066731 0.0017941619
-0.0176728349 0.0208069365 -0.0023601181
0.0224724822 0.0217111204 0.0095404936
-0.0016300997 0.0193531383 -0.0020077727
-0.0155783808 0.0210967567 0.0002636338
-0.0076307822 0.0187075716 -0.0019853092
-0.0611460917 0.0247189980 0.0319361575
-0.0607755072 0.0231733713 0.0312802233
-0.0146870706 0.0193892997 -0.0024136654
-0.0140085164 0.0196358096 -0.0022768280
-0.0644411370 0.0212415885 0.0362362005
-0.0616169907 0.0260357913 0.0292655397
-0.0556866415 0.0254348572 0.0278755743
-0.0581469052 0.0256613772 0.0283128638
-0.0563763417 0.0253231209 0.0279484559
0.0142325051 0.0193423983 -0.0025448254
-0.0066631120 0.0183822941 -0.0020127720
-0.0006507619 0.0183030944 -0.0021180338
0.0002995913 0.0182875153 -0.0021764389
0.0217465647 0.0221481379 0.0111334948
0.0219727401 0.0221683402 0.0112896664
0.0191591177 0.0204600152 -0.0033700592
0.0211084541 0.0221776310 0.0096029742
0.0114263296 0.0194887351 -0.0025100685
-0.0186877828 0.0056236889 0.0043936246
0.0190686788 0.0128520858 -0.0032971776
-0.0096833427 0.0194667447 -0.0019394731
-0.0623126663 0.0249935184 0.0301088858
-0.0623430349 0.0253208857 0.0291353930
-0.0624311157 0.0254067648 0.0280585308
-0.0154983867 0.0186685044 -0.0024850643
-0.0195426363 0.0210521277 -0.0023913584
-0.0652547181 0.0239126887 0.0314676203
0.0216342639 0.0216747727 0.0110554053
-0.0164978076 0.0215794649 0.0022158348
-0.0175001789 0.0212524142 -0.0004860064
-0.0172695350 0.0210816395 -0.0017822658
-0.0176878255 0.0210193638 -0.0023366935
-0.0554728322 0.0257841703 0.0276881624
-0.0640320256 0.0205849018 0.0332167931
-0.0543799959 0.0182226580 0.0423166491
-0.0566088222 0.0254969429 0.0271372665
-0.0086406823 0.0184384454 -0.0019909642
-0.0143456440 0.0210017767 -0.0019540614
-0.0596423112 0.0242270064 0.0299745817
-0.0615488030 0.0223803725 0.0313301869
-0.0615605153 0.0264553707 0.0291562248
-0.0599028058 0.0262012016 0.0293922145
-0.0583896153 0.0178772975 0.0358717926
0.0123233292 0.0193559434 -0.0025683693
-0.0096392687 0.0209344011 -0.0018291225
-0.0116119739 0.0197020043 -0.0019603050
-0.0106487926 0.0195849296 -0.0019423490
0.0371354893 0.0197179224 0.0390265472
0.0132589685 0.0193702076 -0.0025712675
-0.0576863177 0.0222035330 0.0291353930
0.0043315757 0.0184638780 -0.0022289208
-0.0205396097 0.0224045683 0.0062451833
0.0154360179 0.0153633598 -0.0019540614
-0.0185938422 0.0218656007 0.0058859759
0.0223201159 0.0223920401 0.0112272007
0.0183564760 0.0205675270 -0.0033346540
0.0191574115 0.0206641052 -0.0033492348
-0.0552668683 0.0246510189 0.0412130095
0.0114053851 0.0204183515 -0.0023988611
-0.0016769806 0.0210148003 -0.0019103339
0.0053347386 0.0183557477 -0.0022742054
-0.0194907952 0.0212758314 -0.0022742278
0.0217567515 0.0225614738 0.0107586710
0.0043993816 0.0209168252 -0.0021352298
-0.0170347225 0.0219408665 0.0032309839
-0.0027158151 0.0204081964 -0.0019140666
-0.0016691724 0.0208058003 -0.0019290721
0.0080120917 0.0208716299 -0.0022351793
-0.0006021506 0.0203723218 -0.0019940264
-0.0143943187 0.0212261025 -0.0018447464
-0.0610134564 0.0244913828 0.0312333573
-0.0577705018 0.0260018315 0.0416034646
-0.0165739339 0.0218584072 0.0026687481
0.0003319231 0.0209771972 -0.0020087264
-0.0586049519 0.0190217812 0.0350909121
-0.0209477227 0.0226904657 0.0066200071
-0.0193740446 0.0189821664 -0.0059209368
-0.0545543842 0.0280903857 0.0415878333
-0.0550217219 0.0281318929 0.0418064781
-0.0579640158 0.0261892807 0.0280005205
-0.0187166650 0.0186277498 -0.0025267056
-0.0216496233 0.0232013483 0.0121850846
0.0053267870 0.0193443131 -0.0022204644
-0.0625940785 0.0262965169 0.0299475063
-0.0623282529 0.0261819381 0.0290625114
-0.0619765185 0.0262062456 0.0281723011
-0.0597504117 0.0266851578 0.0291874427
-0.0589985959 0.0263562221 0.0290729273
-0.0557954647 0.0280157011 0.0431808271
0.0217585173 0.0225530136 0.0106962053
0.0211127233 0.0225023273 0.0094676120
-0.0169117171 0.0221921820 0.0034808614
-0.0036677404 0.0204233136 -0.0018915808
-0.0562309064 0.0261122938 0.0278443415
0.0232857335 0.0225049537 0.0113802580
0.0229244679 0.0219515804 0.0096341996
-0.0202499498 0.0225577708 0.0092593832
-0.0076531116 0.0194362383 -0.0019493600
-0.0577914678 0.0261071492 0.0425248928
-0.0506381057 0.0195752438 0.0433109887
0.0175624862 0.0194293614 -0.0033752522
-0.0086633805 0.0173734333 -0.0020243279
-0.0140900593 0.0199157577 -0.0022664196
-0.0137049165 0.0203491878 -0.0020708493
-0.0127031896 0.0203452203 -0.0019590459
0.0191590041 0.0213343408 0.0000762219
0.0190228540 0.0211722013 -0.0011107152
-0.0600652806 0.0264263358 0.0281723011
-0.0226764064 0.0234381091 0.0129139004
0.0188452080 0.0211127978 -0.0015480047
-0.0213858727 0.0227860343 0.0090407310
0.0207808744 0.0204209965 0.0063857385
0.0059946738 0.0195389446 -0.0022351793
0.0224321745 0.0228734706 0.0113521395
-0.0543192215 0.0282604527 0.0405570753
0.0233543292 0.0228825081 0.0114208562
0.0165684186 0.0203022789 -0.0046215556
-0.0233664978 0.0236608740 0.0154439537
-0.0581504591 0.0267993901 0.0282503981
-0.0229844246 0.0237825494 0.0127264885
-0.0215358008 0.0236936267 0.0122891990
-0.0198116656 0.0190409329 -0.0045465878
0.0113894194 0.0211429019 -0.0023163906
-0.0223126914 0.0229593460 0.0066980892
-0.0614664890 0.0267224740 0.0290000308
0.0184339304 0.0215427522 0.0000606055
0.0179498382 0.0214768481 -0.0004235407
0.0182420406 0.0211391654 -0.0016666999
0.0179367457 0.0209058952 -0.0030785329
0.0210023634 0.0228315983 0.0093687056
-0.0035880154 0.0212558452 -0.0018436884
-0.0564414226 0.0263169464 0.0271493364
-0.0564690195 0.0261466522 0.0265324581
-0.0220061783 0.0235329885 0.0128201945
0.0063061547 0.0184253138 -0.0023176125
-0.0606346838 0.0251723770 0.0300255883
-0.0605997704 0.0255680215 0.0292772520
-0.0147290807 0.0200765934 -0.0024100966
-0.0142906513 0.0207758937 -0.0020790077
0.0233538542 0.0231195632 0.0114520891
0.0192248709 0.0218945798 0.0026062750
0.0133002419 0.0203672592 -0.0024964339
0.0289489087 0.0107507240 -0.0045465878
-0.0046504494 0.0212744679 -0.0018166130
0.0217607431 0.0230023097 0.0106024919
-0.0193122197 0.0196369048 -0.0028234473
-0.0187053066 0.0195358675 -0.0025499440
-0.0568439029 0.0227079298 0.0277193952
0.0203038119 0.0224642474 0.0090608103
-0.0066957828 0.0194223393 -0.0019552982
-0.0600942783 0.0266559329 0.0277037788
-0.0244924556 0.0234343540 0.0098840846
-0.0239475612 0.0237944517 0.0108836098
-0.0534742214 0.0283855330 0.0393545218
0.0113839619 0.0214526188 -0.0022914088
0.0053324997 0.0205982570 -0.0021531931
-0.0616473891 0.0270186495 0.0290000457
-0.0617672615 0.0272072610 0.0281723011
-0.0595468991 0.0270531755 0.0289563108
-0.0562163405 0.0286699925 0.0432745405
-0.0233651567 0.0237906259 0.0127264885
0.0217605270 0.0232333671 0.0106024919
0.0211145394 0.0230635833 0.0093947304
-0.0036019126 0.0216739345 -0.0018166279
-0.0106472950 0.0205446612 -0.0018771713
-0.0562260635 0.0268291887 0.0267823357
-0.0006285331 0.0213077646 -0.0019368654
-0.0230989065 0.0240621027 0.0147880120
0.0233533792 0.0233568233 0.0114833368
-0.0211609062 0.0238026511 0.0113833724
0.0191381201 0.0220582318 0.0022470676
0.0194290616 0.0219158363 0.0027624541
0.0223181769 0.0232142489 0.0112935780
0.0141793117 0.0204112474 -0.0024865693
-0.0046642348 0.0216927808 -0.0017916461
0.0033940224 0.0196889434 -0.0021977029
0.0104006277 0.0194018949 -0.0024375892
-0.0056394488 0.0194089506 -0.0019490471
-0.0046029799 0.0194131155 -0.0019462308
0.0044241827 0.0196795184 -0.0021977029
-0.0587753020 0.0273063909 0.0286720712
-0.0535643585 0.0286738556 0.0391983278
-0.0421362035 0.0199810099 0.0397761948
-0.0596909709 0.0272259172 0.0282726903
-0.0232275147 0.0242278408 0.0150847463
-0.0554709621 0.0290185492 0.0413379557
0.0217585377 0.0234734509 0.0106649650
0.0211146325 0.0232906621 0.0093843220
-0.0240584444 0.0233703014 0.0094780279
-0.0213520732 0.0229322966 0.0083847968
-0.0006437881 0.0218285825 -0.0019040903
-0.0204504412 0.0223518331 0.0041368031
-0.0066859145 0.0203397740 -0.0018811648
0.0175942034 0.0202843118 -0.0033482811
-0.0257855002 0.0244024005 0.0132574914
-0.0246449877 0.0241543595 0.0128201945
0.0183090046 0.0220049936 0.0003698344
-0.0213496257 0.0241060238 0.0118206693
-0.0220587943 0.0241515767 0.0129139004
-0.0229858067 0.0241433475 0.0127108712
-0.0535478629 0.0289733317 0.0391514935
-0.0194154810 0.0232407842 0.0083847968
-0.0167622957 0.0224356037 0.0036682733
-0.0157798734 0.0225982200 0.0017941619
-0.0046731178 0.0219030473 -0.0017729079
-0.0602925234 0.0273768287 0.0255016927
-0.0600913130 0.0273936968 0.0256891046
-0.0536544733 0.0290830005 0.0399323739
-0.0216122326 0.0229146760 0.0064794444
-0.0592173822 0.0237901416 0.0409318991
-0.0589628927 0.0235465672 0.0416815467
-0.0181262288 0.0230610501 0.0064169713
0.0225860719 0.0219374727 0.0095248846
-0.0587765686 0.0276685264 0.0281462688
-0.0588794686 0.0272754338 0.0289609898
0.0114796720 0.0218641702 -0.0022664196
0.0054045022 0.0213367958 -0.0021193377
-0.0161324497 0.0209943596 0.0010757545
-0.0594124533 0.0276540946 0.0278599430
-0.0235752035 0.0242947843 0.0126782162
0.0211136192 0.0235223155 0.0094051464
-0.0027024786 0.0219856743 -0.0018246522
-0.0096979234 0.0202870127 -0.0018850690
-0.0566498078 0.0271664467 0.0270842779
-0.0220404770 0.0245056655 0.0128514273
-0.0623019375 0.0261167604 0.0285315085
-0.0217233617 0.0230120663 0.0071874433
-0.0006497523 0.0220370684 -0.0018915957
0.0073222462 0.0194368418 -0.0023201085
-0.0184556413 0.0232916083 0.0072134756
0.0013459788 0.0220032092 -0.0019540614
-0.0602011047 0.0259740483 0.0291562248
-0.0605484508 0.0257565212 0.0284378100
-0.0248016734 0.0245551597 0.0127681373
0.0013959927 0.0154046062 -0.0023238561
-0.0233670305 0.0248902496 0.0153814806
0.0006953978 0.0172005128 -0.0022664196
-0.0226824414 0.0240836348 0.0141008375
-0.0227083433 0.0242908727 0.0129451333
0.0134088704 0.0214479771 -0.0023601181
-0.0229873415 0.0245042499 0.0126952557
-0.0535453223 0.0288924258 0.0385580100
-0.0046801046 0.0221125465 -0.0017604133
-0.0036119355 0.0219876412 -0.0017978823
-0.0598184206 0.0276105460 0.0252726320
-0.0543423854 0.0294942837 0.0405258425
-0.0585060082 0.0278881025 0.0277193952
-0.0540019609 0.0294837933 0.0405258425
-0.0229929518 0.0247464795 0.0126952557
-0.0213903841 0.0244775433 0.0118987588
0.0224582832 0.0217974130 0.0102120517
-0.0136087928 0.0214002300 -0.0018668523
-0.0592072718 0.0279226769 0.0277818609
-0.0233859029 0.0251428690 0.0154127209
-0.0555101298 0.0296470802 0.0413691886
-0.0236213263 0.0247583594 0.0126796318
0.0113800038 0.0216595773 -0.0022726632
-0.0096622575 0.0214607548 -0.0017900666
-0.0552581660 0.0270261522 0.0271050949
-0.0556274392 0.0273553785 0.0263801832
-0.0220327657 0.0247432049 0.0128201945
0.0233529676 0.0240587760 0.0115020750
