# .PCD v0.7 - Point Cloud Data file format
VERSION 0.7
FIELDS x y z
SIZE 4 4 4
TYPE F F F
COUNT 1 1 1
WIDTH 1188
HEIGHT 1
VIEWPOINT 0 0 0 1 0 0 0
POINTS 1188
DATA ascii
-0.0253057536 0.0106093865 0.0005690432
-0.0244044904 0.0106604565 0.0007297895
0.0230610911 0.0107987951 0.0006412915
-0.0092703523 0.0085192546 -0.0010461607
-0.0082525555 0.0085214917 -0.0012067878
-0.0062706899 0.0085094962 -0.0013374710
0.0258210730 0.0109103750 0.0007037646
0.0057686567 0.0087822434 -0.0016732314
0.0097521171 0.0087166224 -0.0016623014
0.0107722301 0.0086450763 -0.0016321861
0.0287110768 0.0110953692 0.0047096736
0.0295187552 0.0111157130 0.0051443703
-0.0062472131 0.0058654770 0.0003445572
-0.0062553044 0.0099261068 -0.0017450773
0.0017836282 0.0063968804 -0.0001202920
0.0027070923 0.0105112325 -0.0022635632
0.0039331540 0.0110434163 -0.0023416751
0.0047101174 0.0110377353 -0.0023807161
0.0194240194 0.0045977514 0.0019063181
0.0253490116 0.0111854132 0.0018126122
-0.0157760959 0.0111696478 -0.0026227855
0.0286260657 0.0075230077 -0.0015277141
0.0231383499 0.0102925524 -0.0009204694
0.0243472867 0.0110381041 -0.0012484365
-0.0198270585 0.0106384549 -0.0021230229
0.0276743881 0.0113640372 0.0055191866
0.0281367656 0.0113479774 0.0051860190
0.0285976026 0.0113480594 0.0051860115
0.0044960734 0.0060675777 0.0005788184
0.0057075955 0.0063028783 -0.0000254535
0.0057441499 0.0068205949 -0.0007452019
0.0066979472 0.0069398750 -0.0008298852
-0.0002403629 0.0098848585 -0.0019824603
0.0007754362 0.0098777004 -0.0020449483
0.0017583559 0.0095487107 -0.0019871318
0.0027348439 0.0095264204 -0.0019876533
0.0057259090 0.0095327143 -0.0019918182
0.0067180004 0.0095283352 -0.0020168000
-0.0279914904 0.0115005840 0.0018594689
-0.0144508202 0.0096356478 -0.0000646212
-0.0062432382 0.0064518433 0.0000338457
-0.0063014757 0.0106852744 -0.0019590207
-0.0052666571 0.0106758829 -0.0020188862
-0.0032502280 0.0105342213 -0.0020786175
-0.0143015068 0.0086700693 -0.0000115284
-0.0230323803 0.0106691774 0.0016737781
-0.0002813933 0.0056054685 0.0006326265
0.0137560656 0.0087604318 -0.0017013424
0.0434766188 0.0075369570 0.0235210937
0.0356115401 0.0090582408 -0.0292664338
0.0187274963 0.0085014757 -0.0024189600
0.0300360378 0.0115191136 0.0087155979
-0.0189702194 0.0086476151 -0.0019785636
-0.0062207896 0.0092751216 -0.0014983215
0.0087610856 0.0075858664 -0.0012272098
-0.0289041232 0.0046435837 0.0004471890
0.0097393636 0.0112286862 -0.0024431893
0.0107157696 0.0112250727 -0.0024416321
0.0118003134 0.0112208966 -0.0024478757
0.0127794081 0.0112159010 -0.0024822303
-0.0159793813 0.0087306704 0.0012347600
-0.0209056716 0.0115578417 -0.0001864457
0.0246542934 0.0110635553 -0.0007174411
-0.0131770652 0.0085255001 -0.0010610321
-0.0273010302 0.0105144512 0.0005725524
0.0257626977 0.0076709241 -0.0014374130
0.0267374162 0.0075614937 -0.0015076869
-0.0183008071 0.0112993587 -0.0027196133
-0.0174549799 0.0113176759 -0.0026227855
-0.0161394309 0.0112626795 -0.0006862083
-0.0152885336 0.0113178659 -0.0004050904
0.0077801552 0.0112371165 -0.0024353811
0.0087609850 0.0112326797 -0.0024416321
0.0262543019 0.0116906147 0.0074037141
0.0117186438 0.0065246504 -0.0002556988
-0.0157431308 0.0109700765 -0.0021542632
-0.0129552353 0.0108605381 -0.0015920275
0.0007153621 0.0083842259 -0.0012866282
0.0076164976 0.0057156738 0.0001303754
0.0086110476 0.0057182163 0.0001120246
-0.0052343737 0.0112172980 -0.0021292814
-0.0042155441 0.0112090688 -0.0021542707
0.0027222170 0.0084720701 -0.0013994151
-0.0081782471 0.0096845720 -0.0016510212
-0.0257873926 0.0121629555 0.0063417158
-0.0254983250 0.0121566560 0.0062792501
0.0268213861 0.0117759500 0.0090982299
0.0277740974 0.0117885265 0.0093481075
0.0287292935 0.0117752943 0.0090826061
0.0296818949 0.0117673632 0.0089186262
-0.0231984984 0.0045113489 0.0023748479
0.0007588456 0.0064793155 -0.0001118206
0.0087708030 0.0114454720 -0.0024978542
0.0097484346 0.0114414524 -0.0024978467
0.0107245818 0.0114376601 -0.0024978542
0.0118076438 0.0114336964 -0.0024978542
0.0127869882 0.0114282947 -0.0025368952
-0.0182800833 0.0116273928 -0.0027727210
-0.0175003130 0.0116237830 -0.0026852586
-0.0151746441 0.0117127951 -0.0004675561
0.0156321935 0.0095057916 -0.0019522556
0.0161470305 0.0094817635 -0.0026415237
0.0167580396 0.0095328242 -0.0042288103
0.0107817221 0.0082295835 -0.0014983141
0.0036726708 0.0113121551 -0.0024067559
0.0047228839 0.0113590341 -0.0024431818
0.0125462301 0.0049503483 0.0006100512
-0.0262456033 0.0045414250 0.0005319468
-0.0166769940 0.0109784435 -0.0021542632
-0.0122018810 0.0106594171 -0.0016291165
-0.0022654270 0.0085223783 -0.0013094940
0.0138809355 0.0067306478 -0.0006492906
0.0146351429 0.0068555530 -0.0006445595
-0.0082485322 0.0105021466 -0.0018432015
0.0258707013 0.0120048951 0.0089030098
0.0268179961 0.0120268334 0.0093246829
0.0277740899 0.0120284501 0.0093559157
0.0287302565 0.0120224636 0.0092387926
0.0296848118 0.0120174792 0.0091372710
0.0193840135 0.0049421377 0.0010473481
-0.0289322454 0.0094874706 0.0003523505
-0.0284990538 0.0094086546 0.0004070303
0.0434775725 0.0082106143 0.0235210937
0.0277740043 0.0122692976 0.0093793403
0.0285754185 0.0097239930 -0.0015434423
-0.0152501557 0.0092386678 0.0008505709
-0.0074331630 0.0060916208 0.0004382632
-0.0278016161 0.0118177738 0.0036867238
-0.0277543869 0.0118364822 0.0040927804
-0.0182682667 0.0118461605 -0.0028039538
-0.0173858237 0.0118430685 -0.0026852586
0.0257421080 0.0122662988 0.0093194749
0.0037413968 0.0116871614 -0.0024728649
0.0047337990 0.0116804857 -0.0024978467
-0.0002692693 0.0106544811 -0.0021787905
0.0006986356 0.0105247702 -0.0021835291
0.0017097818 0.0105169769 -0.0022448176
0.0269852579 0.0113469493 0.0051651946
0.0057007000 0.0110319313 -0.0024041408
0.0067783464 0.0105983857 -0.0023241439
-0.0263134558 0.0113087799 0.0005788258
-0.0252652634 0.0112909582 0.0007193736
-0.0242133792 0.0113091189 0.0010941974
-0.0101817483 0.0098459981 -0.0015920275
-0.0233157109 0.0114021543 0.0018996275
-0.0232004244 0.0116595421 0.0038897521
0.0226155631 0.0116493534 0.0020937226
0.0240799449 0.0116876196 0.0028433776
-0.0012568922 0.0105141532 -0.0021143355
0.0247859955 0.0114722531 0.0019453592
-0.0052335318 0.0099195782 -0.0017599114
-0.0043136273 0.0099122319 -0.0018184730
0.0177951511 0.0086930804 -0.0026384094
0.0182911940 0.0088365301 -0.0025915527
-0.0002718864 0.0115027297 -0.0023016580
0.0358385891 0.0102045145 -0.0286104921
0.0280132815 0.0125094112 0.0093871485
-0.0131927226 0.0094828922 -0.0013301321
0.0257626064 0.0085367169 -0.0014420995
-0.0182594042 0.0120652001 -0.0028289431
-0.0173650254 0.0120604988 -0.0027373233
-0.0233309250 0.0115192775 0.0033743731
-0.0154148284 0.0121639278 -0.0004675561
0.0256237220 0.0125026200 0.0092622172
0.0047398303 0.0118949171 -0.0025290870
0.0277103726 0.0055073090 -0.0014951923
-0.0158655029 0.0116758700 -0.0022104853
-0.0148434211 0.0117028784 -0.0006029108
-0.0157261807 0.0112991538 -0.0022011125
-0.0129466075 0.0113017578 -0.0016232603
-0.0123296138 0.0115125198 -0.0017267265
0.0290611647 0.0113662947 0.0055608354
0.0294089857 0.0113701876 0.0056389249
0.0137465736 0.0075619686 -0.0009699413
0.0147290910 0.0075986553 -0.0010119551
0.0156612825 0.0078989137 -0.0012796842
0.0241079330 0.0114255268 0.0021249629
0.0248147938 0.0112969112 0.0010525486
-0.0032449493 0.0096084680 -0.0018021413
-0.0022516304 0.0098958258 -0.0019629323
-0.0314376727 0.0127431359 0.0099962410
0.0077306014 0.0099527873 -0.0021620714
-0.0262680445 0.0127271544 0.0100587141
0.0097629670 0.0095208809 -0.0019380995
0.0107419752 0.0095184185 -0.0019262307
0.0117209852 0.0095158909 -0.0019218572
0.0127517469 0.0094831455 -0.0019398578
0.0137255844 0.0095364917 -0.0019994252
0.0139359245 0.0054737348 0.0008091829
0.0178910717 0.0094701555 -0.0028893449
0.0187418330 0.0094707198 -0.0028301799
-0.0231864918 0.0055546202 0.0023748479
-0.0163076613 0.0092247818 0.0025934926
0.0357921384 0.0103379209 -0.0290790219
0.0267371759 0.0085351560 -0.0014983215
-0.0182534475 0.0122845564 -0.0028476813
-0.0173442345 0.0122777354 -0.0027893730
-0.0154041220 0.0123865400 -0.0004987889
0.0155666703 0.0105832573 -0.0023162984
0.0161304306 0.0105398055 -0.0029741847
0.0162463132 0.0105165262 -0.0034973719
-0.0272502247 0.0067225508 0.0005319766
0.0037494341 0.0121174213 -0.0025165924
0.0047386345 0.0121111069 -0.0025290870
0.0118840616 0.0055040866 0.0005710176
0.0127428565 0.0055953972 0.0006595156
0.0240481012 0.0125904735 0.0066696904
0.0240708441 0.0120900590 0.0060762218
0.0027373864 0.0114796218 -0.0024057277
0.0126944883 0.0120674502 -0.0026540258
0.0057159681 0.0115680117 -0.0024853819
0.0067339595 0.0115432460 -0.0024997094
0.0076482967 0.0115861390 -0.0025262483
-0.0283760410 0.0087716300 0.0004070303
-0.0189785976 0.0095560700 -0.0022323527
0.0285755917 0.0105904322 -0.0015295618
-0.0144741517 0.0102621187 -0.0001343735
-0.0142223705 0.0107075665 -0.0009162226
-0.0132756326 0.0105348136 -0.0014983290
-0.0097655971 0.0060972981 0.0004694960
0.0215418655 0.0124261957 0.0019219345
0.0037556479 0.0123318899 -0.0025478252
0.0047446061 0.0123254042 -0.0025603198
0.0061721653 0.0123156775 -0.0025915527
0.0240390766 0.0128388014 0.0069039590
0.0007322005 0.0114951674 -0.0023291432
0.0017385802 0.0114868153 -0.0023766183
0.0296866745 0.0124549996 0.0092622023
0.0127003826 0.0122798290 -0.0026977533
0.0087479968 0.0109126326 -0.0023666644
-0.0083026234 0.0115706604 -0.0020870888
-0.0218347292 0.0118925925 0.0017813793
-0.0235331934 0.0127755981 0.0048320196
-0.0289993044 0.0101410542 0.0003861985
-0.0191094857 0.0077221021 -0.0010342547
0.0257623494 0.0095111690 -0.0014433512
0.0267369505 0.0095092691 -0.0014936351
0.0214024428 0.0127890352 0.0023436076
0.0154840583 0.0113127884 -0.0025342875
0.0178320650 0.0115822833 -0.0033974149
0.0037573802 0.0125474501 -0.0025603198
0.0047068521 0.0125418138 -0.0025603273
0.0048599951 0.0125389677 -0.0025915527
0.0057356134 0.0125336293 -0.0025977963
0.0127071869 0.0124916639 -0.0027477392
-0.0159420650 0.0126616042 -0.0009985664
-0.0160435196 0.0123207625 -0.0022097924
-0.0151792374 0.0125901345 -0.0008111545
-0.0147397686 0.0125930328 -0.0006862083
-0.0072795842 0.0099327471 -0.0017325827
-0.0129209738 0.0125138927 -0.0017169663
-0.0123042632 0.0123916175 -0.0018126168
-0.0325844139 0.0130228307 0.0118391197
-0.0002818012 0.0072784927 -0.0003946745
-0.0012777818 0.0115103144 -0.0022776150
-0.0022666117 0.0124929566 -0.0023447596
0.0246800724 0.0078880209 -0.0014202320
0.0214041043 0.0130120944 0.0023123748
0.0147292819 0.0112076607 -0.0025290870
0.0107082203 0.0106034745 -0.0022791722
0.0117727127 0.0105826911 -0.0022629299
0.0129903182 0.0060560592 0.0006100512
0.0369096324 0.0150045473 0.0374207608
-0.0282687824 0.0128023680 0.0107146557
0.0007544609 0.0124659818 -0.0024353960
0.0017562492 0.0124573614 -0.0024682009
0.0027373938 0.0124264974 -0.0025166073
-0.0182743203 0.0077060759 -0.0008279779
-0.0173173863 0.0077053104 -0.0007855841
0.0056791343 0.0122006144 -0.0025533685
0.0064938627 0.0120999496 -0.0025603198
0.0147686638 0.0095067341 -0.0019755759
-0.0149972010 0.0130111035 -0.0012067952
-0.0128881950 0.0129504334 -0.0018106722
-0.0122676436 0.0129370820 -0.0019199946
0.0137244966 0.0083325338 -0.0014709928
0.0147046559 0.0083307829 -0.0014702105
0.0088530369 0.0116936136 -0.0025551119
-0.0032762156 0.0125017669 -0.0023260289
-0.0092893671 0.0104727466 -0.0017779493
-0.0219151247 0.0124793407 0.0019375510
0.0224127043 0.0122270193 0.0023748404
-0.0268926900 0.0119032245 0.0057013906
-0.0261150654 0.0118820351 0.0054358966
-0.0042481851 0.0106684621 -0.0020397180
-0.0243302342 0.0118898135 0.0059981323
-0.0022500230 0.0106692519 -0.0021278285
-0.0150485504 0.0126366299 0.0019531748
-0.0315640569 0.0131847654 0.0104022976
-0.0238905903 0.0137779843 0.0055608354
0.0218064524 0.0131883975 0.0050298399
-0.0301693082 0.0124755446 0.0067165396
-0.0228554141 0.0136585142 0.0039053676
-0.0022587737 0.0130347405 -0.0023854026
-0.0160450544 0.0115576517 -0.0002729320
-0.0154190455 0.0119403321 -0.0004519396
-0.0143158641 0.0116032194 -0.0002619200
-0.0132714193 0.0115572046 -0.0013153651
0.0257616136 0.0103785302 -0.0014254474
0.0267364271 0.0103765186 -0.0014670887
0.0214077570 0.0132329520 0.0022499016
-0.0072667245 0.0115602482 -0.0021317475
0.0007611646 0.0130060967 -0.0024744221
0.0017651452 0.0129962768 -0.0025165924
0.0025468788 0.0129880738 -0.0025603198
0.0299279969 0.0137080271 0.0093715321
-0.0155663211 0.0129259098 -0.0019606003
-0.0128781591 0.0131695289 -0.0018419051
-0.0122546759 0.0131552573 -0.0019590356
0.0268954001 0.0110219959 0.0031244881
-0.0113356318 0.0068516769 -0.0007838109
-0.0169411246 0.0098960083 -0.0015295544
-0.0112682004 0.0095035620 -0.0014691674
-0.0103247445 0.0094541907 -0.0014483505
-0.0036110373 0.0130485799 -0.0023416751
0.0215956420 0.0132725444 0.0028433776
-0.0241600666 0.0140581261 0.0061230711
0.0077713691 0.0109157320 -0.0023846203
-0.0264181960 0.0136784296 0.0099754166
0.0179172866 0.0105273556 -0.0031662830
0.0187699124 0.0105264839 -0.0031500631
-0.0231894534 0.0064821169 0.0023748479
-0.0192848425 0.0102744270 -0.0023494833
0.0179451723 0.0125354696 -0.0034843483
0.0175327603 0.0125281904 -0.0036145025
0.0047555808 0.0131854769 -0.0026305937
0.0057456344 0.0131774191 -0.0026602768
0.0117483046 0.0131340977 -0.0028414377
-0.0183601286 0.0089750085 -0.0016805180
-0.0158837344 0.0134584736 -0.0013421425
-0.0158690009 0.0133087914 -0.0019199946
-0.0153243337 0.0133634415 -0.0009954222
-0.0157341417 0.0132114906 -0.0016857334
-0.0072092358 0.0106917750 -0.0019512125
-0.0128556658 0.0133862961 -0.0019043782
-0.0122386571 0.0133727472 -0.0020058923
-0.0063089710 0.0131818932 -0.0023323023
-0.0173143465 0.0095760319 -0.0018069916
-0.0150725525 0.0084225684 0.0008942983
-0.0308685973 0.0133146923 0.0106365662
0.0267886929 0.0127155762 0.0094436165
0.0246802792 0.0087537766 -0.0014358484
-0.0348729193 0.0135492664 0.0162120517
0.0147621464 0.0124805998 -0.0028070905
-0.0160186160 0.0123363938 -0.0003604689
-0.0146097224 0.0124944951 -0.0004285150
-0.0147188958 0.0130368304 -0.0007486739
-0.0072261635 0.0125374701 -0.0022729286
0.0107291136 0.0116514172 -0.0025290870
0.0117062125 0.0116468836 -0.0025447034
0.0117130373 0.0118595194 -0.0025915527
0.0127812531 0.0117931869 -0.0026093968
0.0297758505 0.0114405174 0.0070913634
0.0369062871 0.0155977514 0.0373478793
-0.0283151288 0.0135356244 0.0106717106
-0.0272771660 0.0134845134 0.0106321108
0.0007587543 0.0133317467 -0.0024744221
0.0017652439 0.0133208800 -0.0025259578
0.0097372644 0.0105685089 -0.0022747093
-0.0262248982 0.0075198375 0.0004726029
0.0127523318 0.0105784666 -0.0022901171
0.0137331234 0.0105736051 -0.0023378902
0.0147561384 0.0105411019 -0.0023473375
-0.0158555303 0.0136951674 -0.0011391216
-0.0158798900 0.0136428047 -0.0019043782
-0.0152206961 0.0137183759 -0.0006924593
-0.0129174124 0.0135983881 -0.0020449334
-0.0122195501 0.0135895032 -0.0020605498
-0.0172376279 0.0105341915 -0.0020977878
-0.0146952588 0.0083662923 0.0004382632
0.0300488193 0.0139523279 0.0094340052
0.0137988683 0.0132316407 -0.0028633126
0.0007159377 0.0077358279 -0.0007660263
-0.0284203272 0.0151071344 0.0133696478
-0.0190296862 0.0106694642 -0.0027309158
0.0248480216 0.0110996570 0.0000322065
-0.0091917943 0.0125614237 -0.0021679127
-0.0147391874 0.0116438176 0.0004851199
0.0007604773 0.0136563089 -0.0024900385
0.0017636793 0.0136459749 -0.0025290870
-0.0158984158 0.0139258411 -0.0010454082
-0.0152130257 0.0139407609 -0.0007174485
-0.0062390808 0.0115507599 -0.0021636137
-0.0052403901 0.0117433574 -0.0022211769
-0.0160441417 0.0119318012 -0.0028258138
-0.0182186719 0.0103599131 -0.0023963549
0.0254044477 0.0108672362 -0.0002332949
-0.0225727167 0.0133824330 0.0033119000
-0.0273401495 0.0122057218 0.0068518943
0.0155324405 0.0134320837 -0.0029741921
-0.0280575212 0.0095289368 0.0004570163
0.0175304376 0.0133795310 -0.0036145099
0.0275345147 0.0127518456 0.0094340052
0.0280133244 0.0128694680 0.0093949568
0.0007587729 0.0138734858 -0.0024900385
0.0017652682 0.0138619486 -0.0025415742
-0.0159811359 0.0141441915 -0.0011339062
-0.0153238159 0.0141646545 -0.0007408732
-0.0161686335 0.0126283895 -0.0029810839
-0.0343315229 0.0153014045 0.0208036285
-0.0347232521 0.0154967438 0.0215845089
-0.0042330157 0.0117668714 -0.0022479543
-0.0032963248 0.0115258712 -0.0022370094
-0.0022858267 0.0115180220 -0.0022566789
-0.0150601994 0.0134309139 0.0018126122
0.0241083130 0.0122660790 0.0050766892
0.0037476721 0.0119017828 -0.0025040978
-0.0264164302 0.0144623127 0.0099025350
-0.0255498309 0.0144793931 0.0084969532
0.0107389782 0.0118632931 -0.0025915527
0.0179479625 0.0133841392 -0.0035337978
0.0219902489 0.0128826555 0.0038429028
0.0216817167 0.0128848907 0.0026767901
-0.0147421900 0.0133760404 -0.0007018247
-0.0128931943 0.0139243621 -0.0021152147
-0.0255349781 0.0118444469 0.0047799549
-0.0241095256 0.0118396487 0.0049986071
-0.0072569232 0.0135480817 -0.0023253434
0.0155283492 0.0139695164 -0.0029559606
0.0178466477 0.0139121320 -0.0035988861
0.0285812300 0.0124757010 0.0093168747
0.0117304754 0.0124973711 -0.0027149417
0.0127169229 0.0128092822 -0.0028195851
0.0369048715 0.0164910425 0.0372958295
-0.0283017289 0.0143928323 0.0106947776
-0.0273593534 0.0143977571 0.0106174778
0.0007591120 0.0140900854 -0.0024978542
0.0017652458 0.0140784029 -0.0025478252
0.0097555909 0.0117621887 -0.0025446960
-0.0262371544 0.0085513461 0.0004831529
0.0124656893 0.0116433185 -0.0025603273
0.0136657255 0.0112722199 -0.0025290796
-0.0159444008 0.0143810082 -0.0009517097
-0.0153234620 0.0143883284 -0.0007486814
-0.0130517837 0.0142647419 -0.0020189085
-0.0121904295 0.0142442379 -0.0021542632
-0.0334670693 0.0153877791 0.0202413928
-0.0170344468 0.0115054566 -0.0023104423
-0.0102578802 0.0085151307 -0.0009836950
-0.0206916798 0.0091962777 0.0004382632
0.0086781997 0.0118719954 -0.0025915527
0.0138234310 0.0116671156 -0.0026468211
0.0147456182 0.0116303768 -0.0026618340
0.0156988222 0.0116754528 -0.0028584623
0.0187681951 0.0116009172 -0.0033438154
-0.0192637052 0.0115026738 -0.0027525448
-0.0144416783 0.0136576351 -0.0003599771
-0.0136902649 0.0139027033 -0.0009985589
-0.0052655693 0.0065320041 0.0001476160
-0.0156405736 0.0087829232 -0.0012588450
0.0007573368 0.0143073257 -0.0024978542
0.0016525763 0.0142964888 -0.0025447034
-0.0172839444 0.0143567082 -0.0029851221
0.0187952220 0.0125346836 -0.0034645670
-0.0159474742 0.0146050956 -0.0009517097
-0.0062036235 0.0125274826 -0.0022928440
-0.0052983556 0.0125189703 -0.0023084604
-0.0294339489 0.0152286496 0.0149001684
0.0268159099 0.0135936048 0.0094652381
-0.0143780578 0.0141730700 -0.0004675561
0.0155291315 0.0142900590 -0.0029715844
0.0178497005 0.0142285209 -0.0036379420
0.0277139936 0.0138030630 0.0094574299
0.0283723921 0.0134682339 0.0093819406
0.0127238603 0.0135565046 -0.0028851503
0.0007576498 0.0145239662 -0.0025056624
0.0016508272 0.0145135317 -0.0025447034
-0.0102244150 0.0116229076 -0.0019611516
-0.0173755419 0.0146831926 -0.0030522742
0.0187101215 0.0137678403 -0.0035980293
0.0095271021 0.0069365241 -0.0005924948
0.0047843009 0.0136488955 -0.0026588314
-0.0157282110 0.0133881774 -0.0031928369
-0.0148255359 0.0119946171 0.0006881407
-0.0191283841 0.0143006723 -0.0029316717
-0.0230205264 0.0139191393 0.0042489585
-0.0144797247 0.0145256687 -0.0008611181
-0.0136541147 0.0143193472 -0.0013889992
-0.0131111499 0.0147217754 -0.0020946362
-0.0052677039 0.0075089522 -0.0001406320
-0.0045878012 0.0078554824 -0.0005612620
0.0178503413 0.0145467501 -0.0036535510
0.0283725690 0.0139515568 0.0094340052
0.0369025357 0.0175319780 0.0372216366
0.0256237704 0.0128613319 0.0092544090
0.0269365273 0.0122705828 0.0094027724
0.0167532265 0.0135700721 -0.0048873373
-0.0171770770 0.0149062555 -0.0029819929
-0.0391499102 0.0183032062 0.0370303206
-0.0159671176 0.0150561277 -0.0009204694
-0.0154330004 0.0150594357 -0.0007903227
0.0047367346 0.0143928919 -0.0026790150
-0.0182756241 0.0127078649 -0.0028838390
-0.0169199724 0.0121830869 -0.0024275729
-0.0356115177 0.0152729210 0.0221779775
-0.0242986102 0.0117849279 0.0038116700
-0.0190494899 0.0149338301 -0.0029819929
-0.0183321554 0.0145807061 -0.0029715919
-0.0042840671 0.0125098843 -0.0023228996
-0.0031544992 0.0130427685 -0.0023729079
0.0218032021 0.0134223197 0.0050766892
-0.0012574864 0.0125924889 -0.0023744428
-0.0002517251 0.0125836488 -0.0024003708
-0.0158294234 0.0133057106 -0.0036223182
0.0178472940 0.0147618186 -0.0036301264
-0.0102491137 0.0125762578 -0.0020855316
-0.0171909090 0.0151287783 -0.0029585683
-0.0061983671 0.0137269925 -0.0023416751
-0.0052926932 0.0134991203 -0.0023525828
-0.0111006554 0.0098520461 -0.0015920275
-0.0148595367 0.0125038754 0.0008755601
-0.0191633720 0.0151552316 -0.0029976019
-0.0182363335 0.0151431803 -0.0029726275
0.0033172837 0.0127665531 -0.0025603198
0.0097715035 0.0125098582 -0.0026509189
0.0107534081 0.0125029590 -0.0026915022
0.0137906754 0.0124851782 -0.0027864599
0.0155126648 0.0125019979 -0.0029150718
-0.0182976667 0.0095561929 -0.0020449185
-0.0164990295 0.0094285589 -0.0021750801
-0.0145810191 0.0153535288 -0.0011547380
0.0074374247 0.0069398507 -0.0006549680
-0.0132451635 0.0152519699 -0.0021448978
-0.0102243666 0.0145474840 -0.0022088983
-0.0303184539 0.0128675085 0.0106365662
-0.0274499971 0.0113223772 0.0005996427
0.0277738869 0.0145544056 0.0094710942
0.0283726305 0.0141916033 0.0094340052
-0.0189868677 0.0083080288 -0.0014733323
0.0127267279 0.0145197045 -0.0029320219
0.0368067175 0.0184470024 0.0370834284
0.0007519966 0.0151760448 -0.0025056624
0.0017563740 0.0151637252 -0.0025478252
0.0178457908 0.0149756502 -0.0036223182
0.0187869631 0.0145645309 -0.0036210218
0.0298088975 0.0139500070 0.0094027724
-0.0182878803 0.0084394384 -0.0012501800
-0.0191873144 0.0125149097 -0.0028643557
-0.0172525179 0.0127094369 -0.0029195347
-0.0192774180 0.0153766926 -0.0030132257
0.0268753953 0.0144558270 0.0094912704
-0.0159581732 0.0155014377 -0.0009569102
-0.0146117453 0.0156946834 -0.0010922649
-0.0132485721 0.0155834015 -0.0021480196
0.0017632789 0.0058506224 0.0002258695
0.0037467221 0.0054597445 0.0009317896
-0.0102341492 0.0153181236 -0.0022083842
-0.0221283119 0.0130863506 0.0023748479
0.0179515891 0.0151885059 -0.0036223182
-0.0474455878 0.0195160378 0.0368897580
0.0367376618 0.0188498627 0.0369105898
0.0256234258 0.0133408550 0.0092622172
-0.0166588444 0.0155060943 -0.0023260587
0.0188053921 0.0151836369 -0.0036472999
-0.0112118926 0.0105323624 -0.0016872161
-0.0102452170 0.0105019826 -0.0017419481
-0.0032341906 0.0078448988 -0.0009048530
-0.0159538928 0.0159476679 -0.0009829425
-0.0153065268 0.0159758721 -0.0005612620
-0.0145762656 0.0159094762 -0.0011859708
-0.0140864933 0.0155147146 -0.0017950633
-0.0132466126 0.0158034172 -0.0021604993
-0.0102438424 0.0157597084 -0.0021979907
-0.0164812673 0.0145725925 -0.0030531459
-0.0470433384 0.0197254959 0.0358121507
0.0192258377 0.0141244810 -0.0035598450
-0.0102891345 0.0135309417 -0.0021712729
-0.0092520807 0.0135744307 -0.0022343569
-0.0072301645 0.0145055708 -0.0023182281
-0.0061921608 0.0145798866 -0.0023334348
-0.0053071175 0.0145931412 -0.0023416528
0.0127235809 0.0152718369 -0.0029351511
-0.0191832203 0.0135060530 -0.0029013106
-0.0183205213 0.0135783460 -0.0029532337
-0.0472941399 0.0200518016 0.0359527133
-0.0153492112 0.0162100848 -0.0004675561
-0.0153973717 0.0161870066 -0.0007278495
-0.0145408418 0.0161239188 -0.0012796768
0.0266963746 0.0112078097 0.0038533113
0.0276816338 0.0110686403 0.0041344292
-0.0032679380 0.0135880765 -0.0023826533
-0.0302148238 0.0135606099 0.0106814709
-0.0120180491 0.0069940742 -0.0006705844
-0.0472245142 0.0200950224 0.0364524685
0.0127214147 0.0157020185 -0.0029351437
0.0168184880 0.0152881425 -0.0048960098
0.0179531872 0.0155059453 -0.0036483505
-0.0173189212 0.0085843652 -0.0011841380
-0.0091827940 0.0145323519 -0.0022498989
-0.0262953620 0.0118765663 0.0052797250
-0.0042794738 0.0134891886 -0.0023641312
-0.0022568011 0.0135776941 -0.0024072775
-0.0012504195 0.0135680865 -0.0024256357
-0.0002463420 0.0135586318 -0.0024463260
-0.0290227477 0.0114606824 0.0007104552
-0.0159458723 0.0162811708 -0.0010141754
-0.0153921749 0.0164097268 -0.0007486814
-0.0144537110 0.0163255464 -0.0014983215
-0.0139115211 0.0162473489 -0.0022479692
-0.0132199917 0.0162378419 -0.0022417181
0.0257632434 0.0113094803 0.0032103932
-0.0102568846 0.0162024330 -0.0021792524
-0.0292585362 0.0135474037 0.0106678065
-0.0082594547 0.0125490595 -0.0022323304
-0.0480756611 0.0204792190 0.0370771699
-0.0473147184 0.0204213616 0.0366086476
0.0127202980 0.0159171913 -0.0029351437
0.0167041756 0.0157160517 -0.0048326799
0.0179526620 0.0158253442 -0.0036535510
0.0188044906 0.0156095866 -0.0036514648
0.0277104136 0.0085345581 -0.0015201815
-0.0012641305 0.0160702746 -0.0024588057
0.0097162016 0.0136073921 -0.0027653896
0.0107759181 0.0135677587 -0.0028514215
0.0117544439 0.0136675332 -0.0028941580
0.0138013558 0.0137660746 -0.0028955885
0.0147710396 0.0135471877 -0.0029023536
0.0188280437 0.0133322384 -0.0035327547
-0.0174465645 0.0164589491 -0.0005612620
-0.0159513112 0.0166177731 -0.0010141754
-0.0154088903 0.0166377258 -0.0007174411
-0.0144572128 0.0165485647 -0.0014983215
-0.0139020961 0.0164655019 -0.0022792020
-0.0132233109 0.0164590087 -0.0022417181
-0.0102623198 0.0164236184 -0.0021730089
-0.0301258415 0.0141932722 0.0107562970
-0.0292412397 0.0142794680 0.0107208993
-0.0122652780 0.0075681675 -0.0006393441
0.0259773489 0.0143948104 0.0094756540
0.0166969523 0.0159323830 -0.0047780150
0.0179519355 0.0160386655 -0.0036535510
0.0188033693 0.0160358753 -0.0036535510
-0.0012686530 0.0162891541 -0.0024509975
-0.0092047285 0.0155242775 -0.0022229576
-0.0291853752 0.0127763283 0.0106968042
-0.0072528999 0.0154954214 -0.0022854158
-0.0062504318 0.0155595224 -0.0023048990
-0.0052910578 0.0155986641 -0.0023232871
-0.0112592373 0.0115084816 -0.0018434622
-0.0310419500 0.0126506295 0.0105272513
0.0278339013 0.0133792739 0.0093988683
-0.0156795960 0.0109390896 -0.0028414377
-0.0246555898 0.0124369320 0.0072163022
0.0013506191 0.0072481818 -0.0005196207
-0.0032729076 0.0145687182 -0.0023963102
-0.0002505907 0.0145361703 -0.0024603778
0.0127185844 0.0162400473 -0.0029351437
0.0277103838 0.0069126803 -0.0015045651
0.0167920496 0.0161514636 -0.0046947249
0.0179511961 0.0162520353 -0.0036535510
0.0188026950 0.0162491966 -0.0036535510
0.0277104415 0.0095081590 -0.0015245625
-0.0390904397 0.0178314652 0.0369210057
-0.0082854498 0.0155107845 -0.0022495040
0.0097706057 0.0075561870 -0.0010624551
-0.0244000871 0.0143360998 0.0066228337
-0.0171288159 0.0170564894 -0.0013109096
-0.0159587655 0.0170667823 -0.0010141754
-0.0156193953 0.0170924310 -0.0007018247
0.0138887819 0.0047678445 0.0010442263
0.0117467474 0.0163533781 -0.0029325434
0.0127168354 0.0165630039 -0.0029351437
0.0188026242 0.0164619256 -0.0036597946
-0.0042883735 0.0145807546 -0.0023691305
-0.0022587327 0.0145564619 -0.0024303817
-0.0012511571 0.0145455394 -0.0024525844
-0.0022659672 0.0155370738 -0.0024385178
-0.0002542955 0.0155138727 -0.0024791383
0.0067493375 0.0125737097 -0.0026349523
-0.0314987898 0.0154744592 0.0179924574
-0.0122409482 0.0085346755 -0.0010652938
0.0127156414 0.0167783778 -0.0029351437
0.0047545005 0.0149121191 -0.0026774504
-0.0092258547 0.0165171903 -0.0022010976
-0.0083050411 0.0165021885 -0.0022303783
-0.0072564986 0.0165774953 -0.0022596517
-0.0062516276 0.0165812802 -0.0022791722
-0.0052310620 0.0165669303 -0.0022991546
-0.0182461310 0.0156954955 -0.0029710629
0.0007548614 0.0148499589 -0.0025056549
0.0017096980 0.0148505922 -0.0025464320
-0.0199433360 0.0082623065 -0.0006393516
0.0107805841 0.0145313907 -0.0029070401
0.0117569864 0.0145240929 -0.0029351511
0.0138020627 0.0145156626 -0.0029226565
0.0147714438 0.0145107750 -0.0029331991
-0.0267344248 0.0122433994 0.0077473051
0.0030312615 0.0129106585 -0.0025915601
0.0038123189 0.0128814150 -0.0025950172
0.0277104676 0.0078855287 -0.0015264251
0.0277103111 0.0103753153 -0.0014941567
-0.0274439957 0.0149905439 0.0119015854
0.0155282021 0.0148258414 -0.0029802644
-0.0308035091 0.0154055376 0.0171491038
0.0117356796 0.0172193553 -0.0028960952
0.0127122132 0.0172099713 -0.0029289001
0.0261364877 0.0109470841 0.0015002615
0.0007172453 0.0165064838 -0.0024880120
0.0087614916 0.0063544028 -0.0001690784
0.0027731287 0.0135251749 -0.0026013278
0.0037679097 0.0135162603 -0.0026306161
-0.0002689303 0.0164960455 -0.0024616295
0.0067374501 0.0135989469 -0.0027211928
-0.0148223173 0.0134656075 0.0006412840
-0.0122437570 0.0095562302 -0.0014809691
-0.0193324219 0.0158285517 -0.0030913227
0.0047480818 0.0155622270 -0.0026712143
-0.0092505794 0.0174025986 -0.0021679127
-0.0082955491 0.0174053665 -0.0021983408
-0.0072981808 0.0174352061 -0.0022271299
-0.0062771644 0.0174644347 -0.0022375458
-0.0052548256 0.0174487252 -0.0022604414
-0.0137798209 0.0083396360 -0.0006549680
0.0107500423 0.0173412357 -0.0028258287
0.0117317755 0.0174368117 -0.0028804787
-0.0170732159 0.0166441593 -0.0020917901
-0.0159550253 0.0168422479 -0.0010141754
-0.0102468226 0.0159801152 -0.0021979907
-0.0488839597 0.0229087602 0.0362650566
-0.0485098436 0.0228933748 0.0362025909
-0.0022829974 0.0165216532 -0.0024166205
-0.0360208377 0.0152930748 0.0223966222
-0.0092724394 0.0179585759 -0.0021308311
-0.0082343761 0.0179394092 -0.0021667578
-0.0072034094 0.0179218110 -0.0021933042
-0.0062955189 0.0179084148 -0.0022011125
-0.0052709151 0.0178915691 -0.0022292235
-0.0283254441 0.0117256325 0.0028511784
-0.0042794924 0.0155482274 -0.0023548030
-0.0032835023 0.0155514237 -0.0023943656
-0.0012575050 0.0155249257 -0.0024627321
0.0007737039 0.0156440716 -0.0025074729
0.0017503819 0.0157073122 -0.0025431612
0.0025230593 0.0160246957 -0.0025603198
0.0187042616 0.0058315899 -0.0000302666
-0.0254000593 0.0138441008 0.0082002115
-0.0022015811 0.0175110009 -0.0023533725
-0.0159505997 0.0148292314 -0.0009517097
-0.0152676087 0.0147573147 -0.0008007386
-0.0139546860 0.0148458872 -0.0018106722
-0.0482444167 0.0232799556 0.0369522385
0.0057202261 0.0165311676 -0.0026524761
-0.0477561355 0.0208167117 0.0374207608
0.0137994979 0.0154817123 -0.0029351288
0.0147697208 0.0154758673 -0.0029507601
0.0155700790 0.0155763272 -0.0030769059
-0.0492485017 0.0234155897 0.0360776447
-0.0483825430 0.0233287346 0.0359475128
0.0078085065 0.0118759703 -0.0025915527
0.0260372180 0.0116450060 0.0064978949
-0.0254571643 0.0142198671 0.0083095413
0.0037653747 0.0144888852 -0.0026490265
0.0067386348 0.0145676266 -0.0027555623
-0.0124159511 0.0101941433 -0.0015529864
0.0194406472 0.0166728552 -0.0036639669
-0.0173215363 0.0136142466 -0.0030203187
-0.0493802354 0.0227654781 0.0367648266
-0.0092847366 0.0182922687 -0.0021113181
-0.0082482491 0.0182732772 -0.0021417760
-0.0072163101 0.0182550680 -0.0021698871
-0.0063080806 0.0182413440 -0.0021776953
-0.0052846167 0.0182246398 -0.0022011125
0.0097527653 0.0181154665 -0.0027321079
0.0107346941 0.0181044396 -0.0027664774
0.0117200632 0.0180899259 -0.0028336220
0.0057491604 0.0137151312 -0.0026915171
-0.0502620637 0.0238400083 0.0359370820
-0.0494325086 0.0237894077 0.0356715880
-0.0481090173 0.0237639900 0.0357340686
0.0027673228 0.0144997705 -0.0026071914
0.0027663393 0.0076355767 -0.0009881579
-0.0092971381 0.0186261889 -0.0020917901
-0.0082666967 0.0186089482 -0.0021042847
-0.0072320644 0.0185895246 -0.0021386468
-0.0063260440 0.0185764413 -0.0021386468
-0.0052963961 0.0185572337 -0.0021792524
0.0160627160 0.0159161668 -0.0038878196
0.0167386662 0.0166043174 -0.0039770552
0.0178488232 0.0166735481 -0.0037082084
0.0057531036 0.0145758782 -0.0027352446
-0.0262321290 0.0066035856 0.0004955283
-0.0062214751 0.0187971462 -0.0021230229
-0.0051948894 0.0187788364 -0.0021542632
0.0037538989 0.0155732837 -0.0026365318
-0.0153327491 0.0155970659 -0.0007861578
-0.0139724668 0.0160413031 -0.0020917901
-0.0132294949 0.0160197746 -0.0022104853
0.0007191135 0.0058079176 0.0002446077
-0.0480140522 0.0241941568 0.0367960595
-0.0121987779 0.0139157604 -0.0021230304
-0.0255564321 0.0121899676 0.0069351918
0.0057706703 0.0173356589 -0.0026013278
-0.0093121547 0.0188512411 -0.0020605572
-0.0082812887 0.0188337322 -0.0020730519
-0.0072435346 0.0188130271 -0.0021152147
0.0017815216 0.0184511077 -0.0023416751
0.0027599039 0.0184486490 -0.0024063610
0.0188030303 0.0167803969 -0.0036754259
-0.0102706123 0.0167555641 -0.0021636360
-0.0042075533 0.0165509861 -0.0023385310
-0.0033010410 0.0165372398 -0.0023728856
-0.0012808458 0.0167282950 -0.0024249651
-0.0516199693 0.0241809096 0.0332040004
-0.0501860976 0.0241607856 0.0333601795
-0.0062289964 0.0190191884 -0.0021105283
-0.0052031893 0.0190009903 -0.0021386468
0.0157014243 0.0058332141 0.0002274266
0.0027816056 0.0155363735 -0.0026002475
0.0194397792 0.0175245535 -0.0036847838
-0.0121898893 0.0146842543 -0.0021698722
-0.0093186218 0.0190735217 -0.0020527490
-0.0082892124 0.0190563370 -0.0020605572
-0.0076064821 0.0190458056 -0.0020605572
-0.0522025153 0.0225015003 0.0331207179
0.0017337746 0.0165803637 -0.0025103712
0.0017665906 0.0188929122 -0.0023026266
0.0027770570 0.0188740548 -0.0023666644
0.0037591739 0.0185079183 -0.0024464154
0.0097786188 0.0165929999 -0.0028164634
0.0107656866 0.0165792760 -0.0028888979
0.0027001186 0.0166153777 -0.0025357925
0.0035048297 0.0167612117 -0.0025558495
-0.0032570118 0.0185239594 -0.0022316971
-0.0154081415 0.0168615747 -0.0007278495
-0.0144884679 0.0168899130 -0.0014358484
-0.0139331315 0.0168041494 -0.0022167289
0.0264633801 0.0109672155 0.0019375510
-0.0092189666 0.0192968827 -0.0020230659
-0.0081899408 0.0192796793 -0.0020293170
-0.0072720218 0.0192625429 -0.0020527416
-0.0062407088 0.0192429554 -0.0020855390
-0.0052166078 0.0192252826 -0.0021074065
-0.0232683849 0.0143132266 0.0047643459
0.0147600947 0.0175196510 -0.0029507675
0.0160372276 0.0178512316 -0.0037472569
0.0167899448 0.0178644005 -0.0047389739
0.0027715603 0.0190940071 -0.0023541697
0.0037737752 0.0190781001 -0.0023963326
-0.0179006774 0.0206448119 0.0057638711
-0.0173889305 0.0205943119 0.0054358966
-0.0393433943 0.0188008901 0.0374207608
0.0156722758 0.0165889319 -0.0031662830
-0.0479380712 0.0245759916 0.0358152799
-0.0159230400 0.0138719287 -0.0018106722
-0.0517792255 0.0228426885 0.0335475914
-0.0062524881 0.0194668975 -0.0020605572
-0.0052224118 0.0194467138 -0.0020995983
0.0029688946 0.0162349176 -0.0025915527
0.0038562941 0.0164433476 -0.0026011714
-0.0022783705 0.0192870926 -0.0021698871
-0.0012730525 0.0192741137 -0.0021698796
-0.0173060652 0.0164516177 -0.0010985159
-0.0132310186 0.0167915244 -0.0022354745
-0.0189334471 0.0194002222 -0.0026540258
-0.0042902473 0.0091547314 -0.0015233182
-0.0122072827 0.0155686829 -0.0021558055
-0.0092318337 0.0195216332 -0.0019980767
-0.0082046483 0.0195049960 -0.0019980841
-0.0072809290 0.0194855575 -0.0020371252
0.0188025255 0.0175252762 -0.0036972859
-0.0122338850 0.0165664162 -0.0021249675
-0.0113098864 0.0165522527 -0.0021347278
0.0160728823 0.0184534360 -0.0040674233
0.0166904926 0.0185165498 -0.0048190081
0.0037639926 0.0193003584 -0.0023650997
-0.0012398732 0.0184963997 -0.0022516870
-0.0176657643 0.0209215265 0.0060918382
-0.0192475226 0.0165322442 -0.0031038173
-0.0062601622 0.0196893569 -0.0020480626
-0.0052359272 0.0196713638 -0.0020683655
-0.0032997967 0.0194155928 -0.0021313452
-0.0022967921 0.0196228977 -0.0021230229
-0.0012890471 0.0196088124 -0.0021292665
-0.0113401208 0.0125063751 -0.0019734004
-0.0170320999 0.0160447266 -0.0025603198
-0.0172255617 0.0156611335 -0.0028668218
0.0087978467 0.0068930108 -0.0007111900
-0.0164241139 0.0198444780 0.0028355694
-0.0163738672 0.0195168536 0.0015627271
-0.0012730339 0.0175179113 -0.0023692125
-0.0002653019 0.0175673719 -0.0023769536
0.0006972684 0.0175840687 -0.0023900592
0.0017029068 0.0175692942 -0.0024291226
-0.0179425236 0.0202741679 0.0046862490
-0.0172274727 0.0204640795 0.0050506643
0.0037560745 0.0195217859 -0.0023416751
-0.0122502502 0.0175626371 -0.0021230080
-0.0113037322 0.0175694320 -0.0021200352
0.0147512909 0.0184929911 -0.0029226565
-0.0326572433 0.0156155918 0.0197728630
0.0057416875 0.0155506898 -0.0027152398
-0.0491683707 0.0253122207 0.0329853557
0.0187911391 0.0193493273 -0.0036473149
0.0166119151 0.0104822498 -0.0042626359
0.0036901145 0.0175578874 -0.0025199824
-0.0156719629 0.0174839515 -0.0007330650
-0.0146802384 0.0175713319 -0.0009985664
-0.0140052792 0.0175956246 -0.0020730519
-0.0132149924 0.0175543595 -0.0022583553
-0.0135644507 0.0177546162 -0.0025915527
-0.0165700335 0.0152004492 -0.0028726705
0.0027584045 0.0195354093 -0.0023208358
0.0037518109 0.0197412875 -0.0023338669
-0.0082485359 0.0135317426 -0.0022901022
0.0055673942 0.0178319383 -0.0025603124
0.0117066186 0.0186377969 -0.0027731308
0.0067579243 0.0175108891 -0.0026302361
0.0137781166 0.0185016673 -0.0028963932
0.0117265712 0.0177628007 -0.0028609657
-0.0042385180 0.0175436195 -0.0022791796
-0.0032173002 0.0175266918 -0.0023197853
0.0027064721 0.0175545868 -0.0024713301
0.0046707168 0.0176826585 -0.0025491738
-0.0219802652 0.0214918759 0.0060918382
-0.0499382690 0.0255843606 0.0325480662
-0.0493021756 0.0255742650 0.0326105468
0.0218347479 0.0213223379 0.0104960036
0.0187887140 0.0196723472 -0.0036348128
-0.0062839519 0.0201380681 -0.0019980767
-0.0052554253 0.0201180447 -0.0020293170
0.0160706975 0.0119870137 -0.0038409629
0.0163559914 0.0111076068 -0.0044344314
0.0041690227 0.0170928370 -0.0025915527
-0.0032186599 0.0200839471 -0.0020605572
0.0047521945 0.0128628146 -0.0026071616
-0.0112781683 0.0135752391 -0.0021167644
0.0127144260 0.0169938076 -0.0029351437
-0.0092661772 0.0201952439 -0.0019356110
-0.0082352180 0.0201767962 -0.0019434192
-0.0073133800 0.0201575551 -0.0019746595
0.0037438220 0.0199630130 -0.0023104348
0.0178413056 0.0185963381 -0.0037081935
0.0216487832 0.0209523458 0.0095277112
0.0194376744 0.0181654524 -0.0036847838
-0.0479807630 0.0245843213 0.0348334424
0.0137628550 0.0194822568 -0.0028305151
0.0147376927 0.0194723811 -0.0028609731
0.0155011602 0.0185079854 -0.0030199238
-0.0012937596 0.0198293831 -0.0021230229
0.0063442774 0.0179457944 -0.0025603198
-0.0500659049 0.0230333116 0.0371708833
-0.0169092249 0.0215410348 0.0054358966
-0.0484159738 0.0227668192 0.0367898159
0.0155671574 0.0175235700 -0.0030176961
-0.0478328094 0.0252228957 0.0358798169
-0.0475467965 0.0257038679 0.0360568278
-0.0209140200 0.0221211445 0.0091997441
-0.0203970354 0.0220711287 0.0089030098
0.0220482275 0.0216375235 0.0110269990
0.0187860560 0.0198892560 -0.0036160671
-0.0182658043 0.0165806320 -0.0029616975
-0.0172804240 0.0165954921 -0.0028643557
-0.0062917788 0.0203609448 -0.0019855821
-0.0052665602 0.0203421619 -0.0020058923
-0.0023195853 0.0201798733 -0.0020722770
-0.0003023909 0.0202590059 -0.0020995983
-0.0159678962 0.0187140387 -0.0000354745
0.0235102661 0.0218758415 0.0109957661
-0.0022446436 0.0185089801 -0.0022495040
-0.0153693650 0.0205908176 0.0020000241
-0.0002355443 0.0185922477 -0.0022655153
0.0007693751 0.0185780991 -0.0022869804
-0.0512366295 0.0247235429 0.0330243967
0.0097630415 0.0175706055 -0.0027672746
0.0107417796 0.0177768599 -0.0027945959
-0.0166736189 0.0212239232 0.0048736609
0.0228277054 0.0206508506 0.0100274738
-0.0188839976 0.0174923595 -0.0029663914
-0.0182333458 0.0175633822 -0.0028771409
0.0137503110 0.0200318079 -0.0027664774
0.0147298491 0.0200176295 -0.0028258138
0.0155251967 0.0195417460 -0.0029175826
-0.0493631661 0.0260804351 0.0317984335
-0.0092352685 0.0115814004 -0.0020246156
-0.0243670214 0.0227687713 0.0116204750
-0.0228902977 0.0228159633 0.0122139435
-0.0112686623 0.0145626608 -0.0021718168
-0.0223370846 0.0227160696 0.0115580019
-0.0173081663 0.0175768491 -0.0027899169
-0.0164411496 0.0206374321 0.0040303147
0.0077162664 0.0155308153 -0.0027789646
0.0107755754 0.0154998358 -0.0029088878
-0.0493674874 0.0248398613 0.0331415348
-0.0483987778 0.0245505068 0.0341371559
0.0072227214 0.0181518029 -0.0025915527
-0.0153514165 0.0184981283 -0.0001760297
-0.0152058918 0.0182652306 -0.0008944371
-0.0143438522 0.0186907928 -0.0012952858
-0.0140856225 0.0184772070 -0.0018210881
-0.0132323103 0.0185589362 -0.0021046423
0.0018169845 0.0075840373 -0.0007836097
-0.0282933805 0.0105236825 0.0005491278
0.0064115487 0.0049556326 0.0005632020
0.0179304183 0.0201094244 -0.0036014863
-0.0188587438 0.0186054539 -0.0027789646
0.0229142252 0.0220830161 0.0107146483
-0.0242908169 0.0230366457 0.0117350053
0.0097416230 0.0186617132 -0.0026930743
0.0107236430 0.0186506342 -0.0027243146
-0.0224380437 0.0230013747 0.0117766466
0.0161163695 0.0125983823 -0.0042345249
-0.0279240366 0.0088302158 0.0004382632
0.0047658086 0.0185298678 -0.0024847263
0.0067484211 0.0186172333 -0.0025186785
0.0190874599 0.0206838306 -0.0010141754
0.0016969985 0.0084251408 -0.0013513365
0.0194143988 0.0201176610 -0.0034973719
0.0127064995 0.0176435355 -0.0029080831
0.0037251769 0.0204084869 -0.0022531622
0.0227059107 0.0218558479 0.0108395945
-0.0182698239 0.0185935777 -0.0027809390
0.0168601926 0.0198818650 -0.0045125210
-0.0486521274 0.0266121235 0.0313923620
-0.0042788554 0.0185418967 -0.0021932819
-0.0488458723 0.0268237423 0.0329228900
-0.0112667177 0.0195465032 -0.0020755329
-0.0283041801 0.0113178659 0.0006524450
-0.0495468229 0.0241728704 0.0349375568
0.0107059497 0.0195258912 -0.0026587271
-0.0159607884 0.0219961051 0.0036867238
0.0096995421 0.0154945161 -0.0028401264
0.0047512669 0.0195088219 -0.0023628795
-0.0481345430 0.0253449436 0.0339661501
-0.0477273166 0.0258239191 0.0349219404
-0.0082530994 0.0206243526 -0.0019147792
-0.0147813540 0.0191585626 -0.0002489113
0.0190189015 0.0210137088 -0.0002489113
0.0186419822 0.0209168997 -0.0009360933
0.0237523839 0.0223687682 0.0110145044
-0.0032059045 0.0198594313 -0.0020917901
0.0057133790 0.0204913970 -0.0022889399
-0.0023044904 0.0198449325 -0.0021074065
-0.0153429080 0.0211971086 0.0022030524
-0.0002786831 0.0195928682 -0.0021542409
0.0007361250 0.0195736494 -0.0022067078
0.0017489123 0.0195543412 -0.0022635558
0.0115486663 0.0207270477 -0.0025603273
-0.0480653048 0.0237926003 0.0371021591
0.0216656290 0.0217622202 0.0101385396
0.0223261565 0.0220320504 0.0103398245
0.0147189377 0.0204593819 -0.0027633556
0.0178535804 0.0195444692 -0.0036597946
-0.0502640978 0.0247288626 0.0329714678
0.0057490766 0.0184813570 -0.0025088959
0.0076181293 0.0188317578 -0.0025525042
-0.0510627255 0.0236745682 0.0370771699
-0.0501923934 0.0235131364 0.0367544107
0.0204014145 0.0217680912 0.0087530743
-0.0482939109 0.0270577800 0.0325168334
-0.0475452766 0.0252009463 0.0366086476
-0.0204592478 0.0230750274 0.0089967158
-0.0122899916 0.0195601638 -0.0021105134
-0.0501005724 0.0240775030 0.0353279971
0.0077248085 0.0165313203 -0.0027536922
0.0160966795 0.0133494902 -0.0040908479
-0.0499527156 0.0258913469 0.0313767456
-0.0500322953 0.0254204404 0.0320326798
-0.0491930917 0.0256976243 0.0320118628
-0.0131838229 0.0195417684 -0.0020900392
0.0184582584 0.0212514196 -0.0001552054
0.0183214024 0.0211250056 -0.0010297918
0.0237499401 0.0228660535 0.0110582393
0.0059184246 0.0210415591 -0.0022479692
-0.0150611047 0.0219838675 0.0020624972
0.0201649480 0.0220068227 0.0067165396
-0.0490256846 0.0240036901 0.0349219404
-0.0228250865 0.0218262877 0.0085281860
0.0147090293 0.0209006611 -0.0027086833
0.0154728610 0.0205639657 -0.0027581626
0.0208393000 0.0219173562 0.0099259596
-0.0132894460 0.0121098999 -0.0010766410
-0.0475444868 0.0263323877 0.0357028209
0.0117552523 0.0211667698 -0.0025165924
0.0077726226 0.0064916257 -0.0001583197
-0.0498705134 0.0242616143 0.0342972390
-0.0223726388 0.0234829094 0.0115996506
-0.0173501242 0.0185803566 -0.0027399384
-0.0235013831 0.0133644734 0.0047487221
-0.0476031750 0.0265474860 0.0349635743
0.0182545986 0.0214467738 -0.0003426173
-0.0112817092 0.0155551266 -0.0021714219
-0.0169929024 0.0185701642 -0.0020694756
0.0237509012 0.0231071394 0.0110269915
-0.0252395365 0.0122211818 0.0076301671
-0.0174621809 0.0173623767 -0.0005612620
-0.0159042645 0.0174997058 -0.0011599311
0.0056191124 0.0211936925 -0.0022271448
0.0201135650 0.0218719076 0.0074349544
0.0203322303 0.0219064858 0.0076848320
-0.0188904572 0.0198623184 -0.0025134706
0.0229109377 0.0230670925 0.0107458811
-0.0012577658 0.0204663109 -0.0020662197
0.0117484946 0.0213891137 -0.0024853596
-0.0242422987 0.0235671084 0.0118976738
-0.0032754184 0.0214252565 -0.0019408041
-0.0492074117 0.0244661998 0.0340056978
-0.0223800633 0.0239889827 0.0115892347
-0.0483546332 0.0238860678 0.0351218395
-0.0221351739 0.0219306108 0.0075598932
0.0007297250 0.0205522534 -0.0021410906
0.0047165696 0.0205063876 -0.0022573122
-0.0478501618 0.0265022572 0.0341801159
0.0182356536 0.0216966253 -0.0001552054
0.0237493142 0.0233575273 0.0110582393
-0.0032435970 0.0206428934 -0.0020058700
-0.0022295543 0.0207357164 -0.0020251372
0.0056851897 0.0214875881 -0.0022089207
-0.0151726436 0.0224865321 0.0023123748
-0.0002758594 0.0207203534 -0.0020629489
0.0017178098 0.0205505248 -0.0021893852
-0.0234325100 0.0241395067 0.0124638211
0.0084815510 0.0196946617 -0.0025446960
0.0217291564 0.0226187352 0.0101680588
0.0223224610 0.0226490181 0.0103866812
-0.0182704348 0.0194887016 -0.0026665279
0.0117961429 0.0195131768 -0.0026946389
0.0077080354 0.0125199240 -0.0026490265
-0.0062720235 0.0199136231 -0.0020230659
-0.0052443724 0.0198940989 -0.0020527416
-0.0042905081 0.0195632707 -0.0020972961
0.0202578865 0.0225200374 0.0054046637
-0.0172692034 0.0159465577 -0.0012172037
0.0117417164 0.0216116626 -0.0024541267
-0.0122549105 0.0205892529 -0.0020177909
-0.0290546771 0.0089135636 0.0003549657
-0.0042520259 0.0215319078 -0.0019043633
-0.0032935904 0.0218730401 -0.0019043782
0.0077052414 0.0174757708 -0.0026966208
-0.0290174466 0.0106945429 0.0005185879
-0.0499726608 0.0264982115 0.0313767456
-0.0497754738 0.0260721799 0.0316422395
-0.0168269295 0.0218682867 0.0052172518
-0.0130693819 0.0205582585 -0.0022323602
0.0022136609 0.0145052876 -0.0025915601
0.0257046334 0.0116081070 0.0057638711
0.0237482190 0.0236062314 0.0110769775
-0.0475124717 0.0244615432 0.0370521955
-0.0158051047 0.0224057715 0.0032806671
-0.0164151359 0.0231046882 0.0047487221
0.0227411240 0.0226449948 0.0106487107
0.0132775651 0.0215838533 -0.0025603198
0.0147763966 0.0213574860 -0.0026562610
-0.0227743480 0.0220557805 0.0084032472
0.0077173337 0.0135930721 -0.0027239793
0.0087446924 0.0135579538 -0.0027250149
0.0027445743 0.0199775528 -0.0022854456
-0.0490468070 0.0258881059 0.0327354781
0.0057476703 0.0194941219 -0.0023994320
0.0067386422 0.0195898507 -0.0024275505
-0.0210924577 0.0242020059 0.0098088291
-0.0204958934 0.0240720641 0.0090279486
0.0117349122 0.0218344163 -0.0024228790
-0.0187577438 0.0208029356 0.0069039525
0.0178459268 0.0175272319 -0.0037113153
-0.0160249230 0.0231897216 0.0037804297
-0.0477883071 0.0275544729 0.0340056978
-0.0473692045 0.0273283999 0.0346928798
-0.0083242971 0.0221979450 -0.0017950558
0.0183531195 0.0221262109 -0.0002489113
-0.0185148399 0.0198483635 -0.0025603198
-0.0170494337 0.0192028563 -0.0021230229
-0.0172892753 0.0195435304 -0.0027596303
0.0096830372 0.0145446751 -0.0028180205
0.0202979296 0.0226685610 0.0048424280
-0.0022597776 0.0215172227 -0.0019621500
0.0183409471 0.0219254848 -0.0001083487
0.0127990600 0.0195297245 -0.0027587735
-0.0188134070 0.0200937148 -0.0024353811
-0.0272183660 0.0127688590 0.0106482860
-0.0478844494 0.0245890897 0.0366398804
0.0133820605 0.0218030345 -0.0025447034
0.0147993369 0.0217822473 -0.0026165345
0.0155116068 0.0214427803 -0.0026774430
-0.0251584444 0.0236632209 0.0124325883
0.0077381991 0.0195707139 -0.0025037252
-0.0508196801 0.0280883070 0.0327667110
-0.0478730053 0.0286228154 0.0328708403
-0.0212493483 0.0227261093 0.0099493843
-0.0210850667 0.0244470816 0.0097775962
-0.0201183241 0.0242675040 0.0087364223
-0.0191362072 0.0242171269 0.0085516106
0.0166841522 0.0173257235 -0.0043228888
0.0097124260 0.0207832623 -0.0025264868
-0.0229057241 0.0235127788 0.0120890047
-0.0223688427 0.0243625622 0.0115423854
-0.0165602695 0.0197522622 -0.0029976168
-0.0161068682 0.0234560054 0.0039678416
0.0007809123 0.0215706732 -0.0020542988
