# .PCD v0.7 - Point Cloud Data file format
VERSION 0.7
FIELDS x y z
SIZE 4 4 4
TYPE F F F
COUNT 1 1 1
WIDTH 1193
HEIGHT 1
VIEWPOINT 0 0 0 1 0 0 0
POINTS 1193
DATA ascii
-0.0545175336 0.0197244771 0.0262572765
-0.0035832075 0.0180035532 -0.0014670864
-0.0026740541 0.0179831944 -0.0015920252
-0.0134779736 0.0148525238 -0.0003951490
-0.0096083991 0.0158433616 -0.0008720458
-0.0546145476 0.0203425288 0.0278784037
-0.0505682342 0.0182921141 0.0330790728
-0.0553167872 0.0176060684 0.0291278213
-0.0549355038 0.0180240832 0.0292996168
0.0230926014 0.0131195858 0.0013753176
-0.0144349597 0.0182006657 -0.0007018223
0.0164019428 0.0174321197 -0.0061992183
-0.0116010457 0.0157907307 -0.0006788075
0.0220440086 0.0180891417 0.0032025799
0.0053461157 0.0148649924 -0.0026680604
0.0053757969 0.0167942457 -0.0026284605
-0.0486659817 0.0221305862 0.0330478400
0.0106090382 0.0168175623 -0.0032854304
-0.0035897659 0.0182201639 -0.0014514700
-0.0026804020 0.0181993842 -0.0015764087
0.0234228764 0.0139001608 0.0023956746
-0.0540899523 0.0207495503 0.0259418190
-0.0582175069 0.0226530656 0.0383109599
0.0397629626 0.0194838531 0.0357913375
0.0164000001 0.0176365376 -0.0061836019
0.0013833663 0.0159817338 -0.0021542683
0.0020227956 0.0160145015 -0.0022260994
-0.0491882600 0.0217006020 0.0331259221
0.0426662676 0.0178818777 0.0349479914
0.0429731943 0.0181809627 0.0350625068
0.0033355227 0.0178656317 -0.0023104399
0.0043223295 0.0178473480 -0.0024297461
0.0054183733 0.0178254656 -0.0025834218
0.0123209609 0.0147810392 -0.0035192370
-0.0086118244 0.0185404941 -0.0009360909
-0.0076931082 0.0185214095 -0.0010219887
-0.0129693002 0.0136246681 -0.0002332926
-0.0163802989 0.0129236691 0.0003155619
0.0101221167 0.0169952661 -0.0032205135
0.0113521200 0.0168826766 -0.0033599585
-0.0490089916 0.0216507204 0.0343076587
0.0220971983 0.0150589384 0.0023779795
0.0226718914 0.0152053349 0.0032806695
-0.0156754963 0.0158189200 0.0015852898
0.0064015649 0.0178055465 -0.0027274042
0.0073815715 0.0177853592 -0.0028782710
0.0164011512 0.0172307119 -0.0061836019
0.0099750087 0.0161671527 -0.0032318756
0.0220710728 0.0092003923 0.0009848773
-0.0186025500 0.0092869475 0.0009692684
0.0234113000 0.0181099698 0.0058992282
0.0144194905 0.0147658028 -0.0036591664
0.0151778180 0.0147662535 -0.0036223084
-0.0542556383 0.0204900354 0.0262229443
-0.0545131601 0.0208617039 0.0251255631
-0.0540412702 0.0212661363 0.0253171176
0.0249955058 0.0116002709 0.0015158802
-0.0300386660 0.0155069642 0.0191325471
-0.0134530403 0.0118028782 0.0003155544
0.0230479930 0.0167311691 0.0072475523
-0.0546178408 0.0188274048 0.0290184915
0.0395259596 0.0180376545 0.0357809216
0.0227380600 0.0118797310 0.0001415312
-0.0194140412 0.0118120443 -0.0001682267
-0.0154961348 0.0179401264 0.0011566728
-0.0545330457 0.0175520927 0.0313038826
-0.0126654580 0.0181887969 -0.0005768761
-0.0006454343 0.0178329982 -0.0018594861
-0.0546896644 0.0166894533 0.0312674195
0.0241311919 0.0118961725 0.0006256774
0.0254249964 0.0113469269 0.0003081113
0.0217311587 0.0110550597 0.0014690310
-0.0551572852 0.0223544613 0.0244737715
0.0114249084 0.0178436972 -0.0033190176
0.0448225923 0.0178024136 0.0357809216
0.0176769197 0.0169323497 -0.0051428974
-0.0106617250 0.0168394111 -0.0007721037
0.0216989014 0.0184559487 0.0023904666
-0.0016551164 0.0178536437 -0.0017326102
-0.0168324299 0.0193556510 -0.0004727617
0.0036762806 0.0186860412 -0.0023065358
0.0044150259 0.0186983310 -0.0023911223
0.0123190116 0.0158216283 -0.0035317317
0.0144201461 0.0158026069 -0.0036929026
0.0150432102 0.0162159540 -0.0037003979
-0.0175789706 0.0178182945 -0.0005597100
-0.0545479544 0.0178125538 0.0300836265
-0.0290538073 0.0159650818 0.0181642547
-0.0546778105 0.0225173943 0.0245237499
-0.0146171674 0.0108388495 0.0012604743
-0.0175985247 0.0188095607 -0.0005495623
0.0191596728 0.0168272518 -0.0049263760
0.0217010267 0.0193300508 0.0022967607
-0.0491130389 0.0210441761 0.0342191607
-0.0066600628 0.0168042518 -0.0011662766
0.0092858402 0.0178120583 -0.0030884519
0.0133665837 0.0168536715 -0.0036054403
0.0023467077 0.0188305639 -0.0021337196
0.0037439282 0.0191414617 -0.0022635832
-0.0186221637 0.0178339891 -0.0005518794
-0.0544947796 0.0217629336 0.0248396695
-0.0540450774 0.0218028277 0.0249527097
-0.0130252056 0.0097059011 0.0008078739
0.0133560682 0.0179013982 -0.0035492182
-0.0554061271 0.0168934874 0.0296052694
-0.0547129400 0.0197367258 0.0282782167
-0.0046111308 0.0181343220 -0.0013296604
0.0003477114 0.0187644474 -0.0018978864
0.0021555426 0.0168783888 -0.0022073612
0.0163937472 0.0180484094 -0.0061263368
0.0233794767 0.0119951479 0.0003679842
-0.0006529109 0.0188254863 -0.0017638430
-0.0551809557 0.0161168799 0.0300336331
-0.0106233209 0.0188259892 -0.0006835833
0.0024174845 0.0193837844 -0.0020917803
0.0038492514 0.0193532072 -0.0022635832
-0.0202443264 0.0095185079 0.0012347624
0.0191846825 0.0158723854 -0.0048504248
-0.0250351392 0.0121855680 -0.0002332926
0.0253587514 0.0205532350 0.0094418218
-0.0106367096 0.0195785537 -0.0006206110
-0.0016437264 0.0173161216 -0.0017575696
0.0254787225 0.0203616247 0.0098556876
0.0176512804 0.0177998431 -0.0051131994
-0.0126217259 0.0168710500 -0.0006505772
-0.0016003454 0.0188042633 -0.0016597211
0.0222669784 0.0188736282 0.0041326955
-0.0552338921 0.0219431855 0.0246143192
-0.0549365915 0.0217980333 0.0246611834
0.0192563832 0.0148886703 -0.0047769845
0.0123722358 0.0177939348 -0.0034303218
-0.0005955601 0.0195620283 -0.0016919822
0.0024086109 0.0196005069 -0.0020605475
0.0043959450 0.0194483288 -0.0023260564
-0.0165917110 0.0204831436 0.0038741380
0.0231608208 0.0201490670 0.0073412517
0.0236332584 0.0202119127 0.0063261017
-0.0161860362 0.0152987726 0.0015158802
-0.0162059404 0.0143463351 0.0004226491
-0.0158983208 0.0146696791 0.0003383160
-0.0086238682 0.0119431634 -0.0007193908
-0.0547027402 0.0225132443 0.0247704983
0.0083766542 0.0158716515 -0.0030850470
-0.0155281872 0.0192818530 0.0011879057
-0.0149715692 0.0186108798 0.0000790656
-0.0125858784 0.0188508295 -0.0005097389
0.0184452739 0.0177470483 -0.0049885660
0.0257105064 0.0203047805 0.0093246847
0.0261796732 0.0203028880 0.0093038604
0.0192023739 0.0138156712 -0.0047051385
0.0231892653 0.0203509592 0.0055139884
-0.0167158581 0.0208507366 0.0051079327
-0.0016079561 0.0196934231 -0.0015660003
0.0144088641 0.0178876817 -0.0036504269
0.0150377247 0.0179847665 -0.0037003979
-0.0167916752 0.0158396997 -0.0004498586
0.0043885931 0.0197697245 -0.0023026243
-0.0566668399 0.0150226243 0.0350625068
-0.0540645830 0.0223564990 0.0247861147
-0.0540462472 0.0230089240 0.0242082626
-0.0553304963 0.0215345584 0.0247861147
-0.0136338472 0.0140303373 -0.0000215918
0.0161040481 0.0129711106 -0.0034869686
-0.0145362318 0.0198772885 0.0002102554
-0.0135088861 0.0188811384 -0.0005426705
0.0250034221 0.0206748098 0.0063573420
-0.0116160512 0.0178410895 -0.0006530210
-0.0106855184 0.0178223997 -0.0007369593
-0.0096468441 0.0181278326 -0.0008330047
0.0161008146 0.0192319266 -0.0040127486
0.0234134030 0.0201435871 0.0057014003
-0.0066473931 0.0178484395 -0.0011491179
-0.0057964325 0.0178868361 -0.0012223870
-0.0164004378 0.0201137252 0.0032962933
0.0226251706 0.0205648653 0.0053890496
-0.0163705274 0.0210455284 0.0048268139
-0.0016221178 0.0201276280 -0.0015295520
-0.0006101837 0.0199958198 -0.0016513690
-0.0168094970 0.0178153180 -0.0004706979
0.0102542462 0.0178662091 -0.0031881407
0.0224760938 0.0207511894 0.0070288926
0.0234684255 0.0205421224 0.0072319284
0.0231738091 0.0206114724 0.0064718649
0.0247746650 0.0207137764 0.0067009255
-0.0180645026 0.0211861394 0.0079503357
0.0004026594 0.0197557621 -0.0017911643
0.0402626880 0.0178730488 0.0357871652
0.0143870879 0.0121852867 -0.0032974631
-0.0126330219 0.0198470615 -0.0004207119
-0.0116997175 0.0198256075 -0.0004949048
0.0176811628 0.0187163837 -0.0050695390
0.0184412505 0.0187775567 -0.0049610808
0.0150401201 0.0167372562 -0.0036847815
0.0093915379 0.0196584612 -0.0029741749
0.0103549073 0.0196408480 -0.0030798465
-0.0036061851 0.0188694969 -0.0014170855
0.0153131858 0.0189887397 -0.0037212223
0.0236726440 0.0123083778 0.0029527023
0.0404482931 0.0196833350 0.0358225703
0.0229591336 0.0208285563 0.0057014003
-0.0048836116 0.0198661461 -0.0012157634
-0.0175945498 0.0128042996 -0.0005073100
-0.0551633649 0.0172874592 0.0299711674
-0.0194380693 0.0217926130 0.0088873953
-0.0190833434 0.0214197114 0.0099181533
0.0163221676 0.0186203681 -0.0064803362
0.0224682596 0.0212511159 0.0073464587
0.0229285359 0.0212594867 0.0074193403
0.0013997017 0.0198415071 -0.0018975213
0.0223965906 0.0148327500 0.0008911788
-0.0138555467 0.0145871751 -0.0001187548
-0.0519671999 0.0191169903 0.0317515731
0.0161276758 0.0143154152 -0.0041689277
-0.0173279531 0.0209494717 0.0018282309
0.0224406701 0.0194658898 0.0035930276
-0.0196257979 0.0218579769 0.0108552128
-0.0190232508 0.0220326111 0.0110426247
0.0233909450 0.0184749328 0.0073776916
0.0063783284 0.0188703947 -0.0026399493
-0.0169178024 0.0205523483 -0.0004269555
0.0083515132 0.0177689418 -0.0029929057
0.0163760688 0.0186773576 -0.0059493408
-0.0170241781 0.0214808807 0.0065135136
-0.0174151734 0.0114668664 -0.0002332926
0.0241477061 0.0206752084 0.0091268569
0.0253142137 0.0208708532 0.0080856830
0.0244197734 0.0214950293 0.0094183907
-0.0547117926 0.0175183490 0.0323554575
-0.0540591888 0.0244494006 0.0231306553
0.0225687996 0.0204070546 0.0081065148
0.0235542748 0.0208849981 0.0082158297
0.0245412905 0.0208764561 0.0081377551
-0.0116546489 0.0188313015 -0.0005815700
-0.0045687687 0.0205241106 -0.0011898577
-0.0039331671 0.0205474682 -0.0012328178
0.0110931844 0.0190325864 -0.0032256246
-0.0209174752 0.0221932568 0.0100430995
0.0046962295 0.0204097517 -0.0022635832
-0.0160663985 0.0214814469 0.0046394020
-0.0190289989 0.0214663744 0.0081845969
0.0231328458 0.0144937299 0.0000686496
-0.0145583488 0.0147520788 0.0004283264
-0.0086027198 0.0182132162 -0.0009516999
0.0230841674 0.0157790147 0.0073568672
-0.0137322098 0.0207364783 -0.0001551956
-0.0126717985 0.0206243657 -0.0003478155
0.0254296064 0.0216732770 0.0093246847
-0.0190758482 0.0222929828 0.0111675635
0.0063560270 0.0198319368 -0.0025564060
0.0013740121 0.0204932466 -0.0018137917
0.0023728220 0.0204692669 -0.0019356087
0.0033740590 0.0204419717 -0.0020886660
0.0042554755 0.0204209089 -0.0022011027
0.0224848706 0.0207050256 0.0066228360
0.0197447762 0.0213749073 0.0064198077
0.0202057436 0.0213642009 0.0063365176
-0.0476819091 0.0256162696 0.0350312740
-0.0546065085 0.0230107941 0.0240781307
0.0023062287 0.0179126300 -0.0021875352
-0.0045853313 0.0208541341 -0.0011469200
-0.0039045063 0.0208373331 -0.0012172014
-0.0548708402 0.0246991031 0.0226308927
0.0093820309 0.0187894292 -0.0030414686
0.0103702508 0.0187923275 -0.0031531379
0.0216688272 0.0217683315 0.0084188730
0.0115229292 0.0187090412 -0.0032912418
0.0123912413 0.0187594965 -0.0033708885
-0.0177437030 0.0216696672 0.0080596581
-0.0536982901 0.0233652852 0.0236304104
0.0263446327 0.0111239683 -0.0015264228
0.0229701065 0.0170233212 0.0051547810
0.0233165454 0.0204696544 0.0045535043
-0.0056702755 0.0188273601 -0.0011994839
-0.0116148517 0.0207058713 -0.0004535168
0.0253600925 0.0219738409 0.0094652474
-0.0538451187 0.0221437737 0.0303459913
-0.0136386231 0.0178464949 -0.0006310269
-0.0095826387 0.0187630318 -0.0007940382
0.0200765841 0.0211756527 0.0066853166
0.0168363508 0.0195535831 -0.0054079220
0.0171627738 0.0201340429 -0.0056838393
0.0215783492 0.0215080567 0.0088561624
0.0093704192 0.0205138288 -0.0028726608
0.0103375018 0.0204929896 -0.0029944852
-0.0186174400 0.0197896883 -0.0005442798
-0.0176252648 0.0198037922 -0.0005253553
-0.0513337813 0.0205910355 0.0355778784
0.0197547209 0.0215782896 0.0062011629
0.0202117618 0.0215762965 0.0061907545
-0.0224798582 0.0229239129 0.0132186785
-0.0045994483 0.0210757032 -0.0011078790
-0.0038017274 0.0210543387 -0.0012015849
-0.0546806343 0.0249673165 0.0225684196
0.0216319561 0.0220712870 0.0083407760
0.0219139066 0.0159357302 0.0026247352
-0.0148797594 0.0132660866 0.0011931211
-0.0145289786 0.0155756436 0.0000712574
-0.0137307197 0.0213453956 0.0000165924
0.0083671585 0.0168179087 -0.0030561611
0.0253602881 0.0222113729 0.0094730556
0.0259950086 0.0217899866 0.0095058456
-0.0483077802 0.0226010345 0.0324262679
-0.0036391148 0.0198481828 -0.0013382286
-0.0185511224 0.0127501823 -0.0003946796
-0.0204608962 0.0221271552 0.0095433295
0.0252387337 0.0213811658 0.0084501067
-0.0487378575 0.0264786370 0.0369990915
-0.0178669058 0.0212025307 0.0019844100
-0.0026096532 0.0188660584 -0.0015269443
-0.0168278813 0.0188062415 -0.0004623681
0.0177539401 0.0197206773 -0.0050513223
0.0053513087 0.0206073523 -0.0023447946
-0.0050889291 0.0190119632 -0.0012328178
-0.0157706216 0.0208952837 0.0035774037
0.0197558086 0.0218040943 0.0061699301
0.0202105436 0.0218085460 0.0062115714
-0.0291864350 0.0156883113 0.0178519040
-0.0160886757 0.0222557820 0.0052953437
-0.0046136454 0.0212975033 -0.0010688379
-0.0035864746 0.0212688968 -0.0011953339
0.0121212229 0.0201752223 -0.0032214597
-0.0176140405 0.0138641521 -0.0006343350
-0.0168800950 0.0139096417 -0.0003866330
0.0093797445 0.0201917142 -0.0029195249
0.0103448648 0.0201725028 -0.0030319691
0.0113681471 0.0198837072 -0.0031637102
0.0117822709 0.0194713213 -0.0032735243
0.0163801406 0.0195156783 -0.0048561022
-0.0539749078 0.0248516239 0.0229744762
-0.0494233258 0.0263393708 0.0383109748
-0.0557469614 0.0153850131 0.0332196355
-0.0143493153 0.0159942955 -0.0004571453
-0.0235159807 0.0236274414 0.0153999329
0.0234228969 0.0178073831 0.0050558671
-0.0086699203 0.0198591538 -0.0008111447
-0.0474557318 0.0241051055 0.0322200954
0.0184408743 0.0159095675 -0.0048673674
0.0253604520 0.0224490054 0.0094808647
-0.0185848065 0.0224558227 0.0105428621
0.0063908678 0.0207146965 -0.0024614036
-0.0482359491 0.0271149911 0.0372802019
-0.0186067931 0.0207552984 -0.0003702417
-0.0181190781 0.0211708918 -0.0002332926
-0.0105887577 0.0214503668 -0.0005144030
-0.0005099622 0.0203191712 -0.0016310662
-0.0470243730 0.0250929855 0.0331883878
-0.0464253835 0.0265001915 0.0325949192
-0.0224414393 0.0230149627 0.0152359456
-0.0545141362 0.0254898146 0.0222768933
0.0216292199 0.0225498937 0.0084188655
0.0124214450 0.0197524913 -0.0033053830
-0.0246840417 0.0124044977 -0.0002254844
-0.0175786689 0.0229203664 0.0085438043
-0.0216232985 0.0230532177 0.0151406825
-0.0209726840 0.0231551714 0.0150251091
-0.0006032826 0.0108999219 -0.0015496314
0.0233678836 0.0145222507 0.0011410564
-0.0136366934 0.0158183873 -0.0005834699
-0.0232672207 0.0238820426 0.0154311731
-0.0046232846 0.0215175003 -0.0010454133
-0.0035979950 0.0214894600 -0.0011641011
-0.0505209453 0.0245307870 0.0385608524
0.0253607035 0.0226887427 0.0095042884
0.0064229779 0.0212293155 -0.0024010167
0.0073683914 0.0207455941 -0.0025858656
-0.0026147270 0.0207746960 -0.0013781264
0.0173299760 0.0205738805 -0.0055858642
0.0226703305 0.0224776864 0.0087780654
-0.0105950013 0.0216707103 -0.0005065948
-0.0197058097 0.0236462690 0.0120733827
0.0184469689 0.0168233663 -0.0049857497
-0.0163245127 0.0227249078 0.0062167794
0.0222742613 0.0218783058 0.0084251091
0.0233734287 0.0214029588 0.0086375102
-0.0036113595 0.0217110477 -0.0011266172
-0.0544212349 0.0257779881 0.0223653913
0.0163077787 0.0198606811 -0.0037698299
0.0194263551 0.0208168775 -0.0017846450
-0.0206653960 0.0229298472 0.0142442286
-0.0543202944 0.0220047608 0.0303199589
-0.0148045234 0.0135886632 0.0009900853
-0.0188868381 0.0230831429 0.0111363232
-0.0136393830 0.0168824121 -0.0006565303
-0.0461162440 0.0268674009 0.0332196355
0.0200915933 0.0225090981 0.0062948689
-0.0029223596 0.0216887332 -0.0012328178
0.0253609736 0.0229286551 0.0095277205
0.0245353840 0.0206039101 0.0099077448
0.0174629856 0.0209572315 -0.0056432337
0.0180511884 0.0209970176 -0.0053246319
0.0225533210 0.0228306539 0.0087780654
-0.0131770410 0.0140604489 -0.0002957657
-0.0194444843 0.0169094093 -0.0004564151
0.0056518912 0.0214640871 -0.0022791997
-0.0154900961 0.0228988156 0.0049517527
-0.0543458499 0.0236068517 0.0239740014
-0.0199297294 0.0239705481 0.0126356184
-0.0036212017 0.0219311789 -0.0011016354
-0.0543718152 0.0260457359 0.0222716779
0.0093574971 0.0209444053 -0.0028075948
0.0103269760 0.0209214799 -0.0029403418
0.0126852356 0.0205504224 -0.0032787248
0.0191603377 0.0177478269 -0.0049654245
-0.0551534481 0.0231002495 0.0234117657
-0.0548963808 0.0228224136 0.0235262960
-0.0486609004 0.0276112445 0.0387170315
-0.0143433362 0.0170043595 -0.0006029084
-0.0232964568 0.0243995674 0.0154780298
0.0221320316 0.0175973251 0.0026715845
-0.0469578616 0.0273094960 0.0341879278
0.0253611282 0.0231666565 0.0095355287
-0.0106505677 0.0200182870 -0.0005987510
-0.0095812082 0.0198592842 -0.0007100403
0.0044016521 0.0191279985 -0.0023416728
-0.0024869347 0.0216255672 -0.0013091713
0.0174718779 0.0211455710 -0.0057681650
0.0180704016 0.0211652666 -0.0056057498
0.0225531906 0.0230660290 0.0087780654
0.0233666003 0.0227609277 0.0091497675
-0.0172392912 0.0225673430 0.0076692179
-0.0481956340 0.0280217677 0.0371552706
0.0263816454 0.0138517320 0.0072444081
-0.0043753553 0.0197791792 -0.0012779310
0.0057538841 0.0216782428 -0.0022635832
0.0197436772 0.0211485624 0.0064510480
0.0200898424 0.0227433853 0.0063261017
-0.0055025388 0.0129736699 -0.0012931973
-0.0036310737 0.0221514851 -0.0010766461
-0.0176151730 0.0148348585 -0.0005982593
0.0177811962 0.0205629952 -0.0051059872
-0.0209506266 0.0237366334 0.0146034360
-0.0186183006 0.0168455765 -0.0005269125
-0.0233143717 0.0246596821 0.0155092627
0.0024758468 0.0157655515 -0.0022909194
0.0244200639 0.0219686218 0.0094262147
0.0053706765 0.0198556744 -0.0024135113
0.0253613591 0.0234058127 0.0095511451
-0.0183251649 0.0234194025 0.0104803890
-0.0462015681 0.0265174210 0.0327823311
-0.0056359284 0.0218214281 -0.0009204671
-0.0096573047 0.0208421797 -0.0006375164
-0.0023669077 0.0221083835 -0.0012796670
0.0261596944 0.0208691619 0.0093814880
0.0175721049 0.0213507973 -0.0057619289
0.0179769099 0.0213537589 -0.0057306886
0.0234827586 0.0233600996 0.0092153624
-0.0114715509 0.0223711766 -0.0002957657
-0.0539351813 0.0265652016 0.0220530331
0.0184423979 0.0207763910 -0.0048992410
0.0221768282 0.0227255635 0.0086453110
0.0184392724 0.0148872510 -0.0048173964
-0.0154382586 0.0215795711 0.0036086440
-0.0189205036 0.0213294476 0.0069820434
0.0234084111 0.0218772255 0.0091317520
-0.0126222931 0.0157825984 -0.0006155968
-0.0543430336 0.0265649222 0.0219437182
-0.0181335472 0.0241648294 0.0106053278
0.0114237368 0.0208634026 -0.0030593798
-0.0500018187 0.0258582942 0.0394354314
0.0185548607 0.0218520388 -0.0025446936
-0.0150231235 0.0150279142 0.0009224191
-0.0186408870 0.0239247456 0.0110348091
-0.0199266486 0.0220806859 0.0120525584
0.0255536046 0.0128838718 0.0072194347
0.0083655287 0.0217199400 -0.0025946647
0.0093710683 0.0217135698 -0.0027284175
-0.0075675249 0.0208244994 -0.0008111447
0.0253616460 0.0236472487 0.0095823780
0.0259508025 0.0236551724 0.0096370354
-0.0459115691 0.0271101110 0.0328135788
0.0053929631 0.0188928917 -0.0024909750
-0.0016299540 0.0218986608 -0.0013875663
-0.0028231998 0.0220152177 -0.0012093931
0.0180670079 0.0215797052 -0.0055745170
0.0224359501 0.0235377736 0.0087832734
0.0233662762 0.0235892981 0.0091622621
-0.0178700909 0.0237485096 0.0102617443
-0.0193422437 0.0175197832 -0.0004831702
0.0195708796 0.0215817839 0.0052953437
0.0196404960 0.0220359601 0.0061855465
0.0201618392 0.0221377537 0.0062698722
-0.0168502443 0.0199089944 -0.0004519448
0.0268983003 0.0110873692 -0.0013265237
0.0172791313 0.0213307105 -0.0059181005
0.0223187916 0.0233047865 0.0088014975
-0.0036459600 0.0224823020 -0.0010391548
0.0123201255 0.0209165104 -0.0031676441
-0.0542739667 0.0268268324 0.0218187720
-0.0538961850 0.0268341266 0.0219749510
0.0103456918 0.0217499174 -0.0028529614
0.0113492729 0.0218136534 -0.0029649436
-0.0474595092 0.0265379287 0.0351874530
0.0191571116 0.0187779292 -0.0049435496
-0.0461107828 0.0272408761 0.0338131040
-0.0546391867 0.0237861909 0.0232743323
0.0183201469 0.0215835460 -0.0047858208
-0.0577214845 0.0152264573 0.0359683335
0.0253619086 0.0238878019 0.0096058026
0.0260691680 0.0238970518 0.0096682757
-0.0015956869 0.0225258693 -0.0013202727
0.0226687379 0.0237790160 0.0088249221
0.0233660545 0.0238274336 0.0091747642
-0.0507445894 0.0200681277 0.0348282456
-0.0034330280 0.0206799507 -0.0012813956
0.0216640811 0.0190125145 0.0035253540
0.0201995522 0.0234458297 0.0064093992
0.0229000486 0.0233286694 0.0089811012
-0.0544880740 0.0258669630 0.0214260966
-0.0482754521 0.0275786556 0.0360620320
-0.0191545635 0.0201655030 -0.0004831702
-0.0036644598 0.0228152461 -0.0009891838
-0.0542448945 0.0270977505 0.0217563063
-0.0539666452 0.0270963795 0.0218187720
-0.0205533803 0.0249406584 0.0141973794
0.0225775149 0.0191236213 0.0024425238
-0.0198723935 0.0250300616 0.0131041482
0.0252748355 0.0138865076 0.0070894137
0.0083798226 0.0141971558 -0.0030600801
0.0150079168 0.0208260827 -0.0035067499
0.0193844885 0.0215101242 0.0002977103
-0.0013833733 0.0227414891 -0.0013057068
-0.0175488368 0.0158404857 -0.0005675182
-0.0171976425 0.0240578018 0.0081377476
-0.0046473052 0.0219601654 -0.0009829327
-0.0167447627 0.0206320100 0.0001102984
-0.0462856777 0.0252147801 0.0317828059
0.0107691763 0.0177727155 -0.0032631084
0.0201973971 0.0236823745 0.0064510480
-0.0035611016 0.0230331756 -0.0009751320
-0.0539378114 0.0273671262 0.0217563063
-0.0187490433 0.0247082002 0.0113627911
0.0103969369 0.0225294083 -0.0027672499
0.0113654528 0.0225036852 -0.0029039159
-0.0169457346 0.0231787376 0.0078410059
-0.0544203706 0.0246163197 0.0228495300
0.0245527346 0.0121219624 0.0039209947
-0.0055613369 0.0138385296 -0.0013362765
0.0133751407 0.0147712417 -0.0036204308
-0.0165687464 0.0243804678 0.0071069822
-0.0150277913 0.0154712163 0.0009224117
0.0264245607 0.0243860446 0.0097619817
0.0193553939 0.0206605829 -0.0030444637
0.0149922464 0.0218894072 -0.0033942908
-0.0076185837 0.0218209140 -0.0006955713
-0.0012835169 0.0229602344 -0.0012796670
-0.0018921939 0.0228914991 -0.0012078285
0.0124226939 0.0218554027 -0.0030871853
0.0238320157 0.0243442878 0.0094808647
0.0244197175 0.0243656375 0.0096292272
-0.0166075416 0.0239616111 0.0070679411
0.0186660867 0.0221610293 -0.0020917803
-0.0186285675 0.0188232549 -0.0005737618
-0.0475950800 0.0295096673 0.0391543210
0.0195719693 0.0213634409 0.0008599386
0.0171037205 0.0212850273 -0.0062616915
-0.0156664960 0.0165305287 0.0016408265
0.0225158352 0.0239157639 0.0086791664
-0.0146626905 0.0223744698 0.0027652904
0.0201970097 0.0239131972 0.0064510480
-0.0203281604 0.0222866498 0.0130729154
-0.0035685187 0.0232529677 -0.0009595156
-0.0185363516 0.0252459757 0.0112768859
0.0103908060 0.0228511505 -0.0027399138
0.0113612860 0.0228231661 -0.0028882846
0.0192010123 0.0198693462 -0.0048534945
-0.0203535110 0.0246178731 0.0136976168
0.0263070557 0.0246260948 0.0097775981
-0.0216844454 0.0238740705 0.0151906610
0.0049642995 0.0211946629 -0.0022115186
0.0220987666 0.0243983157 0.0082158372
0.0235964935 0.0245861523 0.0095121041
-0.0165733881 0.0246176012 0.0071069822
-0.0225835182 0.0237147249 0.0152906105
-0.0116397738 0.0212602802 -0.0004082024
0.0031569919 0.0188750438 -0.0022136047
-0.0170795508 0.0222778469 0.0072631612
0.0255681556 0.0208815038 0.0089998394
-0.0035737900 0.0234717354 -0.0009517074
0.0103836749 0.0230689235 -0.0027008727
0.0113556711 0.0230393857 -0.0028570443
-0.0512942262 0.0179769844 0.0326261669
-0.0176624134 0.0207763277 -0.0003853142
-0.0202657692 0.0257077664 0.0134164989
-0.0199490711 0.0255556591 0.0132759362
0.0263080057 0.0248710476 0.0098244557
0.0244202614 0.0227949731 0.0094125569
-0.0542827658 0.0263041370 0.0221155062
0.0253621656 0.0241296329 0.0096370354
0.0260695778 0.0241368152 0.0096838921
-0.0463178568 0.0267681777 0.0323762745
-0.0006335394 0.0233849250 -0.0012796670
0.0222132765 0.0246444419 0.0082939193
-0.0167991333 0.0168269575 -0.0004623681
-0.0448568128 0.0297843702 0.0350312740
-0.0225815959 0.0247508772 0.0153374597
0.0024230669 0.0148661584 -0.0023246855
0.0201966166 0.0241440944 0.0064510480
0.0201957934 0.0243766010 0.0064614564
0.0233650692 0.0241617635 0.0092387870
0.0244201496 0.0237537660 0.0094964951
-0.0545523725 0.0268844180 0.0213775784
-0.0192102157 0.0206210464 -0.0003738552
-0.0035834701 0.0236929767 -0.0009282753
0.0240144711 0.0140063651 0.0016564429
0.0191233177 0.0209773630 -0.0038565770
0.0190821141 0.0206225216 -0.0046062171
-0.0209767558 0.0223578513 0.0114486814
-0.0192340575 0.0230777673 0.0115423873
-0.0203016214 0.0259991549 0.0128230304
-0.0200668648 0.0260034986 0.0128855035
-0.0537531488 0.0168613121 0.0361245126
-0.0187101476 0.0256774686 0.0115111470
-0.0178854726 0.0256187543 0.0105428621
0.0023860636 0.0235102959 -0.0016513690
-0.0461109690 0.0267899893 0.0325949192
-0.0004178730 0.0235986561 -0.0012796670
0.0124308085 0.0227978528 -0.0030182078
0.0133752646 0.0227953531 -0.0031512976
0.0185472630 0.0228255838 -0.0019082874
0.0033762532 0.0198124461 -0.0021568686
0.0033943618 0.0234744772 -0.0018184856
0.0221257005 0.0157931969 0.0029526949
0.0201953910 0.0246076696 0.0064614564
-0.0535537414 0.0280385874 0.0186327845
-0.0196135566 0.0227944665 0.0122061372
-0.0035910064 0.0239131898 -0.0009126589
-0.0192674436 0.0260297321 0.0114799142
-0.0187162161 0.0260032378 0.0113757998
0.0103738178 0.0235004202 -0.0026540235
0.0113443872 0.0234724320 -0.0027945787
-0.0195282772 0.0257880799 0.0123388842
0.0263096746 0.0253617428 0.0099181533
0.0003859571 0.0159974247 -0.0020366237
-0.0052939933 0.0184712261 -0.0012640506
0.0023780467 0.0237294622 -0.0016263798
0.0150679033 0.0228935592 -0.0032988042
-0.0192941688 0.0236898027 0.0115033388
0.0243893713 0.0208787620 0.0074713975
0.0061151516 0.0222665220 -0.0022245347
0.0240656063 0.0253318734 0.0097307414
-0.0115484521 0.0218127593 -0.0003719106
0.0023907667 0.0200345665 -0.0019980818
0.0253644157 0.0253786482 0.0100352913
0.0201565493 0.0231160410 0.0063573420
0.0201949831 0.0248388089 0.0064614564
-0.0536060072 0.0283234082 0.0186952502
0.0013688619 0.0168348812 -0.0021183491
-0.0056507438 0.0198056884 -0.0011420846
-0.0035985818 0.0241335444 -0.0008970350
-0.0193822980 0.0262230746 0.0111050904
-0.0186604038 0.0262251683 0.0112175345
-0.0174450539 0.0246281326 0.0087624490
0.0186663643 0.0214101151 -0.0037472546
0.0261925813 0.0256113745 0.0099910349
-0.0065916963 0.0198070817 -0.0010454059
-0.0134103745 0.0228407420 0.0002109334
-0.0006583591 0.0208388455 -0.0015778840
-0.0540716387 0.0252332427 0.0225996524
0.0070637092 0.0236453675 -0.0022245347
0.0144024026 0.0188290030 -0.0036223233
0.0124190804 0.0235462785 -0.0029601380
0.0141322110 0.0230597071 -0.0032229498
-0.0226641819 0.0257696584 0.0155518577
-0.0230860002 0.0262403637 0.0158528462
-0.0045664255 0.0188617408 -0.0013038069
0.0023844114 0.0209346749 -0.0018959641
0.0201971959 0.0250604115 0.0063989898
-0.0149834827 0.0181737207 0.0001259148
0.0184378624 0.0198084675 -0.0049460754
-0.0046059694 0.0238304920 -0.0008361340
0.0113500385 0.0232558064 -0.0028258115
-0.0202578604 0.0262298919 0.0126980916
-0.0186344907 0.0264587998 0.0111363307
-0.0529974587 0.0256639980 0.0265665203
0.0185347293 0.0233853869 -0.0017325878
-0.0006309559 0.0218149833 -0.0014976263
-0.0076247230 0.0244824849 -0.0004581884
0.0133345500 0.0197951905 -0.0034330264
0.0217551645 0.0255362950 0.0079815686
0.0124128014 0.0238690749 -0.0029257759
0.0133782281 0.0236290433 -0.0030730888
0.0143336002 0.0236084349 -0.0031735525
-0.0534393750 0.0258118324 0.0264884382
-0.0110557862 0.0232537799 -0.0002332926
0.0201994255 0.0252818279 0.0063365176
-0.0546554290 0.0252122469 0.0222638771
-0.0536137782 0.0287329666 0.0186796337
-0.0046268702 0.0244913287 -0.0007986501
-0.0036100035 0.0244643576 -0.0008736104
-0.0186421834 0.0267063417 0.0111425817
0.0039190799 0.0243320949 -0.0017950535
-0.0017506757 0.0231972560 -0.0011781529
0.0133673912 0.0208058432 -0.0033468902
0.0149724241 0.0233806260 -0.0032631084
0.0244894959 0.0248623677 0.0099337697
0.0253504049 0.0249543115 0.0098556876
-0.0218901411 0.0227349475 0.0124169737
0.0133725069 0.0240562744 -0.0030444637
0.0143263452 0.0240381472 -0.0031256750
-0.0113291778 0.0226637386 -0.0002853498
-0.0117151029 0.0229567997 -0.0001864433
0.0103798779 0.0232834145 -0.0026852563
0.0197444577 0.0255022943 0.0062636361
0.0201994739 0.0255112872 0.0063261017
0.0237757284 0.0249570347 0.0092153624
0.0240659099 0.0249678455 0.0096838921
-0.0543142743 0.0277190842 0.0212704316
-0.0539462380 0.0279527269 0.0215314031
-0.0046365559 0.0248216800 -0.0007830337
-0.0036215556 0.0247954763 -0.0008501858
-0.0061354525 0.0140614174 -0.0012640506
0.0263087302 0.0251150876 0.0098634958
-0.0243709646 0.0235212073 0.0165087879
-0.0187756456 0.0269559138 0.0111441389
-0.0086318664 0.0189797245 -0.0008918270
0.0073351748 0.0198098980 -0.0026883632
0.0084326202 0.0198758505 -0.0028166920
0.0260308310 0.0244574510 0.0097099170
0.0143935811 0.0197743066 -0.0035742074
-0.0106462203 0.0227659233 -0.0003598854
-0.0056314096 0.0238597840 -0.0007428154
0.0151634384 0.0197297335 -0.0036327317
-0.0203011110 0.0239324085 0.0132603198
0.0143219028 0.0242544748 -0.0030944347
0.0033308400 0.0218489803 -0.0019481182
0.0201986656 0.0257441252 0.0063365176
0.0251580067 0.0209299661 0.0072423369
0.0197469350 0.0257233158 0.0062011629
-0.0449353717 0.0302024931 0.0358121544
-0.0046491269 0.0250455178 -0.0007518008
-0.0036292912 0.0250164159 -0.0008345693
0.0124072302 0.0241913013 -0.0028976649
-0.0046781357 0.0161908232 -0.0014124289
-0.0076842830 0.0181946829 -0.0010375977
0.0197479278 0.0259492360 0.0061699301
0.0143174436 0.0244709998 -0.0030632019
0.0150564965 0.0244600289 -0.0031069294
-0.0144139491 0.0189419128 -0.0005872920
-0.0116813816 0.0238361433 -0.0000985935
0.0023117906 0.0217946246 -0.0017967150
0.0201969985 0.0259804688 0.0063677505
-0.0055943970 0.0208626911 -0.0010324046
-0.0036370733 0.0252374969 -0.0008189529
0.0113563584 0.0239360966 -0.0027106181
-0.0175660551 0.0271766670 0.0096058026
0.0017399082 0.0145930089 -0.0022635832
-0.0116096027 0.0248401798 -0.0000349879
-0.0105858706 0.0248000212 -0.0001692772
-0.0186802410 0.0274559967 0.0111988038
0.0195316318 0.0210700147 0.0002560541
-0.0135006383 0.0211581700 -0.0001317710
-0.0076602921 0.0228162669 -0.0006120279
0.0054916032 0.0211277939 -0.0023037419
-0.0016297640 0.0238285996 -0.0011078790
-0.0003153493 0.0238162018 -0.0012640506
-0.0007210800 0.0239983313 -0.0011967570
-0.0539730079 0.0259085782 0.0224044397
0.0067604780 0.0226808637 -0.0022713915
0.0245353729 0.0257567354 0.0105173066
0.0253178105 0.0258257948 0.0101461783
0.0261937436 0.0258615427 0.0100639239
-0.0076238513 0.0189713240 -0.0010074750
-0.0046617426 0.0252695717 -0.0007205606
0.0202000644 0.0261981785 0.0062844530
0.0143123046 0.0246887691 -0.0030257180
0.0150507800 0.0246792026 -0.0030600801
0.0013620018 0.0217723064 -0.0016565546
0.0103631793 0.0239334814 -0.0026019588
0.0192467216 0.0213299207 -0.0011078790
-0.0006019881 0.0248327777 -0.0011374503
0.0253794566 0.0244780816 0.0096995234
-0.0036448927 0.0254587270 -0.0008033365
-0.0115380436 0.0256266557 0.0000400096
-0.0105753765 0.0255830027 -0.0001122504
0.0218699910 0.0190711990 0.0041084066
-0.0151479542 0.0202219002 0.0016720593
0.0221818089 0.0186460875 0.0035878196
-0.0185283534 0.0276869200 0.0111207068
-0.0176662579 0.0274627618 0.0098556876
-0.0126475766 0.0218754373 -0.0000771284
0.0053510908 0.0218636952 -0.0021782145
-0.0150697976 0.0263968445 0.0036398768
0.0002341142 0.0249525495 -0.0012288988
-0.0016125662 0.0253986157 -0.0009829402
0.0013575258 0.0209283307 -0.0017617494
0.0150466133 0.0248960443 -0.0030288398
-0.0135782957 0.0198425204 -0.0004133806
-0.0045597460 0.0254899301 -0.0007018223
0.0202031694 0.0264156125 0.0062011629
-0.0535339378 0.0300695263 0.0184609890
0.0014184529 0.0228431709 -0.0015416890
-0.0036549231 0.0256814472 -0.0007799119
-0.0115699545 0.0259718858 0.0001102909
-0.0105969608 0.0259227119 -0.0000693053
0.0033290854 0.0254453756 -0.0016154498
-0.0076333098 0.0238435231 -0.0005198419
0.0133460043 0.0188466720 -0.0034958273
0.0064558033 0.0218057409 -0.0023290291
0.0005699231 0.0247274898 -0.0012839288
-0.0439628772 0.0297604986 0.0329385102
0.0202067178 0.0266310163 0.0061074570
-0.0535228737 0.0304736234 0.0184141323
-0.0143711120 0.0195530765 -0.0003269911
-0.0045701396 0.0257130302 -0.0006783977
0.0222640876 0.0258915238 0.0082158372
-0.0542278029 0.0283783786 0.0208973289
-0.0538482778 0.0288138129 0.0211190954
-0.0421684198 0.0320638530 0.0327198654
-0.0417065434 0.0320552886 0.0327510983
-0.0124220997 0.0248296447 0.0001137629
0.0024056791 0.0228566974 -0.0017076209
-0.0036650521 0.0259043463 -0.0007564798
-0.0153478449 0.0182098858 0.0004695058
-0.0186946392 0.0272177085 0.0112508610
-0.0424569510 0.0326853879 0.0355778784
0.0184208900 0.0238719769 0.0000634417
-0.0115913190 0.0262024291 0.0001571476
-0.0106204785 0.0261540078 -0.0000146478
0.0073576085 0.0188492648 -0.0027795732
0.0073824860 0.0218545534 -0.0024385005
-0.0232568383 0.0255737565 0.0156498253
0.0202140287 0.0268318579 0.0059304610
-0.0425059013 0.0311932229 0.0328135788
0.0133563392 0.0248139724 -0.0029429346
-0.0233119987 0.0233101770 0.0149157941
0.0223478191 0.0268524550 0.0083398670
-0.0195634328 0.0217589848 0.0085750371
-0.0542388372 0.0297170989 0.0195854604
0.0034138022 0.0228219107 -0.0018778443
-0.0036773866 0.0261288024 -0.0007252470
0.0113142133 0.0247716419 -0.0026370361
0.0123915542 0.0248427950 -0.0028055012
-0.0116182342 0.0264360197 0.0002196133
-0.0106521994 0.0263897590 0.0000634417
0.0218758378 0.0194974728 0.0038897544
0.0226514190 0.0196359493 0.0041396394
-0.0086048059 0.0208506398 -0.0007111877
-0.0463902913 0.0251711980 0.0313767493
-0.0415935032 0.0325397737 0.0328135639
-0.0026464460 0.0257652812 -0.0008392558
-0.0134423003 0.0205109715 -0.0002895072
0.0135387713 0.0217425041 -0.0032880902
-0.0001103708 0.0242516436 -0.0012328178
-0.0541272126 0.0273622312 0.0195698366
-0.0538302474 0.0276991241 0.0190856904
-0.0116479956 0.0266713686 0.0002899021
-0.0106812716 0.0266245455 0.0001337156
-0.0207828097 0.0255287178 0.0147596151
-0.0145422965 0.0210626349 0.0012660027
-0.0126234479 0.0211428143 -0.0002957657
-0.0053654518 0.0177426971 -0.0012757629
-0.0415321775 0.0329848379 0.0329853743
-0.0226845145 0.0264866687 0.0158372223
-0.0167201720 0.0249114595 0.0074818060
-0.0439929254 0.0322067924 0.0370927900
-0.0443904363 0.0297875404 0.0330426246
-0.0533035807 0.0309720822 0.0181564465
-0.0530424528 0.0312646069 0.0183360428
0.0023680835 0.0240571089 -0.0015982687
0.0033802560 0.0239111744 -0.0017742366
-0.0211193450 0.0242985152 0.0150094926
-0.0152806118 0.0188141204 0.0004226491
-0.0186581165 0.0280574448 0.0111050904
-0.0116779022 0.0269071348 0.0003601760
-0.0107131079 0.0268611349 0.0002118051
-0.0066432506 0.0207991377 -0.0009204671
-0.0066668205 0.0258127116 -0.0004322305
0.0143776312 0.0208340101 -0.0034655035
0.0075608939 0.0237594508 -0.0022827983
0.0103693735 0.0248188041 -0.0025164410
0.0013335219 0.0188292600 -0.0020120814
-0.0415125675 0.0333284400 0.0332508683
-0.0409806482 0.0332381167 0.0328135788
0.0197193921 0.0208803639 0.0022967607
0.0182050131 0.0243473575 0.0017345250
0.0053635817 0.0238549821 -0.0020074695
0.0143773686 0.0218817405 -0.0033425018
-0.0163510628 0.0279253535 0.0063261092
-0.0535499342 0.0295511335 0.0208296552
-0.0066178888 0.0188003518 -0.0011200085
-0.0086275600 0.0218260400 -0.0006289259
-0.0079528466 0.0262869336 -0.0002332926
0.0003973248 0.0228071027 -0.0014561266
0.0164321307 0.0166945569 -0.0065193772
-0.0410207771 0.0335488580 0.0328760445
-0.0142996572 0.0235876031 0.0017345250
-0.0157539696 0.0245019831 0.0055764616
-0.0016633419 0.0266210958 -0.0008579940
-0.0435359366 0.0324565955 0.0368116796
-0.0121446177 0.0216138475 -0.0002801418
0.0084439255 0.0247856975 -0.0023076832
0.0093958722 0.0238492042 -0.0025072098
0.0081335176 0.0252218433 -0.0022219270
-0.0193748996 0.0247670375 0.0121592805
0.0150296502 0.0258711092 -0.0029078126
-0.0232849792 0.0241417624 0.0154624060
0.0073560290 0.0228270926 -0.0023319125
-0.0415568836 0.0323492549 0.0327510983
-0.0406585746 0.0329685546 0.0326886326
0.0123688756 0.0258219801 -0.0026758760
0.0134213669 0.0258113034 -0.0027984753
0.0004014301 0.0151437446 -0.0020761713
-0.0194424093 0.0290211402 0.0110946819
-0.0516819991 0.0201677382 0.0359214693
-0.0116905048 0.0273551904 0.0003679842
-0.0111052282 0.0273356251 0.0003289431
-0.0096558332 0.0218906328 -0.0005515963
-0.0085655302 0.0268722884 -0.0001142099
-0.0065270588 0.0267361067 -0.0003113821
0.0093715154 0.0248256326 -0.0023997650
-0.0399650596 0.0337142013 0.0328656286
0.0114014596 0.0258496925 -0.0025571883
-0.0531367771 0.0319853015 0.0176957250
-0.0532729290 0.0315310284 0.0199134275
-0.0532671474 0.0314494222 0.0194136649
-0.0528741665 0.0319725238 0.0193303674
-0.0529749133 0.0316597410 0.0199290439
0.0224721339 0.0276824646 0.0083368719
0.0137214344 0.0223339163 -0.0032631084
0.0144240018 0.0227191076 -0.0032787323
-0.0055922605 0.0228653960 -0.0008236393
-0.0125582926 0.0258207768 0.0002779886
-0.0208021142 0.0252837949 0.0148220882
-0.0477373265 0.0228040740 0.0325012207
-0.0066031590 0.0228120759 -0.0007152110
-0.0190617926 0.0286026224 0.0051079327
-0.0423806272 0.0317916013 0.0328448117
-0.0105628483 0.0207873918 -0.0005597100
-0.0157556683 0.0197659098 0.0020546913
0.0143055692 0.0250143148 -0.0029788762
-0.0404195078 0.0336032026 0.0327198654
-0.0399684496 0.0340704508 0.0326261669
-0.0396733843 0.0341274180 0.0330009907
0.0092344461 0.0266110562 -0.0021855012
-0.0087274872 0.0260088034 -0.0001965612
0.0053659659 0.0248549245 -0.0019089803
-0.0116520561 0.0271333866 0.0003810078
-0.0531507768 0.0322597325 0.0176957250
-0.0528011583 0.0318937972 0.0180549324
0.0216307174 0.0278028920 0.0081768036
0.0083555961 0.0228254907 -0.0024628863
-0.0541858338 0.0288845375 0.0205485448
-0.0422399677 0.0323848911 0.0328448117
-0.0046340153 0.0228709169 -0.0008991882
-0.0516467206 0.0332437083 0.0238178223
-0.0026221161 0.0198244192 -0.0014514402
-0.0096176192 0.0228684731 -0.0004582033
-0.0085773319 0.0228397101 -0.0005456582
0.0094121462 0.0257582292 -0.0023076758
0.0183865335 0.0274337046 0.0004382655
0.0143728349 0.0257505812 -0.0028957203
-0.0184678771 0.0288436227 0.0102706701
-0.0170758143 0.0278023146 0.0076067522
0.0053790640 0.0268117040 -0.0016935691
-0.0396521874 0.0343553871 0.0326053500
-0.0005637703 0.0273609795 -0.0009048432
0.0183233954 0.0249164067 0.0020078495
0.0197434537 0.0252762064 0.0062948689
-0.0541351922 0.0274290293 0.0200695992
-0.0531160794 0.0315739475 0.0176957250
-0.0187590830 0.0291260816 0.0071902797
-0.0186776668 0.0291739441 0.0061491057
-0.0177262910 0.0289695822 0.0060241669
-0.0166822299 0.0288641118 0.0063698292
-0.0134899057 0.0218471177 0.0001311153
-0.0517547764 0.0335608013 0.0239740014
0.0093555972 0.0168737844 -0.0031449273
-0.0025564318 0.0263177939 -0.0007955283
-0.0016349682 0.0259533301 -0.0009282753
0.0003724808 0.0168515705 -0.0020074695
-0.0415306874 0.0342031009 0.0365930349
0.0003812278 0.0202991888 -0.0017247796
0.0186352413 0.0275528096 -0.0000927299
0.0181357414 0.0274400599 -0.0007018223
-0.0166111570 0.0287553407 0.0069664270
0.0133676529 0.0242728330 -0.0030132234
-0.0395364873 0.0346623771 0.0326730162
-0.0389025249 0.0347018875 0.0330009758
-0.0101597197 0.0243359394 -0.0002645254
-0.0117070787 0.0278057419 0.0003862232
-0.0106610022 0.0277721398 0.0002397075
0.0043470357 0.0209593773 -0.0021484122
0.0087062884 0.0254949965 -0.0022635832
-0.0540571176 0.0279585384 0.0199134201
-0.0036017762 0.0268004760 -0.0006393343
-0.0016875525 0.0270708725 -0.0007916242
0.0129541941 0.0212216191 -0.0032214597
-0.0545275100 0.0272480436 0.0206943080
-0.0181262158 0.0278041512 0.0103866830
-0.0512233190 0.0337580219 0.0235991776
-0.0511156209 0.0334414355 0.0234429985
-0.0183021948 0.0291559659 0.0043895245
-0.0175422505 0.0290049687 0.0043114349
-0.0172910560 0.0289970450 0.0036711097
-0.0025826392 0.0268770345 -0.0007311031
-0.0066211112 0.0237711258 -0.0006363690
0.0203698259 0.0271211974 0.0058263391
0.0044069160 0.0227946043 -0.0019999743
0.0034321866 0.0259744264 -0.0015617013
0.0183533859 0.0276460238 -0.0007580519
-0.0150777921 0.0207154192 0.0020781159
-0.0207931325 0.0258901753 0.0140911862
0.0229130816 0.0280276425 0.0081221312
-0.0394553952 0.0349841081 0.0328135788
-0.0386735760 0.0349625535 0.0328291804
0.0013404584 0.0238143019 -0.0014618561
0.0242960379 0.0259788930 0.0108239800
0.0044102985 0.0218377225 -0.0020827651
-0.0046341177 0.0268386938 -0.0005222261
-0.0419179983 0.0317830183 0.0328760445
-0.0154406279 0.0278311446 0.0045456961
-0.0511989482 0.0340307914 0.0235367119
-0.0076296329 0.0198333561 -0.0009242445
-0.0410655402 0.0336065628 0.0349688083
-0.0483802818 0.0333981030 0.0206630677
-0.0476491563 0.0333789773 0.0207255408
-0.0524434410 0.0342623852 0.0245362371
-0.0519456454 0.0340473093 0.0242551118
-0.0186203644 0.0292102285 0.0033821836
-0.0175378397 0.0291800536 0.0033743754
-0.0133710541 0.0237336308 0.0003172308
-0.0425332822 0.0349687450 0.0372802019
0.0003563336 0.0178139992 -0.0019731000
0.0013770538 0.0178545006 -0.0020848662
-0.0086292699 0.0238434486 -0.0004379004
-0.0134477355 0.0268377028 0.0005589500
-0.0187913366 0.0292919986 0.0037960485
0.0053736586 0.0227944367 -0.0020942688
0.0096936300 0.0264123045 -0.0022739917
0.0101234447 0.0271501765 -0.0022245347
0.0184664093 0.0278422646 -0.0008658022
0.0192424823 0.0278037041 -0.0006757900
-0.0066054985 0.0277980305 -0.0001296476
0.0083458852 0.0258579068 -0.0021657199
-0.0103384741 0.0237294175 -0.0002879426
-0.0108525679 0.0238767453 -0.0001992211
0.0216299091 0.0223134346 0.0084032491
0.0199265983 0.0279924534 0.0022655278
0.0201624986 0.0281718187 0.0044363737
0.0193499234 0.0277715661 0.0044832230
-0.0046404563 0.0278857686 -0.0003495663
-0.0036083364 0.0277906582 -0.0004988089
-0.0542606302 0.0295717008 0.0199993178
-0.0537769906 0.0299028084 0.0204468369
-0.0537061132 0.0301916562 0.0192106366
-0.0164980460 0.0271723680 0.0067633986
-0.0175229721 0.0289187841 0.0070913648
-0.0513780080 0.0342783704 0.0232868344
-0.0502023138 0.0339259915 0.0223966241
-0.0508535169 0.0341937356 0.0229432434
-0.0056684520 0.0248557515 -0.0006721467
-0.0155748799 0.0291035362 0.0032338202
-0.0006535498 0.0268077366 -0.0009517074
-0.0131084323 0.0279064029 0.0007662326
0.0094150957 0.0271225460 -0.0021191239
-0.0125762746 0.0228422955 -0.0000409409
-0.0106166899 0.0220061541 -0.0004597455
-0.0157803744 0.0203434899 0.0027028173
-0.0385919400 0.0355801173 0.0329489261
-0.0194922052 0.0293949209 0.0055139884
-0.0540680774 0.0288880132 0.0201164559
-0.0045835376 0.0260466971 -0.0006510690
0.0193717647 0.0278360806 0.0023201928
0.0201120619 0.0281388424 0.0030464083
0.0033533166 0.0247853287 -0.0016935691
-0.0026109589 0.0278096758 -0.0006099641
0.0043416340 0.0248672217 -0.0017841458
-0.0525453500 0.0327756479 0.0189919844
-0.0525971837 0.0335211568 0.0180809572
-0.0126671158 0.0287475213 0.0005934089
-0.0217880569 0.0263840668 0.0152593777
-0.0182791837 0.0293832496 0.0031192973
-0.0175900590 0.0294353701 0.0031869635
-0.0170360804 0.0295553729 0.0029839352
-0.0016132013 0.0278535448 -0.0007018074
-0.0005909128 0.0279224664 -0.0008306652
0.0144148059 0.0168442763 -0.0036729127
-0.0095822737 0.0238503702 -0.0003582388
-0.0086486675 0.0248691551 -0.0003325194
-0.0076155737 0.0249138810 -0.0004095510
-0.0133454464 0.0275078304 0.0005996451
0.0172211342 0.0273750983 -0.0054808110
-0.0468512587 0.0331596546 0.0220218003
-0.0531657897 0.0328048356 0.0176749006
-0.0172642656 0.0294989347 0.0038741380
0.0191402230 0.0269573517 0.0046472102
-0.0026545355 0.0228059851 -0.0011243001
-0.0096573010 0.0257787257 -0.0001610816
-0.0075607412 0.0258002207 -0.0003237203
-0.0527219810 0.0328454375 0.0181564316
-0.0170673802 0.0296910889 0.0061699301
-0.0194380172 0.0291617624 0.0102539361
-0.0526301228 0.0339288302 0.0179612190
-0.0412050895 0.0328389220 0.0339692682
-0.0504762270 0.0342017338 0.0215220377
-0.0468314998 0.0338916741 0.0222014114
0.0027923735 0.0175554380 -0.0022635832
-0.0142793134 0.0231325366 0.0017032921
-0.0525144599 0.0345698856 0.0246299505
-0.0066416524 0.0218222514 -0.0008083060
-0.0512549020 0.0326283127 0.0253483504
-0.0022642722 0.0223255344 -0.0012640506
-0.0095064603 0.0247125775 -0.0002888143
0.0172325429 0.0275516026 -0.0056369826
0.0227333028 0.0208214223 0.0056389272
-0.0146453120 0.0220650099 0.0021093488
-0.0134121887 0.0259956010 0.0005135164
0.0151475761 0.0278921165 -0.0026528090
-0.0084017813 0.0255424380 -0.0002801418
-0.0011809578 0.0231776051 -0.0012640506
-0.0006046479 0.0228315033 -0.0013675094
-0.0076671503 0.0268660933 -0.0001770854
-0.0068956837 0.0270659141 -0.0002145469
-0.0193043351 0.0289655589 0.0044832304
-0.0180383846 0.0290971361 0.0100743324
-0.0390975587 0.0348093398 0.0327354819
-0.0475303717 0.0321828648 0.0207880065
-0.0470261090 0.0323010199 0.0210535079
-0.0525645129 0.0341776796 0.0178362876
-0.0409402214 0.0331477560 0.0340629816
-0.0504210256 0.0343650766 0.0208973363
-0.0467899852 0.0343796127 0.0218187720
0.0183306783 0.0256469063 0.0020052344
-0.0016539188 0.0287521742 -0.0006018803
-0.0006237717 0.0287062377 -0.0007486790
-0.0136523731 0.0287909023 0.0006178617
0.0083335415 0.0237611532 -0.0023800060
0.0108185913 0.0274050497 -0.0022635832
0.0103528732 0.0278810523 -0.0021373481
0.0113257971 0.0281498842 -0.0022149980
-0.0367718898 0.0364363156 0.0330322087
-0.0026066245 0.0238745101 -0.0010063648
-0.0072730854 0.0264898241 -0.0002645254
-0.0168299079 0.0291074254 0.0041747764
-0.0535584055 0.0308684893 0.0202153400
-0.0232853629 0.0250030346 0.0155300871
-0.0056033619 0.0293781869 -0.0000396371
0.0193876624 0.0284782015 -0.0027216896
-0.0468475558 0.0346021913 0.0210066587
-0.0514735319 0.0328857563 0.0259730667
0.0084208958 0.0188454725 -0.0029195026
-0.0043698717 0.0286125503 -0.0002918467
-0.0035838091 0.0288090967 -0.0003664717
-0.0026765799 0.0288412832 -0.0004628897
-0.0015675181 0.0292036645 -0.0005378276
-0.0006506012 0.0291615538 -0.0006705821
-0.0157515071 0.0219118409 0.0044207573
-0.0465082861 0.0348323919 0.0229861885
-0.0460638814 0.0350326896 0.0232087374
-0.0167791061 0.0292205252 -0.0004883856
-0.0161196627 0.0291994400 -0.0010766461
-0.0148102641 0.0291708522 -0.0007564873
-0.0367345549 0.0367140844 0.0329281092
-0.0096329413 0.0268184952 -0.0000146180
-0.0173621401 0.0279357173 0.0083563924
-0.0056190286 0.0296082310 -0.0000021532
-0.0221531466 0.0264279433 0.0155092627
-0.0502573736 0.0348106734 0.0203299001
-0.0439878814 0.0351120122 0.0396228433
-0.0530011095 0.0341639519 0.0254732966
0.0186584350 0.0275982209 0.0013284683
0.0194405410 0.0277588218 0.0010161176
0.0201030783 0.0279425234 0.0008287057
0.0042090751 0.0201524049 -0.0022245347
-0.0534407608 0.0346454196 0.0256294757
0.0183406565 0.0279986002 -0.0045797899
0.0190660264 0.0281402133 -0.0043979958
-0.0465967469 0.0350117795 0.0222404450
0.0169218946 0.0277085491 -0.0043251067
-0.0518965609 0.0339963511 0.0182204768
-0.0056309942 0.0298359133 0.0000228435
0.0186037049 0.0276194997 0.0022446960
-0.0502801053 0.0326874368 0.0242238790
-0.0536436103 0.0308824591 0.0192262456
-0.0033782569 0.0295814313 -0.0002853498
-0.0026139279 0.0295863114 -0.0003738403
-0.0016328206 0.0295604803 -0.0004921034
-0.0006728356 0.0295054354 -0.0006042197
-0.0353467651 0.0373390801 0.0332821012
-0.0136769637 0.0298286751 0.0005311593
-0.0126215257 0.0297636017 0.0006347224
0.0114262942 0.0288246982 -0.0021245927
-0.0143190883 0.0267289318 0.0016095862
0.0183956344 0.0284618326 -0.0047186688
-0.0517016314 0.0344804823 0.0227558315
0.0195392985 0.0287156962 -0.0029507577
-0.0497116558 0.0349117182 0.0204444230
-0.0076173842 0.0278755948 -0.0000344962
-0.0057154167 0.0280211531 -0.0001907051
-0.0451205410 0.0322836079 0.0373739153
-0.0391493998 0.0352734588 0.0328135788
-0.0056467988 0.0300664641 0.0000603199
-0.0355676375 0.0375996567 0.0330530405
