# .PCD v0.7 - Point Cloud Data file format
VERSION 0.7
FIELDS x y z
SIZE 4 4 4
TYPE F F F
COUNT 1 1 1
WIDTH 1187
HEIGHT 1
VIEWPOINT 0 0 0 1 0 0 0
POINTS 1187
DATA ascii
0.0165872928 0.0116742998 -0.0016206503
0.0187711567 0.0117592178 -0.0010876805
0.0017885740 0.0120993555 -0.0015874505
-0.0250482764 0.0100992322 -0.0231163278
-0.0193060692 0.0108883753 -0.0235442594
0.0132488860 0.0097361617 -0.0110595301
-0.0034140621 0.0107258111 -0.0014059097
-0.0002878245 0.0107100122 -0.0014898553
-0.0162466224 0.0105874017 -0.0137457624
0.0097406758 0.0120648853 -0.0017201975
0.0117788892 0.0120579973 -0.0017514378
0.0136877801 0.0119247213 -0.0017982945
0.0145768430 0.0119220130 -0.0018178150
-0.0202195812 0.0068221893 -0.0244941413
-0.0159644540 0.0113061927 -0.0158541352
0.0216862243 0.0118783601 -0.0025479347
-0.0053260522 0.0087554157 -0.0235305354
0.0030947633 0.0056142937 -0.0222105011
0.0198867843 0.0093883052 -0.0146515816
0.0204443876 0.0093915220 -0.0145266429
-0.0163716283 0.0105505548 -0.0177751034
0.0137161780 0.0066465866 -0.0239247084
0.0009106721 0.0100629516 -0.0016577318
-0.0256128181 0.0110870302 -0.0277183130
-0.0110345380 0.0097781476 -0.0125900581
-0.0106778638 0.0097766705 -0.0125744343
-0.0253820177 0.0100857504 -0.0236004740
-0.0242736284 0.0100913532 -0.0235848576
-0.0212795082 0.0100255236 -0.0238347352
-0.0168806110 0.0118739307 -0.0087481216
0.0058027441 0.0097144824 -0.0123297572
-0.0103959190 0.0093571246 -0.0236902758
-0.0094772065 0.0094339103 -0.0235848501
-0.0234264862 0.0122667849 -0.0015015528
0.0056362161 0.0117033906 -0.0015757605
0.0066602929 0.0116997249 -0.0015816167
0.0076924963 0.0119472146 -0.0016538352
-0.0254960973 0.0114959590 -0.0234130621
-0.0109473178 0.0114153586 -0.0011579618
-0.0102694416 0.0117945373 -0.0012262687
0.0496500172 0.0101127159 -0.0077720210
-0.0143194618 0.0108545311 -0.0023552999
0.0183340162 0.0123256817 -0.0012204349
-0.0238670651 0.0122895166 -0.0010954961
0.0198135246 0.0122463182 -0.0027613714
0.0206880495 0.0122491568 -0.0026884973
-0.0175294373 0.0062952060 -0.0215857998
0.0297645498 0.0107118487 -0.0247197524
-0.0162117649 0.0117907673 -0.0034515336
-0.0161692295 0.0123589560 -0.0036880150
-0.0157552045 0.0123710558 -0.0033756644
0.0037953395 0.0058275852 -0.0229445323
-0.0134011516 0.0123929232 -0.0025739595
-0.0149229774 0.0109958909 -0.0175876915
-0.0146537209 0.0112140775 -0.0176813975
-0.0093074562 0.0124242157 -0.0013766214
-0.0083706798 0.0124152340 -0.0014390796
0.0026897758 0.0120952278 -0.0015952587
0.0035886772 0.0117100812 -0.0015894249
0.0128017822 0.0123054832 -0.0018217117
-0.0143104764 0.0098917782 -0.0202895403
0.0242767986 0.0044156034 -0.0140893459
0.0165961105 0.0123018846 -0.0017436221
-0.0258209649 0.0126982443 0.0015907362
-0.0259593446 0.0125111230 0.0032774359
-0.0126258591 0.0112114772 -0.0000334978
-0.0043202108 0.0117518045 -0.0014390871
0.0137083344 0.0086094011 -0.0238847136
0.0260998607 0.0111416355 -0.0246156156
0.0526967384 0.0097581893 -0.0078688562
-0.0034074069 0.0117466189 -0.0014527589
-0.0023718656 0.0118696354 -0.0014468953
-0.0013306171 0.0117359757 -0.0014683753
0.0583190210 0.0100169051 -0.0081234202
-0.0062769251 0.0117625222 -0.0014293343
0.0567214303 0.0100111365 -0.0080687627
0.0587273426 0.0097400248 -0.0081814304
-0.0062771747 0.0111226961 -0.0014156550
0.0155876288 0.0119214505 -0.0017904788
0.0175638720 0.0116550066 -0.0014557466
-0.0171853993 0.0123272277 -0.0045001358
-0.0161975268 0.0122918487 -0.0050623640
0.0036007117 0.0124696493 -0.0016694516
-0.0057785967 0.0097281393 -0.0133396983
0.0056434674 0.0124634914 -0.0016343147
0.0066687735 0.0124589801 -0.0016499311
-0.0160017908 0.0117936246 -0.0077017397
0.0087247947 0.0124471635 -0.0017475411
-0.0154715907 0.0115724169 -0.0079880655
0.0155932540 0.0124240480 -0.0018646643
0.0175934434 0.0124379955 -0.0015288889
0.0185911804 0.0125767998 -0.0012750924
0.0316276513 0.0113478117 -0.0246780887
-0.0161502715 0.0122501850 -0.0059057176
0.0401500277 0.0116190538 0.0091496557
-0.0161639173 0.0126113631 -0.0037088394
-0.0157572571 0.0126251429 -0.0033756644
-0.0143699469 0.0125346780 -0.0024347007
-0.0133421728 0.0126586631 -0.0023605227
0.0496587865 0.0103559811 -0.0077329800
-0.0083611729 0.0126697868 -0.0014781281
-0.0073142545 0.0125352070 -0.0014742166
0.0201347042 0.0070520788 -0.0241158530
-0.0249092449 0.0133077838 0.0085249543
0.0128046572 0.0125571638 -0.0018529445
-0.0120609934 0.0123700574 -0.0045417845
0.0006467632 0.0086524952 -0.0235708132
0.0165988281 0.0125531219 -0.0017826632
0.0548812263 0.0103676654 -0.0080192983
-0.0043151295 0.0125176758 -0.0014755204
-0.0256446730 0.0133713447 0.0096494257
-0.0242010821 0.0107933134 -0.0232620835
-0.0193103347 0.0115259029 -0.0234144777
0.0523289889 0.0103616267 -0.0078735352
-0.0224307831 0.0130934194 0.0047298670
-0.0210204590 0.0127553344 0.0036210269
-0.0204091650 0.0128780678 0.0034804642
0.0007467482 0.0110876225 -0.0015093610
-0.0135350311 0.0101232026 -0.0096227080
-0.0163395945 0.0104520470 -0.0163903311
-0.0250114370 0.0116238035 -0.0292384252
-0.0189191382 0.0117980503 -0.0230850875
-0.0194836017 0.0118576512 -0.0234286785
0.0007498551 0.0117238015 -0.0015367046
-0.0145083712 0.0112775378 -0.0162341669
-0.0232023168 0.0101917293 -0.0230746791
0.0036027606 0.0128502995 -0.0016889647
0.0056460341 0.0128437057 -0.0016577318
0.0066724652 0.0128385797 -0.0016811565
0.0077001946 0.0125789382 -0.0017176047
0.0087286858 0.0128259510 -0.0017826706
-0.0101828175 0.0126666501 -0.0012704208
-0.0092962543 0.0128070675 -0.0014234558
-0.0083539234 0.0129246451 -0.0015093610
0.0155963236 0.0128013678 -0.0019076094
0.0175970495 0.0128153972 -0.0015874505
0.0186031610 0.0128199384 -0.0014781281
0.0187035352 0.0123346522 -0.0010330230
0.0206886809 0.0126248784 -0.0027080178
0.0106453141 0.0094172526 -0.0141518191
0.0223105680 0.0125111341 -0.0024594367
-0.0205010679 0.0125596449 -0.0002989992
-0.0205242764 0.0126330182 0.0012002885
0.0576972999 0.0088028386 -0.0081078038
-0.0258500483 0.0117333792 -0.0273018479
0.0017984163 0.0126057863 -0.0016473308
0.0027011752 0.0126009099 -0.0016646832
0.0046217544 0.0125937574 -0.0016499385
0.0306767598 0.0107477047 -0.0247554481
-0.0172046255 0.0108402483 -0.0163226649
0.0205379874 0.0091177318 -0.0162758082
-0.0144234458 0.0117978156 -0.0023386478
-0.0139586711 0.0113968290 -0.0020637810
-0.0125586288 0.0119250156 -0.0015067533
-0.0121278511 0.0120660774 -0.0006144717
-0.0248598959 0.0105998553 -0.0292852819
-0.0251901019 0.0106424838 -0.0283430144
-0.0052260840 0.0126506835 -0.0014781281
-0.0253639650 0.0136536621 0.0096806586
-0.0249498803 0.0108558089 -0.0230954960
0.0145857744 0.0125494972 -0.0019232258
-0.0258298349 0.0119295418 -0.0234599113
-0.0108259926 0.0095059052 -0.0139019340
-0.0013089974 0.0126240067 -0.0015822649
-0.0220384877 0.0108163804 -0.0233349726
0.0260995943 0.0115704834 -0.0242720246
0.0257873274 0.0116241910 -0.0232881159
-0.0200979505 0.0110711977 -0.0244047716
-0.0179564711 0.0133674294 0.0005287379
0.0596373491 0.0097506065 -0.0083191544
0.0303197335 0.0120150261 -0.0161821097
-0.0189816635 0.0120872892 -0.0230382383
-0.0194788221 0.0120707676 -0.0234442949
-0.0183663648 0.0109201074 -0.0226040632
0.0223093051 0.0117587969 -0.0024073720
0.0036075141 0.0131030008 -0.0017201975
0.0046252916 0.0131008588 -0.0016811565
0.0056476621 0.0130971484 -0.0016733482
0.0066740504 0.0130918697 -0.0016967729
0.0077060433 0.0130841397 -0.0017670542
0.0296642296 0.0126730204 -0.0084982440
-0.0102596777 0.0132065564 -0.0012907088
-0.0092851492 0.0131897293 -0.0014703199
-0.0083467187 0.0131794140 -0.0015405938
-0.0157355089 0.0107659735 -0.0055933669
0.0166018642 0.0129303746 -0.0018295273
-0.0022654042 0.0077350512 -0.0238789842
-0.0122480551 0.0119143426 -0.0044845194
0.0006648700 0.0077120904 -0.0236285776
-0.0139896693 0.0098392107 -0.0184622705
0.0096316440 0.0094168596 -0.0142455250
0.0257890206 0.0118081495 -0.0237097889
-0.0182794910 0.0120654888 -0.0219710395
-0.0190230366 0.0127173774 0.0004818887
-0.0220347736 0.0131321438 0.0055576116
0.0289307311 0.0121382512 -0.0139019340
0.0294010304 0.0121676400 -0.0133709311
0.0302306227 0.0122127868 -0.0125588179
-0.0164169911 0.0060747899 -0.0212422088
0.0007641881 0.0127390474 -0.0016265139
0.0016760014 0.0131135546 -0.0016889647
0.0025813847 0.0131075829 -0.0017201975
-0.0285089109 0.0122567639 -0.0220230892
0.0198132265 0.0119958222 -0.0027509630
0.0206879303 0.0119984038 -0.0026806891
0.0320427455 0.0116604120 -0.0245999992
-0.0175748412 0.0127099119 -0.0020013154
-0.0143567966 0.0130433068 -0.0024854690
-0.0135296891 0.0130097643 -0.0021991432
-0.0135302516 0.0130742341 -0.0017982870
-0.0160758588 0.0110780559 -0.0158697516
-0.0126481699 0.0130351037 -0.0000022650
-0.0254577082 0.0115671344 -0.0284263119
-0.0256429967 0.0116083995 -0.0276766717
-0.0255927648 0.0119023249 -0.0233349651
-0.0250849184 0.0117768720 -0.0230130106
0.0145892166 0.0130529776 -0.0019700825
-0.0152091729 0.0127361231 -0.0029026940
-0.0283508133 0.0136839822 0.0097257793
0.0066592069 0.0109380893 -0.0015601367
0.0087289875 0.0130792931 -0.0017904788
0.0117865838 0.0126875900 -0.0018295273
0.0126830628 0.0129343718 -0.0019076094
0.0136273326 0.0127138533 -0.0019299164
-0.0152772488 0.0107396618 -0.0025359839
-0.0288193803 0.0125117972 -0.0214608610
-0.0219861809 0.0123254620 -0.0232412666
-0.0164411832 0.0106663369 -0.0095498264
0.0505987816 0.0087830536 -0.0079008862
0.0307084732 0.0119438395 -0.0174939856
0.0320407785 0.0119575672 -0.0172753409
0.0322363786 0.0121537484 -0.0177126303
-0.0013404090 0.0107171237 -0.0014059097
0.0056371177 0.0108139180 -0.0015640482
-0.0273187626 0.0138709471 0.0098680705
-0.0254446846 0.0108444579 -0.0234963596
-0.0211415421 0.0112167522 -0.0237722695
0.0249739550 0.0110395588 -0.0246078074
0.0267133676 0.0110344924 -0.0247124359
0.0277362335 0.0110352226 -0.0247061998
0.0287587997 0.0107285269 -0.0247105956
0.0316240899 0.0108329318 -0.0247296393
0.0326586775 0.0110464804 -0.0245843828
0.0223096982 0.0110040158 -0.0024073720
0.0087724188 0.0066696517 -0.0240820125
0.0056466395 0.0133514851 -0.0016733482
0.0066768499 0.0133446753 -0.0017202049
0.0260988101 0.0107797347 -0.0235640332
-0.0157600921 0.0112380423 -0.0062493086
0.0323770940 0.0139109045 0.0084312409
0.0166049302 0.0133074448 -0.0018763691
0.0176015310 0.0133186057 -0.0016577244
0.0185949765 0.0133350194 -0.0013531893
0.0195618048 0.0132503733 -0.0027717873
-0.0202657860 0.0122784972 -0.0237176120
-0.0189859290 0.0123163760 -0.0227831528
-0.0183860417 0.0137018263 0.0017156750
-0.0231318567 0.0131169483 0.0050734580
-0.0002856210 0.0117290318 -0.0015191361
0.0007725905 0.0133732371 -0.0016811565
0.0016789983 0.0133670680 -0.0017097890
0.0025817517 0.0133616924 -0.0017280057
0.0036063797 0.0133574568 -0.0017201975
0.0046255877 0.0133548230 -0.0016889647
-0.0161104966 0.0130024888 -0.0035006106
-0.0156674106 0.0130115077 -0.0032663420
0.0298720598 0.0121911019 -0.0129492581
0.0199946873 0.0044868644 -0.0183060989
-0.0257647838 0.0123780109 -0.0231475607
-0.0252699833 0.0123815499 -0.0229679644
0.0145909470 0.0133046210 -0.0019935071
-0.0122671882 0.0126932599 -0.0005238801
-0.0029913310 0.0097898189 -0.0109345913
0.0364362709 0.0134849623 0.0010597333
-0.0233932193 0.0123704746 -0.0227415040
-0.0226475913 0.0101885796 -0.0230226219
0.0190459751 0.0102496855 -0.0024698451
-0.0258986745 0.0121530816 -0.0233349726
0.0301534813 0.0088626128 -0.0255943239
-0.0126840146 0.0115640834 -0.0039379001
0.0206869617 0.0106195211 -0.0026318654
-0.0159673821 0.0117609948 -0.0056870654
0.0056469282 0.0136053860 -0.0016811565
0.0066771461 0.0135983750 -0.0017280132
-0.0110155987 0.0136422180 -0.0012724921
-0.0102752494 0.0135659091 -0.0014346167
-0.0083404528 0.0135623328 -0.0015718490
0.0155998887 0.0134308226 -0.0019622743
0.0326550677 0.0141899139 0.0084937066
0.0166056808 0.0135596544 -0.0018919855
0.0172345415 0.0135613792 -0.0018451363
0.0185466800 0.0135948248 -0.0012620762
0.0192649495 0.0135507323 -0.0019700825
0.0126893576 0.0134368613 -0.0019752905
0.0135788471 0.0134330466 -0.0020013154
0.0145911090 0.0135571584 -0.0020013154
0.0209325925 0.0133864954 -0.0025713593
0.0216849670 0.0133875012 -0.0025440305
0.0224362686 0.0133909583 -0.0024776533
-0.0131455110 0.0102057010 -0.0141205788
-0.0126454802 0.0099806916 -0.0138394684
-0.0283782165 0.0131024495 0.0094463825
0.0288135260 0.0141901933 0.0085666031
-0.0275240410 0.0145360902 0.0098680705
-0.0266317632 0.0145270862 0.0098680705
-0.0243452843 0.0114953443 -0.0231475607
0.0107580116 0.0118088350 -0.0017124042
-0.0220758375 0.0117422417 -0.0232457221
-0.0212613586 0.0117834322 -0.0235848650
0.0216858946 0.0126323588 -0.0025537685
0.0223116223 0.0130121335 -0.0025010780
0.0127165606 0.0094446652 -0.0130689964
-0.0156636219 0.0135188736 -0.0032897666
-0.0151247354 0.0135341510 -0.0029487833
-0.0218456741 0.0126890093 0.0021217316
-0.0199756268 0.0129494406 0.0023091435
-0.0188711528 0.0132068843 0.0023091435
-0.0120927878 0.0135276504 -0.0004208162
-0.0126449810 0.0135669373 0.0001851469
-0.0297550391 0.0134336129 -0.0094665363
-0.0165630784 0.0117560178 -0.0112157017
-0.0253015291 0.0126019754 -0.0229132921
0.0177114420 0.0094446372 -0.0128087103
-0.0072971070 0.0135558434 -0.0015601367
-0.0163378138 0.0106622949 -0.0117779374
-0.0262440201 0.0143485479 0.0097931027
0.0036096394 0.0136105157 -0.0017436221
-0.0233252328 0.0109477788 -0.0230772793
-0.0226439331 0.0108345076 -0.0230434462
-0.0118647078 0.0102185756 -0.0064054802
0.0296846610 0.0113503486 -0.0245843828
-0.0191073176 0.0125336275 -0.0227727368
0.0299692769 0.0127884597 -0.0064679533
0.0096863164 0.0076838080 -0.0240611807
0.0056484835 0.0138587989 -0.0016967729
0.0066786418 0.0138515905 -0.0017436296
0.0257906094 0.0122003332 -0.0240689963
-0.0184677076 0.0117409006 -0.0225467384
-0.0111495862 0.0139778554 -0.0014182627
-0.0103111500 0.0139616914 -0.0015744343
-0.0022697833 0.0087624080 -0.0238159895
-0.0119408229 0.0127812885 -0.0046563074
-0.0119822780 0.0137422904 -0.0053434819
0.0305342600 0.0113799982 -0.0246884897
0.0325710028 0.0114125945 -0.0245888457
0.0126901008 0.0138156712 -0.0019909069
-0.0002690174 0.0127445683 -0.0016167536
0.0288155582 0.0144711360 0.0086603016
0.0297799818 0.0144786611 0.0087670237
0.0258889515 0.0109297372 -0.0225853324
0.0301623717 0.0127071664 -0.0079047754
-0.0272886734 0.0148268230 0.0100138336
-0.0264988076 0.0148117095 0.0098993033
-0.0225961227 0.0116954371 -0.0230663493
0.0196903609 0.0127454400 -0.0028160438
0.0207299031 0.0130021460 -0.0026989058
-0.0121965604 0.0098328479 -0.0183061063
-0.0156753492 0.0139020383 -0.0032663420
-0.0112854214 0.0094586033 -0.0156511068
-0.0073297666 0.0117695108 -0.0014020056
-0.0052319067 0.0118845329 -0.0014390871
-0.0193637814 0.0132425018 0.0029026121
-0.0216768999 0.0118034706 -0.0057495460
0.0097495178 0.0135817304 -0.0018191114
0.0326493122 0.0144570246 0.0083687752
0.0303326622 0.0136862062 0.0046517849
-0.0262712780 0.0136645660 0.0097292364
0.0016802500 0.0137482211 -0.0017254055
0.0025844786 0.0137421489 -0.0017514452
0.0036098871 0.0138645098 -0.0017514378
-0.0162963290 0.0099897105 -0.0210339725
-0.0128733898 0.0132435411 -0.0009705573
-0.0152098695 0.0140640959 -0.0029339045
-0.0158038829 0.0141567402 -0.0032819584
-0.0253061857 0.0147497803 0.0097959787
-0.0220399741 0.0150710270 0.0102116615
-0.0110869380 0.0142214634 -0.0016264915
-0.0104217874 0.0142146759 -0.0016499236
-0.0309498850 0.0156700388 0.0182703435
0.0136907063 0.0094486866 -0.0128711760
0.0126893958 0.0140688866 -0.0019909069
-0.0172480475 0.0110974312 -0.0156354904
-0.0142812626 0.0102291722 -0.0136520574
0.0006326947 0.0091303922 -0.0174315125
-0.0288505089 0.0136763863 0.0094932467
-0.0002640814 0.0137622654 -0.0016636029
0.0007720895 0.0138824508 -0.0016915798
-0.0241218973 0.0109903663 -0.0231163278
0.0288185049 0.0147559047 0.0088060647
-0.0259840693 0.0123791508 -0.0231787935
0.0097468020 0.0126960874 -0.0017787740
0.0107658682 0.0126923807 -0.0017924383
-0.0306111556 0.0145414993 0.0144284070
-0.0224862117 0.0123489276 -0.0229289085
0.0198454708 0.0137132742 -0.0033860803
0.0195544250 0.0137188174 -0.0026468411
-0.0278065074 0.0132219121 0.0063072592
-0.0115360618 0.0142360665 -0.0014546961
-0.0188044887 0.0140393972 0.0028713793
0.0277371351 0.0113449320 -0.0246593505
-0.0272986013 0.0137262642 0.0098212063
-0.0232502911 0.0137892887 0.0094776303
0.0056487368 0.0141127035 -0.0017045811
0.0166062452 0.0139384307 -0.0019076094
-0.0249172319 0.0154389665 0.0155841112
-0.0197433252 0.0146988109 0.0046830177
0.0025841359 0.0141235627 -0.0017592460
0.0036086689 0.0141190216 -0.0017514378
0.0055360803 0.0034074765 -0.0099871159
-0.0217858534 0.0130585097 0.0041520298
0.0313936025 0.0140771046 -0.0016577318
-0.0125274183 0.0126350373 -0.0017014593
0.0277258959 0.0097842831 -0.0253184140
-0.0127557525 0.0140973888 0.0003100932
0.0515876003 0.0097536091 -0.0078813657
0.0331186168 0.0128174014 -0.0176813975
0.0310839489 0.0121318996 -0.0140581131
-0.0282161180 0.0145096667 0.0101023316
-0.0273247901 0.0151635744 0.0108363628
-0.0265330914 0.0151011422 0.0099774003
-0.0203026291 0.0117270648 -0.0236969441
0.0259762295 0.0119835511 -0.0242470354
0.0265732482 0.0116546825 -0.0246156007
0.0287617370 0.0113478974 -0.0246156156
0.0290949568 0.0147601850 0.0088685453
0.0296462383 0.0147626996 0.0088997781
0.0301959366 0.0147611946 0.0088685453
0.0135765737 0.0143189877 -0.0020013154
-0.0212790277 0.0134956092 0.0073692501
-0.0102436105 0.0094939191 -0.0142142847
-0.0134314643 0.0137659051 -0.0025152788
-0.0242579486 0.0146986432 0.0097386688
0.0056476081 0.0143671408 -0.0017045811
-0.0113299945 0.0144756883 -0.0016993806
-0.0104120011 0.0144688636 -0.0016889647
0.0330444761 0.0129634738 -0.0188058615
0.0333580822 0.0126963891 -0.0184518620
0.0156007400 0.0143145770 -0.0019935071
0.0166061223 0.0143177174 -0.0019154102
0.0174803063 0.0143263862 -0.0017618462
0.0188553575 0.0143426992 -0.0014859289
0.0333919972 0.0119397976 -0.0215233266
0.0316112489 0.0120886825 -0.0148624182
-0.0002689671 0.0144005939 -0.0016577318
0.0007703851 0.0143920965 -0.0016967729
-0.0242739785 0.0118451715 -0.0230517611
-0.0233224016 0.0118323267 -0.0230354667
0.0066790795 0.0143590048 -0.0017592460
0.0077097015 0.0137166455 -0.0018061027
0.0087321447 0.0137115717 -0.0018275753
0.0097502815 0.0140880682 -0.0018373281
0.0107690934 0.0137039386 -0.0018412396
0.0193269793 0.0142360292 -0.0030633137
-0.0262270290 0.0156217404 0.0182703435
-0.0073055932 0.0130456202 -0.0015171617
-0.0062650489 0.0127839781 -0.0014957115
-0.0052190134 0.0131606348 -0.0015171692
-0.0043115122 0.0130280852 -0.0015015528
-0.0253232811 0.0140519366 0.0097181350
0.0097493930 0.0143418610 -0.0018373281
0.0216833744 0.0138928033 -0.0025127977
-0.0184821244 0.0123623870 -0.0218669176
0.0334522128 0.0127447620 -0.0221792683
-0.0143474126 0.0138077475 -0.0025322959
-0.0177606139 0.0100074057 -0.0208361521
-0.0260302927 0.0149450861 0.0098368376
0.0036074209 0.0143735819 -0.0017514378
0.0090650683 0.0094173141 -0.0142767578
0.0087323850 0.0143450499 -0.0018451363
-0.0062620388 0.0144465864 -0.0015484095
0.0307512097 0.0150460005 0.0089934766
-0.0296344999 0.0155007280 0.0158027560
-0.0215749424 0.0145502239 0.0094828308
0.0036061450 0.0146281831 -0.0017514378
0.0258929115 0.0125239827 -0.0238503516
-0.0186977256 0.0124157853 -0.0222417414
-0.0112736234 0.0147194192 -0.0018867850
-0.0104070054 0.0147240311 -0.0017123893
0.0156001756 0.0145677067 -0.0019935071
0.0166068468 0.0145698786 -0.0019310415
-0.0123042027 0.0136562549 -0.0047500134
0.0186225045 0.0138576664 -0.0011267290
0.0224357042 0.0138949975 -0.0024698451
0.0314793363 0.0143269449 -0.0053747222
-0.0130134458 0.0137065500 0.0002866611
-0.0272530485 0.0143408924 0.0098160058
0.0016772605 0.0145123154 -0.0017306134
0.0025844264 0.0145047717 -0.0017709658
0.0198876075 0.0141597241 -0.0041877776
-0.0023504265 0.0137791485 -0.0015816167
0.0196341854 0.0144149065 -0.0040940791
0.0193302333 0.0144824311 -0.0031257868
0.0076178527 0.0054005440 -0.0224416405
0.0015789780 0.0089759529 -0.0230538547
0.0066564577 0.0094431750 -0.0136083290
-0.0002739441 0.0146569572 -0.0016421080
0.0176005997 0.0130659454 -0.0016421154
0.0186028555 0.0130737834 -0.0014781281
0.0335647129 0.0126596466 -0.0234911442
-0.0062585929 0.0138060786 -0.0015445128
0.0046259845 0.0144980475 -0.0017202049
0.0308898315 0.0153233707 0.0090090930
-0.0161451790 0.0137696713 -0.0034225211
0.0311582796 0.0142052174 -0.0071238950
0.0313360207 0.0149135739 0.0030900240
0.0309993662 0.0145227276 0.0012159050
-0.0285472516 0.0133535378 0.0087748319
-0.0130524831 0.0144969113 0.0003881752
-0.0112563232 0.0149714947 -0.0019492581
-0.0103997113 0.0149785802 -0.0017436221
-0.0083387205 0.0147145391 -0.0016082898
-0.0293644238 0.0160062835 0.0190512240
0.0016677312 0.0085939895 -0.0235573053
0.0223725028 0.0144617781 -0.0024698451
0.0314540267 0.0149365291 -0.0002833754
-0.0126994597 0.0144767538 0.0001226813
0.0300653148 0.0136841089 0.0046205521
-0.0243272688 0.0123690963 -0.0229757726
0.0196293090 0.0141726509 -0.0040003732
0.0077093886 0.0146042742 -0.0018269196
0.0087309172 0.0147259235 -0.0018451437
0.0097480183 0.0147226341 -0.0018373355
0.0107670557 0.0145914331 -0.0018477440
0.0335665867 0.0122070387 -0.0205862746
-0.0043090424 0.0137942433 -0.0015301928
0.0025801200 0.0148876756 -0.0017592460
0.0174313523 0.0139706917 -0.0017764270
-0.0122868055 0.0120082274 -0.0051560700
0.0145889372 0.0145694092 -0.0020039156
0.0166069753 0.0148225836 -0.0019388497
0.0174818598 0.0147044919 -0.0017930865
0.0050815688 0.0058261417 -0.0230070055
0.0036048393 0.0148828328 -0.0017514378
0.0046241349 0.0148799270 -0.0017201975
-0.0161917936 0.0145060681 -0.0031882524
-0.0161440093 0.0147762410 -0.0029591918
-0.0152870538 0.0146874003 -0.0028915331
0.0311663114 0.0143724643 -0.0010330230
-0.0033970710 0.0127662048 -0.0015171841
-0.0023547758 0.0127594136 -0.0015386567
-0.0013033648 0.0131325349 -0.0016186833
-0.0213074740 0.0152679682 0.0089934766
-0.0111451047 0.0152311549 -0.0018919855
-0.0104019539 0.0152353793 -0.0017436221
0.0637403801 0.0056679212 -0.0087012574
0.0330331288 0.0122069307 -0.0205706507
0.0196345448 0.0147866793 -0.0041096956
0.0216814056 0.0146507621 -0.0024776384
0.0145909721 0.0139362365 -0.0020091236
-0.0013157867 0.0147934929 -0.0016069934
-0.0195489321 0.0123794936 -0.0234063640
0.0087294085 0.0151068941 -0.0018451363
0.0097455597 0.0151040778 -0.0018295199
0.0107639488 0.0150997862 -0.0018373281
-0.0114213461 0.0110791065 -0.0010434389
0.0303012095 0.0161151811 0.0122731775
0.0336894169 0.0127014667 -0.0203832462
-0.0120784678 0.0140379518 -0.0005645007
-0.0043132892 0.0148177743 -0.0015406013
-0.0251342077 0.0153595246 0.0098055899
-0.0248627458 0.0153607726 0.0098680705
0.0166070461 0.0150752999 -0.0019466579
0.0036035075 0.0151375234 -0.0017514378
0.0136499377 0.0148008689 -0.0019888207
0.0317021124 0.0144753829 0.0086811334
0.0174856763 0.0150802322 -0.0018555522
-0.0052205855 0.0138002895 -0.0015269443
-0.0162220914 0.0152085945 -0.0028759018
-0.0077007869 0.0152259208 -0.0015640259
0.0298274532 0.0137426779 0.0056200773
-0.0211464558 0.0123355463 -0.0236473233
-0.0202979650 0.0124962404 -0.0236551240
0.0155978734 0.0130531043 -0.0019310340
-0.0127917957 0.0135999545 -0.0036567822
-0.0153138684 0.0154578201 -0.0028368607
0.0198930670 0.0147720836 -0.0043049157
0.0257897414 0.0135620162 -0.0238035023
-0.0111425864 0.0154866353 -0.0019076094
-0.0103947567 0.0154898241 -0.0017748550
0.0400928743 0.0099563859 0.0140535831
0.0156802032 0.0085955542 -0.0237976462
0.0336145945 0.0125226714 -0.0199303403
0.0077618090 0.0090783183 -0.0185247511
0.0084540034 0.0090714321 -0.0187121555
0.0297543667 0.0147746578 0.0030119419
0.0196331553 0.0151608437 -0.0040940791
-0.0280943085 0.0158342123 0.0166148692
0.0224347860 0.0152807310 -0.0024698451
0.0317000560 0.0141976550 0.0086420774
0.0077065667 0.0153664351 -0.0018295199
0.0087283747 0.0153609365 -0.0018451363
0.0097435312 0.0153586604 -0.0018217117
0.0107620675 0.0153542757 -0.0018295199
0.0087481523 0.0076857749 -0.0240533873
-0.0113956565 0.0134090483 -0.0008924678
-0.0090567181 0.0100448877 -0.0112469420
0.0066788578 0.0141052902 -0.0017514378
-0.0234663319 0.0057460107 -0.0178531855
0.0145874051 0.0150760412 -0.0020013154
-0.0251015406 0.0128200017 -0.0228508264
0.0036021459 0.0153922662 -0.0017514378
-0.0062637636 0.0149588585 -0.0015562251
-0.0052215988 0.0148235001 -0.0015503690
0.0046201972 0.0153898671 -0.0017123893
0.0025521710 0.0090572163 -0.0198991001
0.0276590809 0.0138434730 -0.0155261680
0.0274563245 0.0140872970 -0.0137145221
-0.0202291366 0.0151144154 0.0068070143
0.0265280884 0.0140249021 -0.0190557465
-0.0111401463 0.0157420933 -0.0019232333
-0.0153030613 0.0152004808 -0.0028602853
-0.0093771266 0.0154891051 -0.0016655549
-0.0302380528 0.0141547322 0.0128041804
0.0198959876 0.0153873563 -0.0043751895
-0.0170365740 0.0126672871 -0.0027509630
0.0216804482 0.0154073946 -0.0024698526
0.0224346090 0.0155328326 -0.0024698451
0.0156012224 0.0139352120 -0.0019896030
-0.0112592811 0.0120677911 -0.0010174140
-0.0122710923 0.0099124219 -0.0158697516
-0.0280873757 0.0130142234 0.0076816082
-0.0043142466 0.0155849829 -0.0015588328
0.0274961870 0.0139828175 -0.0102786496
-0.0121032679 0.0106158741 -0.0056870729
0.0155981006 0.0154540315 -0.0019935071
0.0196345337 0.0154071525 -0.0041253120
-0.0128236534 0.0148703344 -0.0035943091
0.0046160733 0.0156458467 -0.0016967729
0.0192936733 0.0149039105 -0.0025010854
-0.0162373651 0.0155946165 -0.0028446615
-0.0033930682 0.0137868375 -0.0015581846
0.0273601264 0.0159816854 -0.0000022650
0.0305694379 0.0160833336 0.0118358880
0.0311133750 0.0140340142 -0.0023136660
-0.0113826254 0.0126841813 -0.0008768514
-0.0103947306 0.0158741474 -0.0017865747
-0.0134516740 0.0148092806 -0.0025550351
0.0136927962 0.0155903697 -0.0019353777
0.0117921708 0.0136972368 -0.0018998012
-0.0160425920 0.0159616321 -0.0030320734
-0.0002771255 0.0150402971 -0.0016382188
0.0007625155 0.0149039626 -0.0016733631
-0.0093687037 0.0138527080 -0.0015598685
-0.0174334329 0.0111818090 -0.0136832893
-0.0013056279 0.0137704611 -0.0016245618
0.0016793187 0.0141300559 -0.0017306134
-0.0464992486 0.0180285797 0.0184889883
0.0198962986 0.0157583840 -0.0043908060
-0.0103924396 0.0162578747 -0.0018060952
-0.0153777832 0.0158879273 -0.0027926117
0.0580542125 0.0081976727 -0.0081546530
-0.0192450862 0.0166071467 0.0048079640
0.0274896491 0.0144091025 -0.0108877420
-0.0122909779 0.0145372786 -0.0008872673
0.0314231738 0.0141827986 -0.0038598180
0.0155993039 0.0149474964 -0.0019935071
0.0189158861 0.0147901140 -0.0014468879
0.0185446441 0.0147849396 -0.0009893030
0.0265806671 0.0159928650 -0.0030008405
-0.0111305313 0.0162516721 -0.0019700825
-0.0044478597 0.0162263289 -0.0015640259
0.0097404467 0.0158674717 -0.0018139109
-0.0143978195 0.0162456557 -0.0024542287
-0.0135071250 0.0118098035 -0.0025814027
0.0136883808 0.0160998441 -0.0019076094
-0.0042513264 0.0160325654 -0.0015640259
-0.0159245450 0.0162182860 -0.0030008405
-0.0167664383 0.0163574815 -0.0013766140
0.0017483521 0.0150397271 -0.0017335862
0.0046261596 0.0138627812 -0.0017045960
0.0301026627 0.0148310810 0.0058074892
0.0135788023 0.0139384829 -0.0020130277
0.0185909048 0.0139737204 -0.0013037249
-0.0232161153 0.0152346529 0.0126167685
-0.0462602563 0.0184743367 0.0183328092
-0.0457894914 0.0186501332 0.0187076330
0.0198982656 0.0161268152 -0.0044376627
-0.0116466926 0.0164078325 -0.0032507256
-0.0103925364 0.0165141299 -0.0018139035
0.0223092735 0.0150287636 -0.0024698451
0.0297778305 0.0141988993 0.0086967498
0.0307397917 0.0141995326 0.0086915344
0.0145837832 0.0157109872 -0.0019817948
0.0155971786 0.0159604475 -0.0019974113
0.0166059807 0.0157084092 -0.0019505620
0.0173625089 0.0157092512 -0.0019193217
0.0188427381 0.0157244205 -0.0006113574
0.0186422989 0.0159766115 -0.0001272038
-0.0033963521 0.0148093738 -0.0015718564
0.0027055636 0.0151423365 -0.0017514303
-0.0258498881 0.0126047842 -0.0229913816
0.0258259475 0.0163514838 -0.0017201975
0.0278460328 0.0138957873 -0.0178688094
0.0136876013 0.0163535960 -0.0019076094
0.0320986323 0.0118042082 -0.0200865120
-0.0454408862 0.0189491585 0.0186659992
-0.0134645738 0.0157788284 -0.0025713593
-0.0128825055 0.0156436116 -0.0034381375
-0.0111319618 0.0166360997 -0.0019778907
0.0087211812 0.0165060721 -0.0018295273
-0.0152951488 0.0117580853 -0.0027958751
0.0196081307 0.0156933218 -0.0036567822
-0.0160851870 0.0165480003 -0.0036724061
-0.0153033743 0.0165070035 -0.0027963892
-0.0083374875 0.0140739232 -0.0015952736
0.0127906594 0.0164900683 -0.0018295273
0.0209300574 0.0138927028 -0.0025245026
0.0087254616 0.0158696026 -0.0018399358
0.0107565224 0.0158645734 -0.0018008947
-0.0072985711 0.0140681416 -0.0015679449
0.0017915729 0.0157892443 -0.0016967878
0.0198977105 0.0164991468 -0.0044376627
0.0307949446 0.0158255473 0.0102272630
-0.0107068317 0.0128330588 -0.0011111125
0.0304167401 0.0151961148 0.0071818382
-0.0143725211 0.0156958960 -0.0024217740
-0.0119373361 0.0154035464 -0.0031257868
0.0145781431 0.0166011453 -0.0019492581
0.0155933434 0.0165962838 -0.0019726828
0.0166038387 0.0165957734 -0.0019492581
0.0173609536 0.0165962800 -0.0019232258
-0.0119449319 0.0151516125 -0.0030945465
-0.0115800546 0.0151203126 -0.0025947839
-0.0072773593 0.0148116313 -0.0015702918
0.0259487499 0.0169027261 0.0002319962
0.0264235474 0.0170232430 0.0021113232
0.0224343352 0.0159110837 -0.0024698451
-0.0159819108 0.0166629367 -0.0030398890
-0.0034031507 0.0158333406 -0.0015738085
-0.0123825865 0.0098190568 -0.0114968196
-0.0233235750 0.0146276765 0.0097170919
-0.0062712068 0.0157288164 -0.0015510246
0.0107505862 0.0166290998 -0.0017774701
0.0117679220 0.0166252181 -0.0017774701
0.0127867283 0.0168732218 -0.0018060952
0.0117773237 0.0157316662 -0.0018295273
-0.0043219728 0.0167381689 -0.0015640408
0.0265946109 0.0166968703 0.0013512671
-0.0023577523 0.0148021281 -0.0015777126
0.0046228645 0.0151345767 -0.0017201975
0.0056466078 0.0148756094 -0.0017124042
0.0196495987 0.0168719850 -0.0044376627
-0.0083718197 0.0172867551 -0.0015718341
-0.0123432623 0.0170120113 -0.0051248372
-0.0161047410 0.0170918219 -0.0032663420
0.0265278574 0.0142347664 -0.0191494524
-0.0130074928 0.0170363337 -0.0035006106
-0.0111383321 0.0170220062 -0.0019700825
-0.0119122947 0.0159045979 -0.0032194853
-0.0111329006 0.0159962773 -0.0019544661
0.0081630619 0.0090493541 -0.0195555091
0.0294666924 0.0147100911 0.0020748824
-0.0136611806 0.0172395743 -0.0027197227
0.0260776449 0.0164671168 -0.0003458485
0.0027519509 0.0168434680 -0.0016644374
-0.0461612232 0.0180963203 0.0194572806
-0.0159255657 0.0172380470 -0.0030320808
0.0272425488 0.0140775889 -0.0122464672
-0.0154101262 0.0172685385 -0.0026182085
0.0076939752 0.0094402041 -0.0136130154
-0.0243522767 0.0139503330 0.0096238554
0.0331876688 0.0131079666 -0.0198991001
0.0265931822 0.0168209821 0.0007786155
0.0066768648 0.0148676001 -0.0017592534
0.0077076657 0.0151122697 -0.0018295199
-0.0471309759 0.0189816207 0.0187076330
-0.0461993255 0.0190770775 0.0181922615
0.0117874667 0.0147122964 -0.0018861368
0.0127552710 0.0147410594 -0.0019500032
0.0127988029 0.0157242790 -0.0018802807
0.0304443836 0.0164032429 0.0123356581
-0.0120953554 0.0148613453 -0.0017904788
0.0198950861 0.0171228424 -0.0044064298
0.0255805887 0.0169804655 -0.0031882524
-0.0023647540 0.0158255845 -0.0015777126
-0.0013260797 0.0158173554 -0.0015913770
-0.0144082839 0.0173990726 -0.0024620444
0.0189221594 0.0099974312 -0.0025010854
0.0146986200 0.0173658878 -0.0019076094
0.0155876176 0.0173611268 -0.0019310340
0.0165986605 0.0173606202 -0.0019076094
0.0173581075 0.0173587948 -0.0019076094
-0.0093793767 0.0160022639 -0.0016733482
-0.0083503956 0.0156142712 -0.0015933290
0.0312119201 0.0149607211 0.0000602081
0.0260774530 0.0172743015 0.0000602081
-0.0458797626 0.0183578879 0.0188950449
0.0035939540 0.0159042217 -0.0017228127
0.0259530488 0.0173644200 -0.0017514378
0.0097307647 0.0173954330 -0.0017904788
0.0107451286 0.0173939094 -0.0017592460
0.0127858371 0.0171274021 -0.0018060952
0.0198930204 0.0173742846 -0.0043751895
0.0264659747 0.0175276175 0.0014189407
0.0258249398 0.0171471462 -0.0013453737
-0.0136604356 0.0176219419 -0.0027353466
-0.0119039798 0.0167898163 -0.0032741502
-0.0103963697 0.0168996006 -0.0018139109
0.0027904257 0.0175785832 -0.0016030818
-0.0144035453 0.0148099028 -0.0024719089
0.0224321876 0.0174281448 -0.0024386123
-0.0110723609 0.0094882548 -0.0145682767
-0.0033412736 0.0174741820 -0.0015609190
-0.0484947972 0.0198630504 0.0196759254
-0.0134741263 0.0166054964 -0.0026291460
0.0107430415 0.0176491812 -0.0017514378
0.0076961936 0.0167675167 -0.0018041506
-0.0239768382 0.0153210983 0.0138661712
-0.0472250469 0.0204227865 0.0175519288
0.0087165805 0.0170162320 -0.0018139109
-0.0466143377 0.0203623995 0.0170209259
-0.0183244664 0.0062975455 -0.0216045454
0.0045960573 0.0176905692 -0.0016499385
0.0097351493 0.0167583413 -0.0018021986
0.0107461875 0.0171394348 -0.0017592460
0.0197739676 0.0176140293 -0.0044688955
-0.0155530395 0.0175022744 -0.0069989488
0.0223915130 0.0166689157 -0.0024594367
-0.0451909788 0.0203467458 0.0171458721
-0.0446685813 0.0203914382 0.0177393407
0.0287842005 0.0170859955 0.0069944263
0.0166011490 0.0171046816 -0.0019310340
-0.0113508785 0.0176571012 -0.0029071420
-0.0073292004 0.0166378692 -0.0015328005
-0.0062815631 0.0166281313 -0.0015406087
-0.0052335756 0.0166178681 -0.0015581921
-0.0034085617 0.0167295933 -0.0015796646
-0.0462563597 0.0198219493 0.0174699426
-0.0467200242 0.0195225403 0.0178955197
-0.0301675778 0.0137975141 0.0115547776
-0.0033007537 0.0180152208 -0.0015327856
-0.0136598088 0.0180043615 -0.0027509630
0.0457085110 0.0067222025 -0.0079250783
0.0209236257 0.0166714936 -0.0024464279
0.0267208219 0.0178197324 0.0003725588
-0.0002845854 0.0158076808 -0.0016265139
0.0007529359 0.0157989450 -0.0016538426
0.0026953078 0.0157823041 -0.0017176047
0.0046133203 0.0160284638 -0.0016928762
0.0056405989 0.0157675818 -0.0017026439
0.0066717966 0.0157585628 -0.0017533973
0.0077030985 0.0158755481 -0.0018217191
-0.0472952314 0.0197123736 0.0181922615
0.0290185139 0.0185515620 0.0052452534
0.0197666362 0.0178748518 -0.0043439567
-0.0023708970 0.0167216063 -0.0015796646
-0.0012966276 0.0167860314 -0.0015885904
-0.0156032974 0.0178863294 -0.0068740100
0.0117594702 0.0177730583 -0.0017436370
0.0216767639 0.0176822804 -0.0024307892
-0.0161688533 0.0181136169 -0.0045938417
-0.0120693455 0.0178691074 -0.0034443811
-0.0104061672 0.0176715069 -0.0018080547
-0.0062918598 0.0176561773 -0.0015367046
-0.0052481042 0.0176467635 -0.0015367046
0.0023864273 0.0182274394 -0.0015327856
0.0165936016 0.0178730227 -0.0018607602
-0.0033029888 0.0182719156 -0.0015327856
0.0216799863 0.0159117207 -0.0024698526
0.0145741170 0.0171109512 -0.0019232258
0.0155889997 0.0171066076 -0.0019388422
-0.0452261455 0.0194677487 0.0182890892
-0.0446175523 0.0198378973 0.0184265226
0.0196995568 0.0170364976 -0.0053434819
0.0192705430 0.0159425139 -0.0021262541
0.0224312805 0.0179349780 -0.0024229959
-0.0156293418 0.0181407407 -0.0068115368
-0.0224014875 0.0139369853 0.0095244795
-0.0215971749 0.0140300319 0.0094229579
-0.0197699610 0.0105568431 -0.0248082355
-0.0162173156 0.0183793269 -0.0044688955
-0.0119001688 0.0184365958 -0.0033444315
-0.0112823034 0.0182266310 -0.0028134286
-0.0104270624 0.0184475183 -0.0017670542
-0.0094165253 0.0184499994 -0.0016304106
-0.0083857635 0.0184457153 -0.0015640259
-0.0073496746 0.0184394121 -0.0015210658
-0.0063055241 0.0184299052 -0.0015132576
-0.0161123667 0.0118152387 -0.0067053363
-0.0461114533 0.0206161328 0.0165732354
-0.0033129037 0.0185318552 -0.0015015528
0.0087077999 0.0177833177 -0.0017787740
-0.0116454186 0.0169144496 -0.0032715499
0.0076814191 0.0177920610 -0.0017416850
0.0197700579 0.0183644406 -0.0044220462
-0.0042299861 0.0176625475 -0.0015473813
-0.0023844552 0.0176210888 -0.0015523285
-0.0013803050 0.0176659152 -0.0015752017
-0.0156214582 0.0183856040 -0.0068427771
0.0258542988 0.0198647231 0.0122419447
-0.0223320741 0.0146342106 0.0096449703
0.0127719818 0.0185343996 -0.0017280206
0.0193707999 0.0156244114 -0.0024073720
-0.0502375700 0.0216146298 0.0196915418
-0.0494279899 0.0213569328 0.0193531662
0.0304041915 0.0148986056 0.0068070143
0.0223884378 0.0184000246 -0.0024073720
-0.0161645096 0.0186159946 -0.0046250746
0.0256392546 0.0201645717 0.0130852908
-0.0119032422 0.0186911374 -0.0033444315
-0.0115279900 0.0185649768 -0.0032897666
-0.0112981023 0.0187408887 -0.0027821958
-0.0101944031 0.0188398175 -0.0016811565
-0.0083943652 0.0188336819 -0.0015484095
-0.0073590698 0.0188276470 -0.0015015528
0.0066492939 0.0178035349 -0.0016792193
-0.0486627333 0.0214495584 0.0183328092
-0.0474794172 0.0213308185 0.0173645169
-0.0462090112 0.0211921670 0.0162088126
0.0165844467 0.0185178742 -0.0017670617
-0.0143982070 0.0167571083 -0.0024698377
0.0086965607 0.0185528621 -0.0017280206
0.0223041438 0.0188216306 -0.0024073720
-0.0189223383 0.0187140740 -0.0014390796
0.0197883658 0.0185770243 -0.0047656298
-0.0157020148 0.0186203942 -0.0069833323
-0.0470266379 0.0198299997 0.0178330541
0.0278415754 0.0193122998 0.0074629486
-0.0446124263 0.0192701854 0.0189887583
-0.0511821024 0.0218538567 0.0195353776
0.0076665254 0.0186912827 -0.0016759634
0.0307816863 0.0146756135 0.0087525249
-0.0002950181 0.0168318078 -0.0016108975
0.0301096328 0.0151156411 0.0060261339
-0.0471317582 0.0178214014 0.0197227895
-0.0464938320 0.0214118212 0.0163233429
-0.0143984938 0.0179077908 -0.0025088936
0.0028372917 0.0180738121 -0.0015774220
0.0086866124 0.0189411752 -0.0016733482
-0.0116614588 0.0159046166 -0.0031882524
0.0045887036 0.0182036757 -0.0016264915
0.0056205308 0.0178121552 -0.0016499385
0.0007396347 0.0168236457 -0.0016226098
0.0017740864 0.0168151259 -0.0016421303
0.0036376275 0.0167630017 -0.0016889796
0.0046072816 0.0167943053 -0.0016831234
0.0056315968 0.0167887621 -0.0016811714
0.0066629602 0.0167791098 -0.0017299727
-0.0480286367 0.0208079107 0.0182182938
0.0117629115 0.0171361007 -0.0017514378
0.0195832290 0.0173944794 -0.0054684281
0.0257846750 0.0203396343 0.0120337158
-0.0156058716 0.0188751109 -0.0069052428
0.0280555449 0.0207305402 0.0130228251
-0.0024042141 0.0186520144 -0.0015054718
-0.0003244889 0.0186314210 -0.0015386641
0.0027658518 0.0187384188 -0.0015171766
0.0037684448 0.0187499486 -0.0015640333
-0.0454044081 0.0199819021 0.0175779611
0.0056435196 0.0187834837 -0.0016042069
0.0066336216 0.0188307799 -0.0016187057
-0.0003061641 0.0177294761 -0.0015900731
0.0287467800 0.0171587802 -0.0012360513
-0.0475317128 0.0187417269 0.0194885135
0.0271542482 0.0189547762 0.0066196024
0.0266176984 0.0190996453 0.0080876648
0.0097137159 0.0188041851 -0.0017143562
-0.0073177749 0.0157376900 -0.0015458092
-0.0083628977 0.0166430324 -0.0015816092
0.0301767644 0.0155418292 0.0082125962
0.0046569845 0.0186920203 -0.0015952736
0.0304711387 0.0155867934 0.0088373125
0.0136834448 0.0168634281 -0.0018833131
0.0173609741 0.0171021819 -0.0019388422
0.0291186254 0.0192652717 0.0097431242
0.0192679390 0.0164512619 -0.0020950213
-0.0115692811 0.0178886056 -0.0032715499
0.0637388900 0.0100250952 -0.0087559447
-0.0083739208 0.0178003684 -0.0015822649
-0.0042299805 0.0186708458 -0.0014800951
-0.0033202146 0.0189188719 -0.0014859363
-0.0013635748 0.0186416321 -0.0015210882
0.0255991947 0.0206577666 0.0114819109
0.0223028939 0.0190779902 -0.0023761392
-0.0023667507 0.0194089003 -0.0014569312
-0.0003475782 0.0194090903 -0.0014625043
-0.0472816192 0.0209237710 0.0174269825
0.0046974393 0.0193606280 -0.0015588105
0.0076473905 0.0194677636 -0.0015796423
0.0086736744 0.0194594264 -0.0016030669
0.0215263423 0.0193900615 -0.0018451363
-0.0452892520 0.0186939575 0.0193635672
0.0277018398 0.0190076530 0.0071506053
0.0107316859 0.0188005380 -0.0017026439
0.0270906407 0.0197133608 0.0105135888
-0.0143477628 0.0187095068 -0.0024715662
0.0155811040 0.0178745389 -0.0018737689
-0.0114022726 0.0168252885 -0.0027978122
0.0275205038 0.0204862915 0.0116276592
0.0294952076 0.0164943896 0.0030900240
-0.0446091928 0.0210465677 0.0160838813
0.0007080834 0.0186237358 -0.0015347525
0.0076536676 0.0192088075 -0.0016108751
0.0248544291 0.0207033977 0.0110341758
-0.0093865665 0.0166451447 -0.0016694590
-0.0094014043 0.0176753774 -0.0016538426
0.0292444974 0.0175928250 0.0035585463
-0.0158468653 0.0193680637 -0.0069677159
0.0256470572 0.0211064368 0.0112814605
-0.0504163243 0.0221158899 0.0184265226
-0.0492809154 0.0219576657 0.0183328092
-0.0480805002 0.0216781497 0.0176456422
-0.0475079827 0.0217633434 0.0170834064
-0.0399488322 0.0216935351 0.0120857656
-0.0395957939 0.0216782354 0.0120076835
0.0197662115 0.0181236416 -0.0043439567
-0.0161882322 0.0186456554 -0.0074050128
-0.0157633144 0.0189884603 -0.0074154213
0.0086677270 0.0197184384 -0.0015718341
0.0096988799 0.0195782855 -0.0016343147
-0.0093806097 0.0147211663 -0.0016317144
0.0221177656 0.0202184990 0.0033086687
0.0107208127 0.0195718855 -0.0016460270
0.0265721586 0.0198743641 0.0113611221
-0.0143131102 0.0195836611 -0.0024344325
-0.0452992134 0.0208489485 0.0163087696
0.0146920560 0.0178789943 -0.0018555522
-0.0111488486 0.0176654942 -0.0019583702
0.0224292986 0.0197821185 0.0017469078
0.0292137861 0.0164326355 0.0023403764
0.0214810576 0.0196436718 -0.0007050484
-0.0110930214 0.0187759325 -0.0018486232
-0.0093027027 0.0189680755 -0.0015900657
-0.0445183851 0.0216538459 0.0157090575
-0.0153852971 0.0170064792 -0.0026806891
-0.0160475578 0.0178175233 -0.0035353154
-0.0157122444 0.0180512108 -0.0034173131
-0.0174902249 0.0206418931 0.0020592660
-0.0501772799 0.0226493925 0.0176508427
-0.0483534373 0.0225600526 0.0176099390
-0.0476830713 0.0228371322 0.0170521736
-0.0471799336 0.0218781568 0.0167710483
0.0236939881 0.0209008753 0.0106958002
0.0243907031 0.0209127739 0.0108051300
-0.0158051532 0.0192791075 -0.0077798292
-0.0167673286 0.0204893686 0.0007786155
-0.0003631220 0.0199284516 -0.0014117435
-0.0489689074 0.0206423365 0.0195822269
0.0209275782 0.0146509223 -0.0024854690
0.0138010066 0.0177581087 -0.0018217191
0.0173523389 0.0178726427 -0.0018451437
0.0266727619 0.0206812024 0.0115595907
-0.0142945927 0.0200891644 -0.0025114939
-0.0167662743 0.0205761306 0.0015594959
0.0156934261 0.0187779367 -0.0017384291
0.0223778337 0.0202321932 0.0034336150
-0.0391014479 0.0218364410 0.0118135810
-0.0385743566 0.0217863396 0.0118358880
-0.0460917689 0.0219526738 0.0157402903
0.0235569049 0.0213074833 0.0105656534
0.0290362220 0.0170126930 0.0061198473
-0.0073387781 0.0176663063 -0.0015328005
0.0007248397 0.0177226365 -0.0015822649
0.0017559573 0.0177153610 -0.0015822649
0.0036937117 0.0178256631 -0.0016317144
-0.0512152798 0.0221556835 0.0186451674
-0.0484605245 0.0220226869 0.0179267526
0.0097248657 0.0179071426 -0.0017644539
0.0107394001 0.0180326588 -0.0017358214
0.0127794202 0.0177667327 -0.0017690137
-0.0032422815 0.0197233818 -0.0014099404
-0.0023041770 0.0199439563 -0.0014286637
-0.0013902795 0.0196770914 -0.0014430061
0.0256469250 0.0215346254 0.0113244057
-0.0446395539 0.0206298977 0.0170209259
0.0055558821 0.0196663737 -0.0015528873
0.0066184858 0.0197320059 -0.0015588403
-0.0217830967 0.0220175982 0.0113048851
0.0148046799 0.0187810324 -0.0017358288
0.0310419723 0.0145969801 0.0023091435
0.0220251791 0.0208068788 0.0061510801
0.0222523417 0.0209663957 0.0075566620
0.0223724991 0.0213039070 0.0081032813
-0.0450674780 0.0214417204 0.0158964694
0.0157831442 0.0198330954 -0.0016390085
-0.0408180095 0.0224262699 0.0118983537
-0.0405024998 0.0224195644 0.0118983537
0.0209258161 0.0156603158 -0.0024698526
0.0016964551 0.0202996135 -0.0013844222
0.0037666212 0.0202790499 -0.0014234632
0.0219863541 0.0212156773 0.0073380172
0.0225145556 0.0210087672 0.0079314858
0.0196062066 0.0189376622 -0.0037192553
-0.0191025119 0.0217257105 0.0066196024
-0.0169193577 0.0216295794 0.0060573667
-0.0178284813 0.0186639577 -0.0043751895
-0.0161754955 0.0189971700 -0.0046094507
-0.0221052710 0.0223638788 0.0117734224
0.0288161933 0.0191414282 0.0084937215
-0.0215362739 0.0223158002 0.0114298314
-0.0042605447 0.0197087750 -0.0013981014
0.0256468747 0.0219613388 0.0113517344
-0.0500063337 0.0233792141 0.0173020512
-0.0492879711 0.0234040394 0.0174020082
-0.0483989902 0.0235091820 0.0174269974
-0.0477977879 0.0234742947 0.0172395855
0.0117494017 0.0187968351 -0.0016948357
0.0127647715 0.0190488920 -0.0016811639
0.0137874084 0.0187857524 -0.0017241165
-0.0197361615 0.0221345872 0.0100867152
0.0165796168 0.0190313607 -0.0017241165
-0.0167136658 0.0199586563 -0.0016577318
-0.0150836231 0.0201845616 -0.0017514378
0.0269994959 0.0185239427 0.0036054105
-0.0460759066 0.0226422027 0.0155736953
0.0277178809 0.0191435255 0.0085249543
0.0223685969 0.0215942040 0.0082282126
-0.0177310910 0.0218212754 0.0076191276
-0.0083994167 0.0190921985 -0.0015406013
-0.0052268030 0.0157202370 -0.0015562251
-0.0413474031 0.0225126892 0.0116901249
-0.0411878563 0.0227388740 0.0119920671
-0.0405092426 0.0227136537 0.0118983537
0.0127535714 0.0198221616 -0.0016089454
-0.0153022194 0.0177361034 -0.0028418377
-0.0222644825 0.0226567835 0.0117890239
0.0017134834 0.0196512304 -0.0014430061
-0.0209639575 0.0226499289 0.0118983537
-0.0202962253 0.0226486437 0.0119712502
-0.0195545312 0.0227063447 0.0125542879
0.0274421666 0.0194066241 0.0084000081
-0.0134179750 0.0101880319 -0.0146828219
-0.0160885025 0.0188307315 -0.0037465766
-0.0156880300 0.0186669342 -0.0033310428
-0.0119163850 0.0189490840 -0.0033131987
0.0276420377 0.0164159611 0.0021529719
0.0056132553 0.0204899237 -0.0015015602
-0.0154155092 0.0215764306 0.0057762563
-0.0220786426 0.0224508867 0.0100554824
0.0137725370 0.0198171698 -0.0016167536
0.0147904865 0.0198127478 -0.0016226098
0.0166605115 0.0197728649 -0.0016625524
-0.0136373909 0.0194840059 -0.0020794049
0.0096883299 0.0199685022 -0.0015718341
0.0194791667 0.0166062415 -0.0024932697
-0.0162744038 0.0178110413 -0.0067199245
0.0027255944 0.0205488652 -0.0013792217
0.0037564791 0.0206686370 -0.0013844147
0.0266303923 0.0222660527 0.0115339458
0.0158020407 0.0205784589 -0.0015913695
-0.0063647302 0.0206350647 -0.0013792217
-0.0122121107 0.0198014975 -0.0048437193
0.0241034366 0.0222345218 0.0112736523
0.0249460079 0.0222268924 0.0112111866
0.0256469082 0.0222447775 0.0113595426
-0.0221031066 0.0229374655 0.0117421746
0.0066051194 0.0205059648 -0.0015067682
-0.0170460921 0.0210266039 0.0031524897
-0.0139521398 0.0221884325 0.0064634234
-0.0203715507 0.0229801461 0.0123200268
-0.0197824147 0.0230255798 0.0127729475
-0.0032381259 0.0207331069 -0.0013610125
-0.0022819315 0.0207503811 -0.0013862327
-0.0013872881 0.0206867941 -0.0013828725
0.0256471429 0.0225235596 0.0113283098
-0.0193790067 0.0229565129 0.0130540580
0.0223668590 0.0220137872 0.0082750618
-0.0215984005 0.0221010186 0.0095557123
-0.0197233502 0.0220335722 0.0092121214
0.0219089836 0.0200410560 0.0017156750
-0.0140134590 0.0204250440 -0.0017826706
-0.0134005556 0.0203883722 -0.0020325482
-0.0116810845 0.0208170488 -0.0003614649
0.0086492701 0.0206245556 -0.0014800951
0.0096739447 0.0206173547 -0.0014918074
0.0106978342 0.0207373947 -0.0015119687
0.0289247297 0.0192786418 0.0071193576
0.0193385463 0.0172219798 -0.0033444315
-0.0151963690 0.0186484642 -0.0029045418
-0.0442293994 0.0232798681 0.0135538280
-0.0063818553 0.0211565569 -0.0013375655
-0.0121209482 0.0175589994 -0.0053747147
-0.0166511107 0.0209821127 0.0028089061
-0.0144862542 0.0208709277 0.0020904988
-0.0129798548 0.0211646520 0.0024965554
0.0017375320 0.0186172128 -0.0015230402
-0.0508278720 0.0223839730 0.0179267526
-0.0485251658 0.0226511732 0.0180204660
0.0086795492 0.0192006156 -0.0016342998
0.0173427239 0.0187728181 -0.0017436370
-0.0167840924 0.0198344290 -0.0051248372
-0.0222653057 0.0232316181 0.0117656142
0.0127504002 0.0207045376 -0.0015100762
0.0137608703 0.0207201242 -0.0015380010
0.0256472584 0.0228051953 0.0113205016
0.0107107721 0.0200892724 -0.0015874654
0.0216784589 0.0166705139 -0.0024483576
