# .PCD v0.7 - Point Cloud Data file format
VERSION 0.7
FIELDS x y z
SIZE 4 4 4
TYPE F F F
COUNT 1 1 1
WIDTH 1199
HEIGHT 1
VIEWPOINT 0 0 0 1 0 0 0
POINTS 1199
DATA ascii
-0.0063343663 0.0193607304 -0.0003133025
0.0579030775 0.0230679754 0.0064120460
-0.0161729585 0.0218666587 0.0091138799
0.0115980944 0.0219933335 -0.0014280062
-0.0162382182 0.0224062409 0.0115675945
-0.0156536084 0.0223799143 0.0113940705
-0.0519028716 0.0228981990 0.0097385962
-0.0493472181 0.0230875891 0.0085100103
0.0174782034 0.0219151881 -0.0018704962
0.0222257208 0.0200391952 -0.0030990820
-0.0330204479 0.0226537790 0.0025076363
-0.0323526822 0.0226176698 0.0023098160
0.0206572339 0.0211470965 -0.0027242657
0.0277774036 0.0234738756 0.0112300683
-0.0395229347 0.0220607724 0.0053448472
0.0096316244 0.0183834229 -0.0014924388
0.0026933250 0.0213831346 -0.0007278081
-0.0170699116 0.0221674088 0.0092388261
-0.0302516613 0.0223213341 0.0192787219
-0.0322018601 0.0206932519 0.0044494215
0.0586883016 0.0231266338 0.0068337191
-0.0340958275 0.0231615771 0.0009302590
-0.0305032339 0.0231063385 0.0022733752
-0.0501753502 0.0230458323 0.0082642902
0.0560831018 0.0206259396 0.0062714834
0.0567421503 0.0204910953 0.0075625349
0.0577080138 0.0203251373 0.0085605700
-0.0315685757 0.0232107881 0.0018360782
0.0559569634 0.0230939481 0.0068024863
0.0267186388 0.0223682579 0.0109851528
-0.0103858206 0.0226328839 0.0000791047
-0.0093338285 0.0222347248 0.0000712741
0.0218610391 0.0190595705 -0.0030990820
0.0078250561 0.0204171557 -0.0011976194
-0.0072301943 0.0223266203 -0.0000094082
-0.0003444275 0.0192718152 -0.0006881114
-0.0128034959 0.0230579767 0.0055843089
-0.0126167517 0.0232520718 0.0049908403
0.0126094744 0.0220978428 -0.0015529376
0.0136131868 0.0220835526 -0.0016310196
-0.0183713753 0.0200235713 0.0002326760
-0.0311533548 0.0220725108 0.0031541977
-0.0305265840 0.0224054027 0.0033791009
-0.0153583717 0.0203861985 -0.0006419029
0.0573875718 0.0214632768 0.0056571905
0.0283764899 0.0190821160 0.0024607871
-0.0079185683 0.0202314463 -0.0001442414
-0.0072899703 0.0203997325 -0.0001734030
-0.0063669216 0.0203835573 -0.0002352204
0.0175779536 0.0155226495 -0.0021307897
-0.0174131598 0.0218480732 0.0062090177
0.0117207225 0.0222429689 -0.0014227983
0.0277777631 0.0237555187 0.0112769175
-0.0102793295 0.0177695062 -0.0000770744
0.0227387119 0.0216219556 0.0077083129
0.0262717176 0.0220547374 0.0108630527
-0.0173565391 0.0242213774 0.0125289280
-0.0160225462 0.0238594878 0.0120187569
0.0570760928 0.0229973178 0.0142676998
0.0278067682 0.0214744825 0.0109663624
0.0287084840 0.0213265326 0.0112472642
0.0560977012 0.0207510162 0.0075208861
0.0568802617 0.0206268597 0.0062090177
0.0208259374 0.0216511656 0.0002118517
0.0218048915 0.0209573116 0.0008053202
0.0557310916 0.0230278689 0.0040537808
0.0586085953 0.0252473075 0.0197026301
0.0237500500 0.0213868339 0.0094943810
-0.0003651587 0.0202849898 -0.0006354060
-0.0176187996 0.0217084307 0.0000556726
-0.0155674908 0.0208558943 -0.0004440900
0.0106257871 0.0193725321 -0.0015080627
-0.0400830843 0.0226211492 0.0033933837
-0.0163878631 0.0233593564 0.0116484184
-0.0155711826 0.0234802235 0.0117126573
-0.0321242549 0.0233960096 0.0018048454
-0.0313726850 0.0234567020 0.0017111395
0.0577853806 0.0243490841 0.0147987027
-0.0340997986 0.0225063059 0.0009693075
0.0284613315 0.0222257990 0.0111597944
-0.0312864743 0.0225825440 0.0023254249
0.0277783107 0.0240432639 0.0113706309
0.0146340793 0.0203169454 -0.0018243100
0.0048483089 0.0206336882 -0.0009938311
0.0057930648 0.0206942614 -0.0010688063
0.0067279432 0.0207597483 -0.0011000317
0.0279098004 0.0206555743 0.0105923433
0.0200074892 0.0210798774 -0.0047389399
0.0241075978 0.0233138148 0.0098947603
-0.0172269996 0.0247887094 0.0125497598
0.0266497545 0.0214707907 0.0109351296
-0.0411163010 0.0238812286 0.0010551978
-0.0399375223 0.0239111576 0.0015705843
-0.0396274813 0.0239309166 0.0018048454
0.0579113550 0.0208392013 0.0082393009
0.0587084182 0.0251406748 0.0188280363
-0.0101847965 0.0229762290 0.0001181457
-0.0093739610 0.0230141301 0.0001688991
0.0236857906 0.0222861040 0.0094887186
0.0226506777 0.0209190901 0.0052719507
0.0214869101 0.0216211285 0.0021796692
-0.0171563420 0.0122793969 -0.0166665297
0.0569184087 0.0226417836 0.0051470120
0.0573225394 0.0224462058 0.0057196561
-0.0106775295 0.0215831790 -0.0001942124
-0.0022714327 0.0185396541 -0.0006002616
-0.0013577847 0.0182739105 -0.0006763991
-0.0069219898 0.0211628769 -0.0001317393
-0.0072880480 0.0215128046 -0.0000744890
-0.0064204689 0.0217968542 -0.0001005065
-0.0399815403 0.0231574047 0.0023358408
-0.0162422564 0.0243489239 0.0116127152
-0.0155090857 0.0243829805 0.0117480624
-0.0211250428 0.0236973111 0.0149236340
0.0574566461 0.0212624017 0.0214726347
0.0266809631 0.0233248118 0.0111383218
-0.0339873619 0.0235606451 0.0009771157
0.0284640342 0.0236246157 0.0113315899
-0.0323601030 0.0237410758 0.0016903225
0.0276376233 0.0209419373 0.0107172895
-0.0184492301 0.0244154315 0.0140178222
0.0086067449 0.0193979461 -0.0013537984
0.0026589071 0.0224063564 -0.0006028619
-0.0083237160 0.0229974221 0.0001454744
0.0554141961 0.0192438085 0.0120187569
-0.0096206088 0.0177612510 -0.0001005065
0.0558193997 0.0215929020 0.0043848697
-0.0238212366 0.0242108274 0.0165166277
-0.0331727453 0.0209720377 0.0043583233
-0.0324001275 0.0209998991 0.0041006375
0.0586325862 0.0239015650 0.0065734107
0.0595041104 0.0239377823 0.0067816544
0.0243777949 0.0230479520 0.0099572409
0.0257671420 0.0234770719 0.0106087197
0.0174919665 0.0204144064 -0.0019815546
-0.0149738286 0.0233973768 0.0105819423
-0.0145612452 0.0236224923 0.0101758856
-0.0501679443 0.0240824129 0.0070107002
-0.0322843529 0.0239840541 0.0015237276
-0.0567733012 0.0209681895 0.0200774539
-0.0398915745 0.0241341833 0.0012113769
-0.0394022651 0.0241741221 0.0016486663
-0.0384427048 0.0241630580 0.0017632041
0.0557309426 0.0212414730 0.0070835967
0.0562606268 0.0212399084 0.0070211310
-0.0305609200 0.0239739511 0.0017579962
-0.0053168293 0.0203660671 -0.0002996381
-0.0099297808 0.0234171096 0.0002587009
-0.0092585515 0.0234006736 0.0002014432
0.0213342961 0.0208563823 -0.0023806747
0.0077608041 0.0230828840 -0.0009126198
0.0156191727 0.0213080887 -0.0018086936
0.0567268543 0.0203779060 0.0084891785
0.0218630917 0.0214915257 0.0033249650
0.0224602502 0.0209844392 0.0034290794
0.0588095374 0.0256553907 0.0205772091
0.0568772331 0.0233871248 0.0051657576
0.0572999679 0.0233631823 0.0055843089
-0.0106908511 0.0218420122 -0.0001629721
-0.0162580330 0.0213039871 0.0037414301
-0.0083262306 0.0222753938 0.0000601206
-0.0062364880 0.0224725511 -0.0000603553
-0.0053549986 0.0225495305 -0.0000900980
0.0106108692 0.0203760620 -0.0014377739
0.0166014638 0.0223042984 -0.0017618444
-0.0181473400 0.0244599674 0.0134743322
0.0284662917 0.0243376810 0.0115085859
0.0301235914 0.0246576462 0.0118313450
0.0016317235 0.0222963970 -0.0005436521
0.0047286488 0.0222364943 -0.0008247551
0.0057262015 0.0222448688 -0.0009001028
0.0586436801 0.0241746251 0.0066046584
0.0596133061 0.0241934303 0.0066619087
-0.0181645695 0.0250675846 0.0131536443
-0.0181120988 0.0252295081 0.0125653911
-0.0171771962 0.0252467860 0.0128152538
-0.0165141951 0.0251506586 0.0121358950
0.0198733211 0.0224273596 0.0013909806
-0.0003367739 0.0212660637 -0.0005601030
0.0006378142 0.0212880764 -0.0006080698
0.0167148039 0.0230615009 -0.0016747769
-0.0483288802 0.0246464033 0.0058498103
-0.0473922454 0.0246195812 0.0058498103
-0.0464506932 0.0245911647 0.0058341864
0.0050348435 0.0183464382 -0.0011351760
0.0207936931 0.0219736788 0.0008053202
0.0577123873 0.0219761189 0.0226387400
-0.0102383252 0.0236688871 0.0001884196
-0.0092685018 0.0236596521 0.0002222601
-0.0376924463 0.0241716746 0.0019922573
-0.0375853293 0.0243769009 0.0015081111
0.0006750000 0.0224140678 -0.0004784521
0.0156053109 0.0223147664 -0.0017071869
-0.0501401685 0.0232632738 0.0068337191
0.0583670996 0.0214958880 0.0067087729
-0.0092781987 0.0204356667 -0.0000380483
-0.0083575118 0.0205024946 -0.0000749510
0.0586769767 0.0251519848 0.0213580895
0.0578864999 0.0234597865 0.0063261408
0.0587130077 0.0235217903 0.0066016782
-0.0228871759 0.0240024310 0.0148299355
-0.0155390743 0.0250944961 0.0118079204
-0.0213812906 0.0244864356 0.0150485802
0.0155951688 0.0230710376 -0.0016349237
-0.0134284105 0.0153460074 -0.0016935002
0.0265401732 0.0249404516 0.0118938256
0.0269539617 0.0249242391 0.0117688794
0.0277799238 0.0249073002 0.0116361249
0.0281582046 0.0198085625 0.0074271876
0.0220430791 0.0222023409 0.0073022414
0.0224722698 0.0224234927 0.0076770652
-0.0215516705 0.0218532328 0.0082705338
-0.0428546034 0.0250729788 0.0038038958
-0.0422343947 0.0249857251 0.0032416675
0.0207635108 0.0182526503 -0.0030846726
0.0136049548 0.0225882810 -0.0015802663
-0.0181179326 0.0257100705 0.0129870642
-0.0169999208 0.0255991984 0.0122686494
-0.0202798191 0.0246560033 0.0145956744
0.0056162234 0.0144356657 -0.0012854617
0.0067784805 0.0194571000 -0.0012204926
-0.0430598669 0.0248510893 0.0041787196
0.0167111680 0.0234385524 -0.0016497653
0.0095058717 0.0227140728 -0.0010896157
0.0589366071 0.0259828772 0.0184844453
0.0561258383 0.0206131507 0.0088640023
-0.0042783115 0.0203522500 -0.0003328230
-0.0107151587 0.0231219102 -0.0001421478
0.0577405840 0.0242758933 0.0061436910
0.0587017648 0.0244024154 0.0062792916
0.0594958179 0.0244009141 0.0061933864
-0.0083468389 0.0235162918 0.0002001394
-0.0072693545 0.0232322756 0.0000868905
-0.0062117521 0.0233370494 0.0000114087
-0.0052252468 0.0234125014 -0.0000295173
0.0566855185 0.0233505536 0.0112378765
0.0097792279 0.0214327741 -0.0012740325
0.0106499977 0.0213452671 -0.0013722163
-0.0410577394 0.0241015796 0.0006803740
-0.0212248284 0.0253717918 0.0151266623
-0.0202890616 0.0255725477 0.0150017310
-0.0410129465 0.0219819825 0.0046940986
-0.0312993713 0.0237000454 0.0015471596
0.0268151462 0.0252444949 0.0120916385
-0.0175714064 0.0254327413 0.0131119806
0.0016586201 0.0232818779 -0.0004574712
0.0026334838 0.0233011600 -0.0005182754
0.0566545911 0.0239862297 0.0074271876
0.0558590107 0.0223728698 0.0040615890
0.0555521064 0.0227407645 0.0038663689
0.0146209616 0.0213200320 -0.0017384198
0.0037273073 0.0212375987 -0.0008306112
0.0047296472 0.0212447364 -0.0009230133
0.0058065224 0.0213662330 -0.0010087248
0.0067889001 0.0214422811 -0.0010434072
0.0076734480 0.0215849634 -0.0010826867
-0.0407644175 0.0240936074 0.0006803740
0.0240523331 0.0242989529 0.0099072624
-0.0163704474 0.0195806604 -0.0031927880
0.0257297978 0.0239305589 0.0104674120
-0.0219343323 0.0265930537 0.0170476306
-0.0352070667 0.0250068624 0.0027419049
-0.0346791930 0.0249336343 0.0022733752
0.0564109609 0.0215328578 0.0047487635
-0.0382888578 0.0245223846 0.0013050754
-0.0193431582 0.0245295335 0.0143801440
0.0196608789 0.0202906374 -0.0030834656
0.0126410332 0.0193441454 -0.0017052349
-0.0427038409 0.0253737513 0.0040537808
-0.0489460714 0.0246624555 0.0058341864
-0.0397934280 0.0249049086 0.0009927321
-0.0393076651 0.0249139648 0.0011697356
-0.0383372121 0.0248650741 0.0009927321
-0.0374512561 0.0248373691 0.0009614993
0.0552355088 0.0186195280 0.0112066437
0.0592841618 0.0226197336 0.0070523638
0.0591354109 0.0262218136 0.0180471558
0.0566988476 0.0242499504 0.0052788872
0.0593394078 0.0268054176 0.0202023853
-0.0053549614 0.0213924181 -0.0002000835
-0.0043110345 0.0213758368 -0.0002488848
-0.0032675529 0.0213585552 -0.0003074463
0.0576933771 0.0248929467 0.0060215909
-0.0102980519 0.0240496714 0.0001525078
-0.0092222821 0.0240716022 0.0002966244
-0.0083158407 0.0240176935 0.0002609286
-0.0072998125 0.0240086485 0.0001571868
-0.0126825925 0.0236759949 0.0051782448
0.0091031492 0.0221229997 -0.0011624899
0.0098850820 0.0223374348 -0.0012081396
-0.0339828841 0.0220852960 0.0007584635
-0.0482232161 0.0241986308 0.0064106155
-0.0475573428 0.0239107255 0.0069586504
0.0196362250 0.0237776916 -0.0009126198
-0.0250941347 0.0245250333 0.0190779287
0.0277791526 0.0244753081 0.0115073044
-0.0168458614 0.0244161431 0.0118625928
-0.0315502398 0.0246749092 0.0008521695
-0.0312182195 0.0242549200 0.0012834463
0.0168318823 0.0236909669 -0.0016232189
-0.0492119975 0.0242445003 0.0064692963
0.0268138833 0.0255774651 0.0124976952
0.0278273970 0.0255021360 0.0119354744
-0.0155170057 0.0256452356 0.0117142219
-0.0480475388 0.0258698408 0.0045379270
-0.0392407589 0.0231142770 0.0031390358
-0.0383386351 0.0233284365 0.0030646715
-0.0185538176 0.0233109612 0.0143718142
0.0586350970 0.0252956841 0.0165634919
-0.0179021303 0.0208762977 -0.0005690288
-0.0111367945 0.0183786023 0.0000001434
-0.0182218868 0.0261764023 0.0132681746
-0.0345271118 0.0251565669 0.0019610245
0.0056157187 0.0154301915 -0.0013069343
0.0168288946 0.0239436124 -0.0015997943
-0.0181037914 0.0238231663 0.0138928760
-0.0482309572 0.0251015518 0.0052469540
-0.0472488739 0.0250986833 0.0052337740
-0.0398016013 0.0251718890 0.0009927321
-0.0392005928 0.0251510683 0.0009614993
-0.0463615246 0.0251661185 0.0052407179
-0.0456811674 0.0255779307 0.0049908403
-0.0306882430 0.0237101484 0.0017423723
-0.0103085432 0.0244366322 0.0001681168
-0.0022285993 0.0215944182 -0.0003699120
0.0006657389 0.0202702712 -0.0006939676
-0.0159411561 0.0215766076 0.0063808132
0.0192892943 0.0146770012 -0.0028492045
0.0061847270 0.0201841760 -0.0011312645
0.0068662204 0.0204112474 -0.0011401977
0.0175155159 0.0159540046 -0.0021307897
0.0229463764 0.0222953726 0.0081299711
0.0207629707 0.0162534695 -0.0030210074
-0.0132466909 0.0236607436 0.0060840715
0.0198672917 0.0240663905 -0.0006315019
0.0196515843 0.0239942763 -0.0011624973
-0.0211360883 0.0263136420 0.0153921712
-0.0202856790 0.0263459999 0.0153796542
-0.0154227968 0.0209275167 0.0002587009
0.0104127768 0.0240490641 -0.0010687988
0.0277531426 0.0252592880 0.0117813814
-0.0306052249 0.0215172861 0.0042255688
0.0175586417 0.0224461723 -0.0017758589
-0.0486084782 0.0232300293 0.0082393009
-0.0345502757 0.0253909733 0.0017111395
0.0277823545 0.0258043204 0.0121124703
0.0284725558 0.0256572980 0.0120499898
-0.0103293527 0.0196882430 0.0000166316
0.0268136933 0.0258737374 0.0126226414
-0.0228740554 0.0253477227 0.0163604636
0.0585029386 0.0251665879 0.0059903581
-0.0479622222 0.0261243302 0.0043817479
-0.0181499664 0.0265723299 0.0130391140
-0.0175922234 0.0262908805 0.0131328125
0.0057255011 0.0232386570 -0.0007993784
0.0237049069 0.0232613441 0.0097385813
-0.0073203761 0.0245271791 0.0002040435
-0.0489300899 0.0252909530 0.0052563418
0.0097516440 0.0234820191 -0.0010509323
0.0596368872 0.0269289408 0.0188905168
0.0569839217 0.0250182059 0.0056884233
0.0596474148 0.0274052192 0.0202023853
-0.0103222784 0.0246977154 0.0001993496
0.0016629116 0.0212748442 -0.0006471183
-0.0040607695 0.0231233332 -0.0001317393
-0.0032904989 0.0233535189 -0.0001585316
-0.0022846761 0.0233889986 -0.0002196040
-0.0012403040 0.0233676974 -0.0002976861
0.0007689593 0.0233719964 -0.0003860872
0.0095985681 0.0203918014 -0.0013401192
0.0126301562 0.0203435142 -0.0016525220
0.0067167431 0.0232501384 -0.0008459669
0.0077446159 0.0234708805 -0.0008306187
0.0087976959 0.0233616848 -0.0009438377
0.0106630083 0.0242971275 -0.0010792073
-0.0322592668 0.0215228889 0.0035568494
-0.0315860249 0.0253170822 -0.0002566855
0.0284690745 0.0250598136 0.0117376465
-0.0425867848 0.0255482141 0.0033041332
0.0559176914 0.0233198199 0.0042724255
0.0226295814 0.0233782288 0.0078600217
-0.0479436778 0.0263946746 0.0043348987
0.0136820758 0.0233399775 -0.0014894512
-0.0202064011 0.0251109917 0.0147882719
-0.0194892827 0.0253427271 0.0144238789
0.0207633004 0.0172294471 -0.0030522402
-0.0189567003 0.0267258380 0.0119875241
0.0563423708 0.0236933324 0.0072710086
0.0569741912 0.0253922995 0.0058185775
0.0574319474 0.0253568720 0.0095199514
0.0036994179 0.0222560707 -0.0007310566
-0.0062450636 0.0242415015 0.0000888426
-0.0052319150 0.0242760498 0.0000355858
-0.0042818692 0.0243322868 0.0000001583
-0.0033651555 0.0244404245 -0.0000603553
0.0229271911 0.0253234748 0.0080295820
-0.0398162715 0.0245132763 0.0010551978
-0.0393258743 0.0245207045 0.0013764668
0.0339553393 0.0269723330 0.0227636714
-0.0374418162 0.0246046837 0.0012269933
-0.0189887974 0.0246911440 0.0138616432
-0.0349676050 0.0244796630 0.0028668437
-0.0115319286 0.0193578508 -0.0003503840
-0.0209043678 0.0269982088 0.0158294607
-0.0204476248 0.0270263720 0.0153817553
0.0128147351 0.0242554862 -0.0012874212
0.0138190445 0.0242418554 -0.0013473090
0.0148245236 0.0242246371 -0.0014358219
-0.0464250110 0.0256991554 0.0046784971
-0.0358576141 0.0243773703 0.0040537808
-0.0314274691 0.0255674738 -0.0003087353
-0.0169956144 0.0263010804 0.0122217853
-0.0166474525 0.0265525822 0.0120343734
0.0158291291 0.0242060032 -0.0015373360
-0.0420030840 0.0254672859 0.0028043706
0.0176242143 0.0232634824 -0.0016935151
0.0146073448 0.0223258827 -0.0016505700
0.0067975894 0.0223684851 -0.0009630676
0.0077812411 0.0224427450 -0.0010102224
0.0087253284 0.0224976335 -0.0010615867
-0.0392666496 0.0255364832 0.0006366391
-0.0382659100 0.0254529733 0.0005001668
-0.0372757800 0.0254900027 0.0004818011
-0.0365780555 0.0256985743 0.0006257165
-0.0461699404 0.0265273321 0.0036789645
-0.0452463217 0.0264967363 0.0036685411
-0.0446614958 0.0264840294 0.0037101898
-0.0191434119 0.0268547926 0.0108630527
-0.0016909225 0.0250519086 -0.0001005065
-0.0319194905 0.0199600551 -0.0018496793
0.0058435798 0.0194077734 -0.0011624824
-0.0303640421 0.0244772416 0.0013987888
-0.0047526639 0.0227958318 -0.0001005065
-0.0043183621 0.0223761778 -0.0001650732
0.0036687271 0.0232788939 -0.0006197821
0.0047008079 0.0232570302 -0.0007212963
-0.0002276769 0.0223615747 -0.0004463252
-0.0062800739 0.0250214133 0.0001767147
-0.0164337065 0.0180736836 -0.0055120122
-0.0133524742 0.0243731160 0.0063808132
-0.0127625484 0.0243731197 0.0053968895
0.0100525115 0.0230396111 -0.0011312645
0.0108108707 0.0234016348 -0.0012034755
0.0118245129 0.0233815853 -0.0013108384
0.0226811729 0.0260416586 0.0079269577
0.0208770595 0.0206648204 -0.0030053835
0.0214878153 0.0204602946 -0.0029949676
-0.0498155914 0.0242336225 0.0067712385
-0.0180265587 0.0266777221 0.0097385962
-0.0182864834 0.0266470704 0.0104882289
-0.0176493470 0.0267500822 0.0103008319
-0.0472597294 0.0243815463 0.0062402505
-0.0466495864 0.0242198948 0.0061933864
-0.0214813035 0.0249592196 0.0133931059
-0.0305182990 0.0226816144 0.0026247669
-0.0188676249 0.0252152029 0.0134868193
-0.0348302908 0.0251683090 0.0019922573
-0.0161261763 0.0254986901 0.0116010029
-0.0332321636 0.0252751056 -0.0008813869
0.0128033822 0.0247666780 -0.0012171622
0.0138078881 0.0247533824 -0.0012718271
0.0148139130 0.0247360263 -0.0013577174
-0.0473662727 0.0255932268 0.0047097150
-0.0387209468 0.0228094775 0.0039913077
0.0237679053 0.0261057597 0.0094708670
0.0146172969 0.0233106557 -0.0015519168
0.0156581569 0.0235884394 -0.0015963223
-0.0433439575 0.0254668836 0.0046472494
-0.0391502716 0.0239421669 0.0020026732
-0.0208339673 0.0248447228 0.0148924012
-0.0314037465 0.0258196350 -0.0003712084
-0.0181792285 0.0266349632 0.0114253033
0.0067109875 0.0242505465 -0.0007115360
0.0108051132 0.0224131364 -0.0012999084
0.0036203486 0.0249455962 -0.0004518982
0.0175709985 0.0243163947 -0.0015919786
0.0222845487 0.0260243136 0.0078020114
-0.0174483974 0.0266527552 0.0076770652
-0.0468878858 0.0268468205 0.0038351361
-0.0319506563 0.0255706813 -0.0003816243
-0.0353573896 0.0245367680 0.0032520760
0.0138030173 0.0250086021 -0.0012405869
-0.0014397579 0.0253052432 -0.0000900980
-0.0380172394 0.0260249209 -0.0001942124
0.0593496226 0.0266386475 0.0189529825
0.0056945756 0.0242639501 -0.0006744470
0.0235720892 0.0242619459 0.0096167792
-0.0073489938 0.0251777228 0.0002717171
0.0267175827 0.0242982972 0.0114025790
-0.0487342663 0.0259369332 0.0048971344
-0.0329160206 0.0244099367 0.0016330499
-0.0322584175 0.0244788546 0.0012530182
-0.0453646444 0.0258415956 0.0049596000
0.0572019182 0.0259813461 0.0061777700
0.0096149836 0.0193867031 -0.0014143493
-0.0042149406 0.0251294766 0.0000641886
0.0579793490 0.0263424460 0.0106131751
0.0110230297 0.0241855588 -0.0011437591
0.0097939614 0.0244190972 -0.0009667408
0.0107280519 0.0246954169 -0.0010509472
-0.0472731330 0.0262212921 0.0043292139
-0.0452486537 0.0267348345 0.0033978391
-0.0445064716 0.0267155264 0.0034290794
0.0158216730 0.0247135032 -0.0014826637
-0.0197350178 0.0269289743 0.0133618731
-0.0178813953 0.0271441210 0.0130807627
-0.0160727035 0.0270445142 0.0115814675
0.0596053414 0.0276111756 0.0174536873
0.0582650043 0.0257871021 0.0028668437
0.0117924968 0.0250348765 -0.0011390727
0.0127981389 0.0250220876 -0.0011859294
0.0148086175 0.0249921400 -0.0013186764
-0.0452255271 0.0269654002 0.0030854810
0.0127787115 0.0234013963 -0.0013922956
0.0237149447 0.0265056472 0.0092700738
-0.0322793536 0.0220984984 0.0030620638
-0.0365376286 0.0261670668 -0.0002879109
-0.0179117639 0.0267556440 0.0123311151
0.0277842041 0.0263499413 0.0124279428
0.0576049350 0.0261173639 0.0061543453
0.0222829338 0.0262984242 0.0078332443
-0.0475404821 0.0270476211 0.0041396786
-0.0468415208 0.0271082688 0.0037414301
-0.0460624211 0.0270098317 0.0032104272
-0.0445030592 0.0269507188 0.0031479616
0.0137981307 0.0252640340 -0.0012093540
-0.0023526682 0.0253240895 -0.0000354405
-0.0013194869 0.0255617294 -0.0000692662
-0.0382110216 0.0262687523 -0.0003816243
-0.0372884013 0.0260977205 -0.0003325325
0.0559274741 0.0210158955 0.0083746482
0.0598377027 0.0277276132 0.0203585643
0.0592648722 0.0230130237 0.0069586504
-0.0012767038 0.0243982021 -0.0001922753
0.0066863298 0.0251485202 -0.0006106701
-0.0311858766 0.0230764356 0.0020547230
-0.0305011477 0.0235862155 0.0020672102
-0.0129794274 0.0224930104 0.0053031910
0.0233306568 0.0247842316 0.0086141247
0.0554762669 0.0201226007 0.0109723825
-0.0236253832 0.0270124841 0.0200149734
-0.0107876491 0.0256982055 -0.0000380334
0.0577146225 0.0227740761 0.0062090177
-0.0103515666 0.0212466139 -0.0000044089
0.0321305767 0.0271659102 0.0137679297
0.0079976618 0.0213606674 -0.0011390727
0.0268692225 0.0263362173 0.0127309281
0.0595272444 0.0254411604 0.0043401066
0.0097139124 0.0251653921 -0.0009126198
0.0299913827 0.0249676351 0.0120812226
0.0265350807 0.0261951704 0.0129245836
0.0590194277 0.0259779077 0.0032104272
0.0596573390 0.0260443930 0.0036086831
0.0115356650 0.0252933893 -0.0011000317
0.0120400814 0.0252856407 -0.0011312645
0.0127938055 0.0252765585 -0.0011624973
-0.0381616168 0.0239842366 0.0021171961
0.0148032894 0.0252484959 -0.0012796354
0.0238528624 0.0267613698 0.0091555435
0.0243857689 0.0268101115 0.0094887037
-0.0155000221 0.0263375733 0.0116283316
-0.0362169109 0.0264374707 -0.0006393101
-0.0178471450 0.0273921136 0.0123233069
-0.0176100899 0.0271483529 0.0131432284
0.0588994883 0.0257965904 0.0170476306
-0.0373005532 0.0264537726 -0.0007486399
-0.0044230651 0.0234740172 -0.0000770893
-0.0036046265 0.0238008667 -0.0001005065
-0.0160837863 0.0217506643 0.0080206562
0.0223756172 0.0243650842 0.0078124274
-0.0399133675 0.0236703474 0.0018048454
0.0222837403 0.0265635345 0.0078020114
-0.0138383936 0.0236207414 0.0079269428
0.0332873464 0.0285249520 0.0210457463
-0.0476585068 0.0274548698 0.0040537808
-0.0471410193 0.0273897070 0.0037101898
-0.0322395600 0.0250424985 0.0005163942
-0.0463599525 0.0272897277 0.0031791944
-0.0442515425 0.0271899346 0.0029605497
0.0137932254 0.0255196858 -0.0011781212
-0.0013300388 0.0258214604 -0.0000380334
-0.0394222252 0.0235200841 0.0024701525
-0.0384604521 0.0236413796 0.0026377831
0.0237380229 0.0253333692 0.0094678719
-0.0385274850 0.0260590781 -0.0000536498
-0.0411572494 0.0269213859 0.0017423723
-0.0212912019 0.0271828715 0.0160637219
-0.0108716395 0.0259929951 0.0002118517
-0.0156412218 0.0276092570 0.0106756408
-0.0170175973 0.0214733835 -0.0008345302
0.0224794112 0.0214285944 0.0063339639
0.0207633991 0.0152767133 -0.0030053910
-0.0424210913 0.0247608740 0.0035852510
-0.0365845822 0.0253414344 0.0009302590
-0.0082666669 0.0245561842 0.0003211666
0.0018008032 0.0253684949 -0.0002840217
-0.0205249656 0.0233998541 0.0149236340
0.0222857557 0.0268239249 0.0077395309
0.0121635888 0.0255361218 -0.0011312645
0.0129160555 0.0255285073 -0.0011520814
-0.0327720381 0.0256938133 -0.0015373211
0.0168131366 0.0252103377 -0.0014774632
0.0227588452 0.0264825318 0.0079894233
-0.0133880433 0.0269385893 0.0063651819
0.0168225709 0.0244498719 -0.0015503522
-0.0481709950 0.0256237332 0.0047565717
0.0175616182 0.0252016466 -0.0015164968
-0.0373227485 0.0266834516 -0.0009854939
0.0575892851 0.0268570762 0.0066150744
0.0225496385 0.0268375520 0.0078332443
-0.0175185818 0.0274998713 0.0078332443
-0.0404506214 0.0262923632 0.0002587009
-0.0393404774 0.0260150377 0.0001767147
0.0336164720 0.0289313588 0.0217641462
0.0216204114 0.0208004173 -0.0006315019
-0.0362746380 0.0261059273 0.0001181457
-0.0464101322 0.0275394935 0.0029917825
-0.0421193577 0.0273856688 0.0028980765
-0.0176234897 0.0279101226 0.0105819423
0.0137891658 0.0257743616 -0.0011546891
-0.0023754688 0.0259712320 0.0000244398
-0.0013406260 0.0260814074 -0.0000068005
-0.0391593687 0.0265125986 -0.0003503840
0.0066713076 0.0259145331 -0.0005612206
0.0125991805 0.0226045083 -0.0014904644
0.0332773142 0.0287855063 0.0207958538
0.0066762175 0.0256591532 -0.0005768370
0.0097504724 0.0255872253 -0.0008970033
-0.0180429313 0.0256804619 0.0127684046
-0.0301450659 0.0251360629 0.0010517258
-0.0109556932 0.0262889508 0.0004617292
0.0579517521 0.0271011461 0.0064120460
-0.0082787927 0.0194236133 -0.0001653936
-0.0032946228 0.0259930249 0.0000921134
0.0219069142 0.0270136464 0.0072085429
0.0224202629 0.0270886775 0.0077082980
-0.0458604731 0.0274636317 0.0025857259
0.0117232949 0.0256946329 -0.0010509472
0.0600833334 0.0287873019 0.0194215048
0.0601504557 0.0284235198 0.0210144985
-0.0160791706 0.0262827445 0.0114520658
0.0600617416 0.0285879243 0.0180783886
0.0579179935 0.0263265613 0.0033603627
0.0590189584 0.0264303032 0.0030126069
0.0597329922 0.0265360009 0.0033613984
0.0168060027 0.0257195029 -0.0014201906
0.0229430236 0.0270072911 0.0080675054
0.0239888374 0.0271627177 0.0091060866
-0.0192338657 0.0228786822 0.0129558165
-0.0179648045 0.0274802390 0.0095199514
-0.0193443131 0.0262685288 0.0144738425
-0.0171835851 0.0274071712 0.0125107188
0.0037194805 0.0259721968 -0.0003607925
0.0175550301 0.0257105660 -0.0014592391
-0.0171651635 0.0277351681 0.0076145995
0.0332957283 0.0291447360 0.0212019105
-0.0324248336 0.0264172014 -0.0000380334
-0.0312282927 0.0263657440 -0.0004191007
-0.0303795543 0.0265353192 -0.0003305133
-0.0023919868 0.0263617653 0.0000712890
-0.0013493637 0.0263403673 0.0000166241
-0.0388499536 0.0269405041 -0.0013499092
-0.0383839570 0.0269915145 -0.0008970033
0.0066650566 0.0261712763 -0.0005377959
-0.0110298414 0.0265811849 0.0006803740
0.0322098508 0.0277618635 0.0158919264
0.0601983629 0.0291564185 0.0198900420
-0.0383998565 0.0266414899 -0.0005846452
0.0026620494 0.0242875014 -0.0004373994
0.0036398543 0.0243031699 -0.0005202275
0.0586570688 0.0278028343 0.0110192318
0.0107576773 0.0260769296 -0.0009438526
0.0599083863 0.0282004457 0.0174536873
0.0016800070 0.0206387881 -0.0007017832
-0.0032988249 0.0223829914 -0.0002274122
-0.0245385002 0.0264340360 0.0212643910
0.0580931678 0.0269411299 0.0053344239
0.0582130998 0.0272814054 0.0058029536
-0.0326993354 0.0263149533 -0.0017169248
0.0234603509 0.0271019731 0.0087000299
0.0237191040 0.0275671352 0.0090748537
-0.0328393616 0.0231382344 0.0021171961
-0.0323546119 0.0231581870 0.0019974578
-0.0175951514 0.0280066449 0.0121905524
0.0591559671 0.0264027361 0.0194215048
0.0220192764 0.0266871396 0.0077239145
-0.0411110632 0.0274425801 0.0016278420
0.0220290329 0.0273205582 0.0074584205
0.0224187430 0.0273631979 0.0077395309
0.0333182178 0.0295202266 0.0217016805
-0.0022728874 0.0266199354 0.0000973139
-0.0013581722 0.0265995134 0.0000400562
-0.0304498505 0.0254704971 0.0005054642
0.0237131976 0.0278703067 0.0092700589
0.0056402646 0.0261913147 -0.0004675221
-0.0462252311 0.0261304136 0.0042411927
0.0551730283 0.0184240136 0.0122374017
0.0580308028 0.0270029772 0.0039913077
-0.0172011275 0.0265706200 0.0061777700
-0.0103350934 0.0264243651 0.0005710665
0.0603128187 0.0296291020 0.0190779287
0.0602726154 0.0294113550 0.0176723320
0.0594077818 0.0234875474 0.0067816544
0.0147973327 0.0256305728 -0.0012405869
0.0158090405 0.0253541637 -0.0013811495
-0.0436543785 0.0275041517 0.0024295468
0.0036431530 0.0254344475 -0.0004156958
0.0107515790 0.0263338331 -0.0009126198
0.0602007173 0.0290738288 0.0173912216
-0.0158574861 0.0277204905 0.0104569960
-0.0245389547 0.0269417260 0.0216704477
-0.0029561503 0.0240437631 -0.0001317393
-0.0022116771 0.0242308322 -0.0001491066
0.0325629637 0.0280207861 0.0176410992
0.0336241536 0.0286595058 0.0219515581
-0.0370090790 0.0250872467 0.0009302590
0.0220247395 0.0276044700 0.0075521190
-0.0409311466 0.0275810082 0.0007740799
0.0243827477 0.0272391681 0.0096136499
-0.0024604427 0.0246625263 -0.0000871178
0.0224198196 0.0253484417 0.0077863950
-0.0125251357 0.0263912994 0.0045535434
0.0583194308 0.0269341189 0.0108318198
0.0327016078 0.0297256280 0.0211082119
-0.0162128005 0.0278404523 0.0048658941
-0.0013688824 0.0268600974 0.0000712890
-0.0463190489 0.0277503673 0.0025701094
-0.0311906226 0.0251179505 0.0002887268
0.0239861049 0.0281284172 0.0091763604
0.0598483197 0.0251686815 0.0048971344
0.0066549238 0.0265573803 -0.0004987549
0.0233210772 0.0267188642 0.0088640023
0.0196781456 0.0237028990 0.0004148800
0.0580537394 0.0268558357 0.0030230153
-0.0110464673 0.0269740913 0.0007116143
0.0603521205 0.0297551882 0.0179846901
0.0243786611 0.0282219853 0.0097698290
0.0581876561 0.0279694814 0.0067712385
0.0328669436 0.0292120073 0.0203481484
-0.0133058261 0.0254255701 0.0061855782
-0.0302149821 0.0260015521 0.0001077373
-0.0295982193 0.0263074804 0.0002341662
-0.0011049232 0.0251032356 -0.0001395475
0.0175471082 0.0262229051 -0.0013863575
-0.0135280583 0.0280825663 0.0067400057
-0.0354592241 0.0271775071 -0.0014019739
-0.0176489335 0.0273723509 0.0103508104
-0.0163950454 0.0275614765 0.0112222750
0.0564182214 0.0232461635 0.0047045145
0.0603991412 0.0299808849 0.0194215048
-0.0002330637 0.0253536534 -0.0001629945
-0.0161653887 0.0275785495 0.0031791944
-0.0005453324 0.0258028936 -0.0001005065
-0.0471829660 0.0276384447 0.0035071690
0.0130370613 0.0257821698 -0.0011312645
-0.0176609289 0.0272897948 0.0093950052
-0.0406160615 0.0273755360 0.0012738425
0.0217056088 0.0274642278 0.0063089598
0.0220396351 0.0278147366 0.0071773101
-0.0403349139 0.0274712685 0.0007636715
0.0246402454 0.0276876036 0.0103086252
0.0224227384 0.0278832708 0.0076145995
0.0087232515 0.0242411327 -0.0008522179
-0.0179934371 0.0280155037 0.0075521190
-0.0167963672 0.0282334331 0.0073334742
-0.0167798977 0.0284971464 0.0072710086
0.0330270864 0.0298385937 0.0218266267
-0.0454033203 0.0261438880 0.0043505151
-0.0136441309 0.0284105632 0.0070835967
-0.0174540263 0.0278030355 0.0117844958
-0.0172103811 0.0290021244 0.0104361791
-0.0103232656 0.0253281612 0.0002595130
0.0046732053 0.0242799614 -0.0006217342
-0.0013759083 0.0271183755 0.0000869054
0.0239721313 0.0284891557 0.0097229648
0.0076872520 0.0262774918 -0.0006139260
0.0216722712 0.0275435951 0.0054593626
0.0586485825 0.0255974326 0.0033416320
-0.0103457030 0.0271976534 0.0005632360
-0.0443160348 0.0278709996 0.0019922648
-0.0433584712 0.0279471371 0.0019922573
-0.0133134117 0.0263678972 0.0061621536
-0.0293581914 0.0271179620 -0.0000692662
-0.0127141159 0.0252833162 0.0052016694
-0.0180042479 0.0283200014 0.0059903581
-0.0173508395 0.0289469231 0.0114174802
0.0202783383 0.0263855588 -0.0034426730
0.0246896073 0.0281808693 0.0105569381
0.0604481138 0.0303089563 0.0196089167
-0.0042023640 0.0256261919 0.0001259539
-0.0462114625 0.0267763156 0.0034759287
0.0056132656 0.0269696657 -0.0003581923
-0.0162340496 0.0282645766 0.0104118753
-0.0002071971 0.0233514290 -0.0003406312
-0.0033176078 0.0252922270 0.0000150595
-0.0162409227 0.0274676066 0.0041787196
-0.0452915542 0.0274294857 0.0024816189
-0.0443774424 0.0274575967 0.0024677385
-0.0178165156 0.0270822067 0.0087078232
0.0589011498 0.0288894568 0.0108005870
0.0047157072 0.0269862879 -0.0003087353
0.0580036826 0.0272624996 0.0022733677
-0.0032425488 0.0265309606 0.0001493786
0.0118044168 0.0243986417 -0.0012015235
0.0107692685 0.0254395474 -0.0009965580
0.0175357256 0.0267426986 -0.0012718271
0.0200536307 0.0263361502 -0.0037550237
0.0076719429 0.0269198660 -0.0005534124
0.0017681604 0.0264011566 -0.0001825150
0.0582554005 0.0281072203 0.0059278924
0.0226966571 0.0281201024 0.0074115563
-0.0136389155 0.0286782142 0.0070523638
-0.0154502299 0.0272880439 0.0112795252
-0.0294931065 0.0274358299 -0.0004388820
0.0282037258 0.0267565865 0.0129245836
-0.0153298508 0.0289177913 0.0083642472
0.0205587670 0.0224787313 0.0010395814
-0.0092341993 0.0253599491 0.0004578400
0.0137128402 0.0265214350 -0.0010687914
0.0241110753 0.0287405532 0.0095824171
0.0222869199 0.0276235286 0.0076770652
0.0000994501 0.0260455441 -0.0001317393
-0.0382887386 0.0272242334 -0.0010844152
-0.0168346446 0.0279334541 0.0019922573
-0.0103302468 0.0275737438 0.0004929695
-0.0226912554 0.0302123185 0.0156108160
0.0592870377 0.0242311675 0.0069898982
0.0230735447 0.0216462705 0.0083486307
-0.0452497415 0.0284109581 0.0017501879
-0.0442841835 0.0283617321 0.0016486663
-0.0433526300 0.0284315143 0.0016525853
-0.0177423973 0.0280532744 0.0060528386
0.0328264274 0.0284740794 0.0193798561
-0.0132173738 0.0263233725 0.0058654267
-0.0126569327 0.0259221215 0.0049908403
-0.0063025448 0.0255418587 0.0002313722
0.0200265739 0.0237662476 0.0008990262
-0.0297019389 0.0256688874 0.0007428471
-0.0173572693 0.0283548143 0.0114682484
0.0597725026 0.0273034181 0.0194527376
-0.0185453463 0.0285923537 0.0059278924
-0.0407853983 0.0282245222 0.0015237276
-0.0171969216 0.0292956028 0.0105194617
-0.0013834296 0.0192882922 -0.0006041657
-0.0063371900 0.0263244752 0.0003153402
-0.0052783210 0.0262985323 0.0002430696
-0.0042264331 0.0262752231 0.0001844931
-0.0169369262 0.0282801110 0.0041631032
-0.0163977575 0.0282062162 0.0043244828
0.0328735672 0.0301247071 0.0180471558
-0.0326225646 0.0275336858 -0.0022166874
0.0336426012 0.0294648651 0.0223107655
0.0007076000 0.0271987300 -0.0000497382
0.0015602184 0.0272081513 -0.0000880193
-0.0171281341 0.0281137470 0.0083017666
-0.0302348863 0.0239917357 0.0019610245
-0.0166063365 0.0285590161 0.0059591252
-0.0409199409 0.0284162331 0.0015757848
0.0124907596 0.0257079434 -0.0010896157
0.0583135411 0.0284121204 0.0061465371
-0.0369993262 0.0280624274 -0.0021932628
-0.0363137461 0.0280062687 -0.0024119150
-0.0353444479 0.0279801656 -0.0023806747
0.0205499344 0.0235082712 0.0010968391
0.0585042201 0.0264248420 0.0027301852
-0.0022509566 0.0223618764 -0.0003113504
-0.0092640650 0.0263968799 0.0005027372
0.0148216886 0.0263413209 -0.0011669453
-0.0393722095 0.0281405542 -0.0004857387
0.0005941743 0.0266656782 -0.0000871178
-0.0372868665 0.0272799972 -0.0015269127
0.0056570806 0.0273384731 -0.0003191587
-0.0167352762 0.0271527041 0.0122686494
0.0199174248 0.0241082627 0.0006022919
-0.0134452786 0.0213209633 0.0055218358
0.0221167691 0.0280429590 0.0052719507
0.0206954591 0.0272270162 0.0005429406
-0.0092984978 0.0213316660 -0.0000068080
0.0579832681 0.0280207712 0.0037414301
-0.0103151184 0.0278217141 0.0004304964
0.0605079718 0.0307382140 0.0185781587
0.0581474751 0.0245853122 0.0056780148
0.0586971305 0.0246377159 0.0053500403
0.0204975884 0.0269446243 -0.0030366164
0.0038068963 0.0272633526 -0.0002254602
-0.0168127026 0.0287989620 0.0057404805
-0.0163055677 0.0281499680 0.0051157791
0.0228573345 0.0275962520 0.0082018245
-0.0134175140 0.0274903122 0.0064276624
0.0017752813 0.0243774299 -0.0003726985
-0.0363466628 0.0266603399 -0.0009438600
-0.0228928272 0.0266439859 0.0184375960
0.0167773254 0.0271405596 -0.0011625048
-0.0002413767 0.0243804175 -0.0002391245
0.0007926614 0.0243622754 -0.0002918299
-0.0063462164 0.0273379851 0.0003867839
-0.0053160321 0.0273388717 0.0003270525
-0.0042644273 0.0273153130 0.0002743322
-0.0032158459 0.0272923056 0.0002215821
-0.0022597036 0.0273005236 0.0001685861
-0.0013340211 0.0274891239 0.0001226086
0.0329839773 0.0308541898 0.0207021553
-0.0003716910 0.0272781383 0.0000221971
0.0006951632 0.0275875684 -0.0000146087
0.0017326733 0.0275651012 -0.0000770744
0.0025042237 0.0275524650 -0.0001005065
-0.0396524854 0.0286716763 -0.0005377959
0.0244837292 0.0285662655 0.0090722460
-0.0124013480 0.0271249134 0.0041266624
-0.0362435691 0.0282409582 -0.0025576707
-0.0352528952 0.0282072965 -0.0025680866
-0.0153243868 0.0292217154 0.0094028134
-0.0381478928 0.0281080473 -0.0016578045
-0.0002975168 0.0264153127 -0.0000524577
-0.0383162312 0.0283743907 -0.0021464061
-0.0136725102 0.0290966425 0.0062714834
0.0057182014 0.0277442504 -0.0002775025
-0.0383963175 0.0274646599 -0.0014540236
0.0581203736 0.0275609288 0.0076458324
0.0202331636 0.0272448529 -0.0027242657
-0.0169266295 0.0291103218 0.0076614488
-0.0168443192 0.0290766004 0.0066150595
-0.0329956822 0.0255381074 -0.0014540311
0.0228081197 0.0279518683 0.0080518890
-0.0147388373 0.0295097250 0.0086765904
0.0582788400 0.0275892783 0.0060528386
0.0581963882 0.0281505678 0.0079269428
-0.0356860049 0.0266543943 -0.0008501466
0.0147715760 0.0272903983 -0.0010765996
0.0158708319 0.0271800626 -0.0011390802
0.0155840442 0.0274723489 -0.0010922235
0.0056065451 0.0164282899 -0.0012835097
0.0559462346 0.0220150854 0.0092388261
0.0117955049 0.0263925958 -0.0009527709
0.0168144852 0.0275228973 -0.0011312570
-0.0161044504 0.0278129894 0.0029917825
0.0007635856 0.0253903512 -0.0002098437
-0.0062646065 0.0280130077 0.0004305039
-0.0053431969 0.0279924814 0.0003914554
-0.0042881649 0.0279665384 0.0003289822
-0.0032362326 0.0279411618 0.0002665091
0.0340709947 0.0308380742 0.0187968034
-0.0321627446 0.0263834987 -0.0002254453
0.0017230080 0.0278256219 -0.0000458416
0.0027533711 0.0278073419 -0.0000848826
0.0214109831 0.0277653243 0.0035540182
0.0213760734 0.0276242811 0.0043036658
-0.0399362259 0.0280234162 -0.0005065631
-0.0372718982 0.0284845065 -0.0023286175
-0.0429780297 0.0288242716 0.0014300216
-0.0423824526 0.0287202690 0.0015924517
-0.0171462577 0.0294195246 0.0086922217
-0.0149955098 0.0291248951 0.0071304608
0.0235504080 0.0282968227 0.0102383513
-0.0151753370 0.0279280785 0.0109879989
-0.0143648591 0.0293782968 0.0062558670
0.0338665843 0.0314373299 0.0206084568
0.0057100449 0.0280040037 -0.0002462696
0.0334529839 0.0307059232 0.0180159230
-0.0168633107 0.0288518164 0.0027731378
0.0203472655 0.0275164414 -0.0025837030
0.0605348684 0.0310502592 0.0186718572
0.0581275038 0.0248398129 0.0055843089
0.0200259648 0.0240208227 0.0008990262
0.0204573907 0.0241098758 0.0010942463
0.0316653922 0.0271093640 0.0124248136
-0.0168295819 0.0290115271 0.0053812806
-0.0162923541 0.0292760748 0.0054125134
0.0349841639 0.0306654219 0.0195152182
-0.0362824090 0.0272119585 -0.0016290825
-0.0353454910 0.0275900159 -0.0018746536
-0.0347735323 0.0275670160 -0.0015685614
-0.0152255651 0.0293955673 0.0065900702
0.0332379900 0.0309916008 0.0197338630
-0.0381334983 0.0285749529 -0.0024899971
0.0583356060 0.0284700934 0.0073490907
-0.0163898747 0.0283834506 -0.0000068005
0.0157674253 0.0277901907 -0.0010687988
-0.0254189093 0.0261323769 0.0223888624
-0.0103143547 0.0282165166 0.0005866680
-0.0093340632 0.0282256920 0.0006335396
-0.0062716138 0.0282724854 0.0004409123
-0.0053492766 0.0282512624 0.0003992636
-0.0042981263 0.0282276738 0.0003524069
-0.0032478629 0.0282033253 0.0002977494
-0.0021940155 0.0280479398 0.0002235640
-0.0012738185 0.0280232448 0.0001493786
-0.0003571941 0.0279996637 0.0000791047
0.0006852781 0.0279749054 0.0000088234
0.0107465703 0.0265897084 -0.0008891951
-0.0460756533 0.0281775836 0.0021859128
-0.0132364351 0.0289975423 0.0040850136
0.0220839605 0.0279082898 0.0060840715
0.0226606280 0.0282500442 0.0065525938
-0.0379221104 0.0288057309 -0.0026305597
-0.0052312333 0.0252556261 0.0001220275
-0.0383120961 0.0288493503 -0.0024431478
0.0117125195 0.0226235334 -0.0013759341
0.0056653079 0.0252909269 -0.0005612206
0.0204397552 0.0271091182 -0.0020370912
0.0206084754 0.0273399856 -0.0006315019
0.0056999773 0.0282657724 -0.0002046283
0.0336624086 0.0303403605 0.0175661314
-0.0170156937 0.0112088453 -0.0168308672
0.0582688041 0.0279268641 0.0082393009
0.0598322414 0.0271377433 0.0029828493
0.0037892049 0.0277830455 -0.0001629721
0.0600768365 0.0301012415 0.0155951846
-0.0091999974 0.0245779511 0.0003836397
-0.0150706116 0.0295299012 0.0054593626
0.0139730414 0.0260898117 -0.0011390727
-0.0328294523 0.0270468239 -0.0020527076
0.0046402700 0.0253095794 -0.0004968029
0.0223433059 0.0292526279 0.0061465371
-0.0093695018 0.0286300723 0.0007272307
-0.0362526290 0.0277696718 -0.0022479277
-0.0419325046 0.0270638634 0.0025857259
-0.0422886424 0.0277039129 0.0031791944
-0.0294588823 0.0286601912 -0.0012374576
0.0167644024 0.0280386750 -0.0010609906
-0.0122287516 0.0276976172 0.0035540182
-0.0168712791 0.0283411350 0.0020703394
-0.0170296151 0.0283034164 0.0034603123
-0.0166104045 0.0279256273 0.0036477242
0.0331400409 0.0300392266 0.0175161678
0.0008387321 0.0262337010 -0.0001421701
0.0344850309 0.0304760765 0.0183751304
-0.0353202187 0.0277558956 -0.0021464061
-0.0346011482 0.0277288053 -0.0021776389
-0.0457963757 0.0289922897 0.0018673185
-0.0312807374 0.0276301447 -0.0014570039
-0.0442809053 0.0292603541 0.0013258923
0.0333628245 0.0301269386 0.0227012057
0.0087145045 0.0262510832 -0.0007310566
0.0097389631 0.0262248311 -0.0008501317
-0.0452283435 0.0279037375 0.0020026732
-0.0003711844 0.0283904616 0.0001181383
0.0006718056 0.0283652563 0.0000478644
0.0017126293 0.0282135103 -0.0000185054
0.0027410162 0.0281969104 -0.0000458341
0.0036905238 0.0282578263 -0.0000755247
0.0202570483 0.0266878027 -0.0030990820
0.0213415232 0.0278212670 0.0023046080
0.0218172204 0.0282155443 0.0031245369
0.0220000856 0.0281992201 0.0042911712
0.0228444915 0.0242842380 0.0079998095
-0.0082262177 0.0263978112 0.0004450846
-0.0073045585 0.0263176430 0.0003728438
-0.0396285616 0.0291892234 -0.0006158780
-0.0169843454 0.0286350716 0.0041474868
-0.0167247038 0.0286312867 0.0047097225
0.0331951007 0.0305361468 0.0187655706
-0.0381416343 0.0291348379 -0.0022557359
-0.0372716077 0.0290164445 -0.0027971398
-0.0363150351 0.0289513711 -0.0029949676
-0.0352922417 0.0289050136 -0.0030678492
-0.0342779420 0.0289035197 -0.0028726291
-0.0159161370 0.0292801652 0.0088327695
0.0587258227 0.0273264889 0.0023384560
-0.0092904661 0.0274337437 0.0005339701
0.0209813844 0.0283497591 -0.0006315019
0.0207127966 0.0281197298 0.0004929695
0.0245309938 0.0289115775 0.0089577008
-0.0149295237 0.0296632815 0.0062714834
0.0221719947 0.0291255359 0.0038663689
0.0214330293 0.0285216291 0.0003680233
-0.0165755618 0.0292391796 0.0102383513
0.0586797707 0.0253009479 0.0053906459
0.0584823154 0.0255250726 0.0061621536
-0.0391615443 0.0290394444 -0.0014436152
-0.0362335481 0.0286176968 -0.0027510356
-0.0352157764 0.0285435114 -0.0027733427
0.0591389574 0.0290568043 0.0019610245
0.0221097432 0.0291249026 0.0053968970
0.0020495614 0.0271259304 -0.0001421478
0.0066251494 0.0183920246 -0.0012915786
-0.0120203104 0.0283089448 0.0024451632
-0.0120750796 0.0280128364 0.0030542556
-0.0169083085 0.0289917346 0.0044286046
-0.0168805439 0.0291167293 0.0035696346
-0.0166040491 0.0291933659 0.0043348912
-0.0155086797 0.0292177554 0.0035436023
-0.0140043069 0.0293888915 0.0047409553
-0.0373714305 0.0287918616 -0.0025993194
-0.0343532301 0.0283659417 -0.0026930254
-0.0324336253 0.0282372478 -0.0026344564
-0.0312316604 0.0283129085 -0.0017768126
-0.0302672293 0.0283750985 -0.0015171301
0.0086895879 0.0272799972 -0.0006236862
0.0097180344 0.0272494722 -0.0007603373
0.0107327867 0.0272316355 -0.0008228030
0.0117049748 0.0272740107 -0.0008523669
-0.0150241097 0.0299819950 0.0065369774
0.0006616262 0.0286266785 0.0000790972
0.0077054407 0.0252572913 -0.0006744470
0.0087338556 0.0252302531 -0.0008052345
0.0037562491 0.0285698529 -0.0000380334
0.0058197398 0.0285238270 -0.0001785886
0.0066399351 0.0282174218 -0.0002992805
0.0333500355 0.0317204073 0.0222951490
0.0216695741 0.0283021424 0.0023983065
-0.0451736636 0.0292778257 0.0015995894
-0.0433013551 0.0292324815 0.0011403803
-0.0422933064 0.0292750988 0.0011716206
-0.0415046327 0.0294027869 0.0011489037
-0.0342003144 0.0291323606 -0.0030366164
-0.0320078768 0.0290250126 -0.0032552611
-0.0317483731 0.0290220249 -0.0032240283
0.0595042296 0.0274810512 0.0026911441
0.0126506565 0.0183472726 -0.0017501321
0.0216470603 0.0284478348 -0.0015060883
0.0220519826 0.0288190935 0.0006179083
0.0582083985 0.0257946793 0.0047721881
-0.0385522507 0.0293565709 -0.0017872062
0.0344687812 0.0322147608 0.0207802523
-0.0118508395 0.0289011989 -0.0009750929
0.0216787104 0.0182344150 -0.0030893367
0.0027286110 0.0285868850 -0.0000068005
0.0579071008 0.0262144003 0.0054968391
-0.0375391133 0.0281252135 -0.0019017365
0.0046320129 0.0263174158 -0.0003691297
0.0056213476 0.0267107729 -0.0003894325
0.0157906190 0.0263791587 -0.0012386125
0.0167942271 0.0263623986 -0.0013167094
-0.0314411037 0.0291845147 -0.0021932628
-0.0012068602 0.0223414060 -0.0003933366
0.0086618289 0.0283148605 -0.0005007070
-0.0161670428 0.0292197410 0.0034759287
0.0076598376 0.0274345335 -0.0005065631
0.0127465967 0.0273352955 -0.0008761641
0.0039078016 0.0280418862 -0.0001317393
0.0048525520 0.0282316636 -0.0001567435
0.0058115479 0.0287842620 -0.0001473557
0.0067143291 0.0287616421 -0.0002254453
-0.0053627361 0.0286424253 0.0004265849
0.0198505633 0.0274247658 -0.0033445116
0.0127674853 0.0264326725 -0.0010024142
0.0239581540 0.0289873276 0.0102539677
0.0145270070 0.0267844293 -0.0011000317
0.0218515247 0.0286170263 -0.0005377959
-0.0012931509 0.0285450239 0.0002014432
-0.0155160632 0.0290943477 0.0012426097
-0.0082178470 0.0213904213 -0.0000179689
0.0580551736 0.0258157756 0.0030854885
0.0585838147 0.0293137301 0.0083173830
-0.0166281518 0.0275686700 0.0056780148
0.0601793267 0.0281879138 0.0029397253
0.0604537241 0.0283272918 0.0029605497
-0.0312447511 0.0271886606 -0.0009022038
-0.0302207340 0.0273368154 -0.0007049870
-0.0426500775 0.0283477139 0.0019297916
0.0578561090 0.0262683164 0.0044077802
-0.0449035875 0.0302276704 0.0012946669
-0.0397289507 0.0300947856 0.0000244398
0.0137831541 0.0274156313 -0.0009625833
0.0117210764 0.0282475222 -0.0007525291
-0.0143806767 0.0291638393 -0.0004909467
0.0086449981 0.0289625321 -0.0004284736
-0.0188437235 0.0302311499 0.0043661315
0.0219035614 0.0289010350 0.0040850136
0.0223477036 0.0294982437 0.0060216058
-0.0003817661 0.0286521781 0.0001493786
-0.0373731442 0.0293935258 -0.0028960537
0.0016988365 0.0286044646 0.0000244398
0.0038749313 0.0288293976 -0.0000068005
0.0046972148 0.0287226383 -0.0000796970
0.0199327748 0.0267000701 -0.0037862565
-0.0311523043 0.0294275600 -0.0022349115
-0.0311852507 0.0290481839 -0.0020308476
-0.0303046945 0.0291840304 -0.0018689018
-0.0320213772 0.0270485412 -0.0006627422
0.0345723517 0.0309162717 0.0228886176
0.0582283325 0.0278233457 0.0058341864
-0.0385812409 0.0297984574 -0.0015060883
0.0326866060 0.0322701782 0.0180471558
-0.0120272953 0.0284989048 0.0012113769
-0.0115018729 0.0282341037 0.0012426097
-0.0163987409 0.0287051369 0.0003680233
-0.0082987789 0.0253366958 0.0003914628
0.0176186934 0.0272929017 -0.0011703130
-0.0318295099 0.0295603070 -0.0030990820
-0.0312753282 0.0296588596 -0.0024197157
0.0006371064 0.0291535538 0.0001597796
0.0016774719 0.0291289408 0.0000947062
-0.0188261289 0.0266189557 0.0132994074
-0.0292924251 0.0283243414 -0.0008688848
0.0157577880 0.0284321029 -0.0010024142
0.0167569965 0.0285530258 -0.0010037180
-0.0053520817 0.0292729307 0.0004816074
-0.0443581305 0.0302119311 0.0010500047
-0.0142460186 0.0295422506 -0.0005221795
-0.0145245176 0.0289179105 0.0003211666
-0.0362400599 0.0294096265 -0.0033385660
0.0325024426 0.0320612565 0.0157982279
0.0027075966 0.0291114170 0.0000660811
0.0036892442 0.0291828010 0.0000522081
0.0047647823 0.0292015988 -0.0000146013
0.0056163482 0.0292072240 -0.0000755247
0.0076335166 0.0283420850 -0.0003952887
