# .PCD v0.7 - Point Cloud Data file format
VERSION 0.7
FIELDS x y z
SIZE 4 4 4
TYPE F F F
COUNT 1 1 1
WIDTH 1185
HEIGHT 1
VIEWPOINT 0 0 0 1 0 0 0
POINTS 1185
DATA ascii
0.0019128281 0.0110117421 -0.0008245055
0.0313577279 0.0109116361 -0.0133166555
0.0314011797 0.0111553632 -0.0124420691
0.0048258989 0.0110015478 -0.0008518342
0.0057957782 0.0109981243 -0.0008713547
0.0067647225 0.0109946802 -0.0008947793
0.0078535955 0.0109908320 -0.0009256396
0.0089451689 0.0109862275 -0.0009865332
0.0099097416 0.0109831169 -0.0010158215
0.0288630631 0.0090678521 -0.0213298891
-0.0251412317 0.0144082718 0.0125070643
-0.0191760063 0.0113039296 0.0013847258
0.0039087082 0.0130290538 -0.0011442769
0.0245168637 0.0123091415 -0.0105991904
0.0260466617 0.0124518052 -0.0121609513
0.0260492321 0.0120344162 -0.0128481258
0.0161181111 0.0052507799 -0.0205632318
0.0264754836 0.0118846260 -0.0128481258
0.0100599881 0.0083245821 -0.0193762872
0.0155881383 0.0089399926 -0.0015722159
0.0305495281 0.0110352561 -0.0096152816
-0.0151692331 0.0130019672 -0.0017210562
-0.0142808892 0.0129584782 -0.0014889259
-0.0295234695 0.0128165744 -0.0112238992
-0.0110838749 0.0129993521 -0.0009767730
-0.0101222992 0.0129977651 -0.0008694027
-0.0185807496 0.0097524878 -0.0140038300
-0.0167639218 0.0103783123 -0.0145035926
-0.0162724890 0.0100742988 -0.0147183407
-0.0263463743 0.0117053855 -0.0214378107
0.0299451929 0.0110909455 -0.0079441983
0.0171562377 0.0091924462 -0.0004165117
0.0282140505 0.0091326516 -0.0218022261
0.0284125935 0.0091364346 -0.0216148142
-0.0151925907 0.0052601211 -0.0165588725
0.0128332367 0.0119567476 -0.0012653936
0.0007522549 0.0129251555 -0.0011036713
-0.0119288079 0.0100834779 -0.0001978818
0.0108701736 0.0109806862 -0.0010255817
-0.0262867697 0.0119232871 -0.0036649723
0.0195610486 0.0116710216 -0.0044770855
0.0138609167 0.0109749716 -0.0010209102
0.0149353445 0.0109733958 -0.0010138694
-0.0213541500 0.0116364881 -0.0038836170
-0.0136965960 0.0087355394 -0.0050705615
0.0290038455 0.0069280937 -0.0213524271
0.0298030656 0.0069536101 -0.0213386584
0.0201267693 0.0112857204 -0.0021761004
0.0209432188 0.0112909283 -0.0020017046
0.0218863916 0.0112910923 -0.0019782726
0.0224731788 0.0112939179 -0.0018845666
0.0278209094 0.0100777484 -0.0210473631
0.0288307387 0.0100748502 -0.0211697016
0.0307818484 0.0100647416 -0.0209830273
0.0317664742 0.0104594510 -0.0209442917
-0.0192425177 0.0090774596 -0.0160549525
-0.0134536959 0.0045383312 -0.0134103615
0.0248747971 0.0119971856 -0.0127231870
0.0039207409 0.0137431808 -0.0012208167
0.0291151088 0.0043747183 -0.0208911989
0.0009311489 0.0037281699 -0.0099940095
0.0256077982 0.0125181861 -0.0107866023
0.0019192039 0.0040256400 -0.0106200222
0.0025535426 0.0040211137 -0.0104742516
0.0246006642 0.0063356943 -0.0208131094
-0.0262284912 0.0093751270 -0.0199853797
-0.0073022549 0.0091301650 -0.0085064340
0.0110025927 0.0133861341 -0.0014576856
-0.0091765970 0.0107877515 -0.0004060958
0.0138098421 0.0017855354 -0.0030038152
-0.0272271670 0.0014802217 -0.0179894511
0.0118952692 0.0045062285 -0.0188452918
0.0123690451 0.0044994596 -0.0186266471
-0.0111677535 0.0137191787 -0.0011161733
-0.0100835636 0.0137169249 -0.0010060836
-0.0185580738 0.0097412746 -0.0145660657
-0.0218223892 0.0119446777 0.0050340351
0.0182590485 0.0136716701 -0.0002707485
-0.0071159792 0.0136972554 -0.0009865630
-0.0174012184 0.0107002277 -0.0108490754
-0.0061236438 0.0136897117 -0.0010060836
0.0274277795 0.0136260837 -0.0024780352
-0.0320786573 0.0157640986 0.0260709506
-0.0313047282 0.0157804191 0.0265082549
-0.0312300213 0.0154436491 0.0203549098
-0.0182959028 0.0110714063 -0.0021344442
-0.0143299922 0.0088181421 -0.0180956442
0.0080535039 0.0042332597 -0.0167369116
0.0246458519 0.0121466108 -0.0117861349
-0.0122821182 0.0086860210 -0.0095684323
0.0048808432 0.0132624358 -0.0011843685
-0.0051077572 0.0051361471 -0.0178848077
0.0039242930 0.0139811672 -0.0012442488
0.0298042875 0.0043728054 -0.0208380986
0.0032163854 0.0037653763 -0.0094434861
0.0261494033 0.0122354701 -0.0098183174
-0.0107324310 0.0089069232 -0.0093497802
-0.0143139437 0.0138677731 -0.0010672528
0.0097821485 0.0091477074 -0.0041335020
-0.0100675374 0.0140765049 -0.0010646377
-0.0338937528 0.0157295875 0.0251026582
-0.0224945657 0.0119157694 0.0040501263
-0.0129057253 0.0130566880 -0.0008885060
0.0316429734 0.0109281093 -0.0159247983
-0.0192056969 0.0100438762 -0.0107553694
-0.0134033533 0.0132160299 -0.0018533338
-0.0288592689 0.0136049651 0.0121400487
0.0108898142 0.0119293854 -0.0011856724
-0.0195736885 0.0022893306 0.0031130668
0.0299590528 0.0050376356 -0.0219123010
0.0197440889 0.0091576148 -0.0026576389
0.0247025061 0.0073177814 -0.0210317615
-0.0262379907 0.0100543443 -0.0200009961
0.0100560803 0.0140335821 -0.0014667902
0.0109294625 0.0139385462 -0.0015175585
0.0118859410 0.0139347613 -0.0015331749
-0.0144232223 0.0143508762 -0.0011245031
-0.0001301676 0.0094648767 -0.0003852788
-0.0260284804 0.0097037815 -0.0258628074
-0.0100618564 0.0143169947 -0.0010880623
-0.0331735425 0.0156711563 0.0241656136
-0.0184717216 0.0099207647 -0.0110833365
0.0118856924 0.0036203060 -0.0113384221
-0.0188326500 0.0093330834 -0.0131761003
-0.0182005353 0.0093361773 -0.0127700437
0.0219800081 0.0078437794 -0.0098183174
-0.0148893893 0.0090985671 -0.0129730720
-0.0184030794 0.0137257092 0.0027070101
0.0278388727 0.0140010975 0.0021447819
-0.0002106302 0.0119540282 -0.0009713713
0.0008600331 0.0122084171 -0.0010287184
0.0019520796 0.0119642541 -0.0010236297
0.0029225140 0.0119603015 -0.0010294858
-0.0190293826 0.0112523045 -0.0002915729
0.0314917527 0.0125049390 0.0106407534
0.0288903490 0.0053801239 -0.0219531972
-0.0073106294 0.0031673405 -0.0058436263
0.0099713039 0.0144184344 -0.0015097428
0.0109332548 0.0144123174 -0.0015565995
0.0118895136 0.0144083165 -0.0015722159
-0.0220852010 0.0099601578 -0.0190099794
0.0018253583 0.0092186946 -0.0003930870
-0.0138871334 0.0090493150 -0.0108594913
0.0282192472 0.0141702108 0.0029568952
-0.0090733171 0.0145515651 -0.0010802615
-0.0083878040 0.0107032415 -0.0004060958
-0.0316335931 0.0157917775 0.0212919693
-0.0235304423 0.0123301893 0.0082356464
-0.0220818259 0.0120386295 0.0077202599
-0.0319691487 0.0158116706 0.0269611608
-0.0170347430 0.0104813911 -0.0105991904
-0.0061408621 0.0129698627 -0.0009299163
-0.0186819620 0.0093149357 -0.0142849479
-0.0171119571 0.0093289036 -0.0128793586
0.0038863416 0.0119575150 -0.0010099653
0.0048498060 0.0119547062 -0.0009943489
0.0058217305 0.0120695680 -0.0010333974
0.0067948564 0.0120642036 -0.0010880623
0.0077949478 0.0119199716 -0.0011018235
0.0088729598 0.0119549669 -0.0011497010
0.0099294670 0.0119325146 -0.0011680890
0.0118573522 0.0122810043 -0.0012754817
-0.0221672170 0.0145788081 0.0110780578
0.0137830833 0.0119895898 -0.0013051797
0.0148513773 0.0122699663 -0.0013848115
0.0159186032 0.0121508837 -0.0013399292
0.0277402978 0.0080037583 -0.0209471527
0.0290050525 0.0084906090 -0.0213232879
0.0191683043 0.0117670037 -0.0019470397
0.0200794321 0.0119692683 -0.0021844152
0.0208641607 0.0122474544 -0.0021255184
0.0218928773 0.0123464614 -0.0021578688
0.0268594902 0.0114441253 -0.0208027009
0.0277167130 0.0107515845 -0.0209341440
-0.0009168148 0.0046794377 -0.0180019382
-0.0124051161 0.0133422948 -0.0039929468
-0.0114372782 0.0094995033 -0.0006039236
0.0031606383 0.0025574937 -0.0021188278
0.0276688896 0.0124742575 -0.0019157995
0.0018548681 0.0053258464 -0.0194543768
-0.0040113353 0.0077507831 -0.0195043478
0.0171708819 0.0129193999 -0.0013926048
0.0167855937 0.0131509863 -0.0015279669
-0.0128775202 0.0111624505 -0.0006924067
-0.0062370454 0.0088868365 -0.0096933786
-0.0180071220 0.0110693406 -0.0061325524
-0.0267320238 0.0121481903 -0.0207662601
-0.0265061818 0.0119314976 -0.0209588725
-0.0261138938 0.0081482120 -0.0199723560
0.0195786618 0.0093216989 -0.0021865014
0.0148572782 0.0125050321 -0.0014472771
0.0091240797 0.0146636963 -0.0014472697
0.0098499469 0.0146574862 -0.0015034918
0.0168626476 0.0121531151 -0.0012462158
0.0177960191 0.0119703449 -0.0008121450
0.0190801863 0.0120582879 -0.0005726833
0.0286834687 0.0140889995 0.0015200730
-0.0131310597 0.0139043853 -0.0016971547
-0.0120469742 0.0142500587 -0.0014785025
-0.0181918405 0.0126968808 0.0021760147
-0.0090930983 0.0139517412 -0.0010021571
-0.0313298367 0.0158268027 0.0273516010
-0.0061112498 0.0141689926 -0.0010607410
-0.0132196806 0.0108545925 -0.0001822431
-0.0141750462 0.0091022644 -0.0124733020
-0.0119720399 0.0094972663 -0.0008746181
0.0297273491 0.0139033087 0.0111236852
0.0280137025 0.0112421904 -0.0099432562
0.0091231614 0.0149021596 -0.0014472697
-0.0165232308 0.0099147819 -0.0108334515
-0.0008175861 0.0036083627 -0.0112551320
0.0078065372 0.0085306261 -0.0192201156
-0.0021896441 0.0129434019 -0.0010236297
-0.0130194388 0.0138849951 -0.0027825776
-0.0177483000 0.0131398812 0.0010046940
0.0176908318 0.0130892992 -0.0011929292
-0.0141824894 0.0111003406 -0.0009524394
-0.0135722114 0.0089569539 -0.0060700867
0.0199082363 0.0112757180 -0.0024780352
0.0250064656 0.0100150295 -0.0217211414
0.0257855374 0.0100376867 -0.0219157208
0.0119269351 0.0132720172 -0.0014660154
0.0128344288 0.0132215321 -0.0014759097
0.0137906000 0.0132177733 -0.0015045423
0.0148646329 0.0130951554 -0.0015316252
-0.0252681449 0.0117470305 -0.0186039228
0.0277878400 0.0131939463 -0.0242802221
0.0183437336 0.0129088536 -0.0003228057
0.0198621228 0.0131565593 -0.0020890180
-0.0141303055 0.0149579011 -0.0010802392
-0.0122938864 0.0149665996 -0.0025873575
-0.0176424682 0.0139902234 0.0007079598
-0.0115675442 0.0151534826 -0.0014472697
0.0277007874 0.0140459202 0.0007704254
0.0181332789 0.0142582096 -0.0003423337
-0.0071365912 0.0129772238 -0.0009006355
-0.0000282847 0.0039930437 -0.0128988866
-0.0041562398 0.0129555054 -0.0009923968
-0.0031830096 0.0129514076 -0.0009650532
-0.0012047444 0.0129367448 -0.0010587666
-0.0125596672 0.0089593790 -0.0055390839
0.0148732662 0.0140398033 -0.0016378183
-0.0262237079 0.0118773840 -0.0188765395
-0.0241221860 0.0118135959 -0.0180664901
-0.0171891563 0.0088456310 -0.0168540496
-0.0138928741 0.0090244617 -0.0099432487
-0.0071055372 0.0141774267 -0.0010334123
-0.0145307742 0.0123968124 -0.0014785100
0.0055561564 0.0046869125 -0.0181893501
-0.0009254445 0.0038860086 -0.0129262153
-0.0002258964 0.0129310116 -0.0010782871
-0.0203494132 0.0143512264 0.0070799422
0.0018785219 0.0129460171 -0.0011572260
0.0029645073 0.0130070522 -0.0011612047
0.0291550923 0.0143497735 0.0061116498
0.0058454270 0.0130194686 -0.0011833180
0.0068158577 0.0130137280 -0.0012286473
0.0077792066 0.0130097158 -0.0012426991
0.0088628531 0.0130048804 -0.0012686420
0.0099483225 0.0129990205 -0.0013192464
0.0108744064 0.0128251500 -0.0013402048
0.0118201543 0.0127057992 -0.0013660658
0.0127759706 0.0126473978 -0.0014026556
-0.0268705115 0.0123704746 -0.0188869331
0.0159349013 0.0130928084 -0.0015351344
0.0279698893 0.0131684653 -0.0246862788
0.0174789038 0.0134461746 -0.0015409756
0.0297899116 0.0090784337 -0.0212541390
0.0208347049 0.0130518824 -0.0022265939
0.0218946952 0.0130514987 -0.0022164378
0.0267610438 0.0116396882 -0.0208287258
-0.0142654106 0.0101607125 -0.0009225179
-0.0124144889 0.0138156824 -0.0039773239
-0.0123149902 0.0102286525 -0.0007154811
-0.0204195790 0.0107844677 -0.0162371565
-0.0230080448 0.0118849799 0.0030401926
-0.0148118250 0.0133691914 -0.0014160369
0.0109346937 0.0150058232 -0.0015819911
0.0118891364 0.0150024705 -0.0015839431
0.0197331700 0.0120448545 -0.0028424356
-0.0164360404 0.0094975810 -0.0020407457
0.0148727326 0.0149891227 -0.0016549993
-0.0168827511 0.0142051801 -0.0019470323
-0.0102566779 0.0107119437 -0.0004087035
-0.0068875817 0.0028978847 -0.0048987661
0.0128393080 0.0140508935 -0.0015351344
0.0137936939 0.0140474550 -0.0015507583
-0.0123785436 0.0069577005 -0.0193950254
0.0298523512 0.0116941649 -0.0038211513
-0.0150925256 0.0122728795 -0.0016542170
-0.0281162076 0.0130700991 0.0118995439
0.0104266983 0.0083257910 -0.0191576425
0.0155923981 0.0088795517 -0.0063824374
-0.0175923072 0.0122571886 0.0006142538
-0.0189700052 0.0096483845 -0.0139049236
-0.0131279044 0.0102942251 -0.0001478959
0.0098522045 0.0088452883 -0.0097558368
-0.0231743716 0.0143946521 0.0125851464
-0.0155108906 0.0104684085 -0.0015097428
-0.0262090974 0.0070797894 -0.0199117605
-0.0085567795 0.0030119345 -0.0049143825
-0.0199836940 0.0100773368 -0.0190045629
0.0319543593 0.0141101740 0.0111405235
0.0224849638 0.0149345025 -0.0022906233
0.0190691408 0.0144604556 -0.0004477445
0.0311002750 0.0109559838 -0.0119891632
0.0269658640 0.0146604404 -0.0010099802
0.0266930647 0.0133438930 -0.0115987230
-0.0232228301 0.0116847679 -0.0095996652
-0.0121979527 0.0098461080 -0.0016815383
0.0301738046 0.0116648860 -0.0046020318
0.0109331831 0.0158385225 -0.0015930478
0.0118868155 0.0158354156 -0.0015878398
-0.0233494490 0.0148679912 0.0126576703
0.0199212488 0.0126758218 -0.0027279202
-0.0166980289 0.0104544330 -0.0023530964
-0.0162059590 0.0101889744 -0.0019283015
0.0198210515 0.0151530392 -0.0037326533
-0.0237696171 0.0121859610 0.0042063054
-0.0081090778 0.0139459744 -0.0009787250
0.0089310352 0.0152841397 -0.0014535207
0.0098508969 0.0151328370 -0.0015222523
0.0128407506 0.0150003769 -0.0015702788
0.0137941884 0.0149970688 -0.0015780870
0.0245870836 0.0110763274 -0.0201259349
-0.0199455656 0.0108385496 -0.0178223420
-0.0202839635 0.0110776722 -0.0170024130
0.0218951683 0.0157618187 -0.0022854153
-0.0082925148 0.0088811256 -0.0107553694
0.0208358746 0.0139933899 -0.0022687558
-0.0200853311 0.0093128961 -0.0148992334
-0.0167263448 0.0149421468 -0.0023739133
0.0007808000 0.0159111656 -0.0013041291
-0.0274337046 0.0155227371 0.0124680083
0.0307599027 0.0136599615 0.0109739434
0.0208351035 0.0149372295 -0.0022734422
0.0218959600 0.0149352811 -0.0022867117
-0.0160532296 0.0122750588 -0.0017713476
-0.0307407938 0.0129533224 -0.0085064340
-0.0158805400 0.0157040358 -0.0123796035
0.0109306220 0.0163153894 -0.0015878323
0.0118851038 0.0163117610 -0.0015878323
0.0242861304 0.0110834893 -0.0199385229
0.0208344646 0.0158812851 -0.0022828151
0.0087848064 0.0159527548 -0.0014556218
-0.0120963939 0.0111699551 -0.0016346890
0.0098494310 0.0159662701 -0.0015347470
0.0153840017 0.0088774245 -0.0065698493
0.0099893901 0.0086132810 -0.0108594913
0.0195236430 0.0158871263 -0.0030168463
0.0257464517 0.0114550516 -0.0155968238
-0.0070897941 0.0150175951 -0.0011083651
-0.0263579674 0.0123027451 -0.0170648862
0.0218726192 0.0139843747 -0.0022718776
-0.0160304047 0.0150003172 -0.0023614112
0.0007729415 0.0163926631 -0.0012832899
0.0196616556 0.0149298459 -0.0028528515
-0.0218878426 0.0119852982 0.0062053557
-0.0188764110 0.0163099654 0.0018324237
0.0171093736 0.0088890400 -0.0055078510
-0.0041034636 0.0139789991 -0.0011106078
-0.0031459597 0.0140253454 -0.0011317898
-0.0021598698 0.0140175186 -0.0011661444
-0.0011837599 0.0140116997 -0.0011692662
-0.0002084080 0.0140057988 -0.0011770744
0.0007697340 0.0139989369 -0.0012051854
0.0018489487 0.0140111446 -0.0012442786
0.0029368582 0.0140701570 -0.0012470204
0.0039264499 0.0143389665 -0.0012637693
0.0048937532 0.0140947774 -0.0012716074
0.0058648433 0.0140880756 -0.0013145525
0.0068289372 0.0140832812 -0.0013282169
0.0077883634 0.0140798315 -0.0013223607
0.0088205077 0.0140471868 -0.0013622735
0.0096396469 0.0139488541 -0.0014108364
0.0279449057 0.0138097629 0.0105002057
-0.0211181045 0.0100809261 -0.0191926155
-0.0169372559 0.0162074529 -0.0078921411
-0.0164864026 0.0161769241 -0.0077177454
0.0159488488 0.0140334107 -0.0017069373
0.0168947112 0.0140339546 -0.0016659368
0.0174770746 0.0138033368 -0.0015253592
0.0297964234 0.0100611951 -0.0210904647
0.0197539590 0.0139373466 -0.0022385512
-0.0149299540 0.0109239183 -0.0013028104
0.0089987628 0.0165718980 -0.0014628936
0.0176667720 0.0140766092 -0.0009045620
0.0109296730 0.0165537111 -0.0015878323
0.0118842199 0.0165500082 -0.0015878323
0.0198489912 0.0141563229 -0.0025248844
-0.0170165710 0.0110178795 -0.0020563621
-0.0152888335 0.0111627243 -0.0015930478
0.0186948813 0.0129144602 -0.0001939703
0.0280056950 0.0140545852 0.0053620022
-0.0160233751 0.0157785118 -0.0128715578
0.0083935391 0.0163395181 -0.0014160369
-0.0153168924 0.0086500887 -0.0187453423
-0.0118904077 0.0109926704 -0.0010630731
-0.0112320334 0.0111600924 -0.0005798880
-0.0070857038 0.0161009245 -0.0011524726
-0.0271875858 0.0130157396 0.0120378118
-0.0060936366 0.0160910897 -0.0011739451
-0.0262857974 0.0130391605 0.0121868979
0.0148601318 0.0165413208 -0.0015722159
-0.0163551159 0.0162641034 -0.0024655331
-0.0159944445 0.0160231777 -0.0023530815
-0.0091308393 0.0129916929 -0.0008596424
0.0077889184 0.0165831782 -0.0013926122
-0.0122611560 0.0080416519 -0.0193294380
-0.0163184255 0.0164859779 -0.0081472266
0.0271815453 0.0141225606 -0.0040085632
-0.0102248751 0.0111941416 -0.0005154256
-0.0092822164 0.0112382565 -0.0005008448
-0.0147527382 0.0138620101 -0.0012442488
0.0159492511 0.0149812661 -0.0017342661
0.0109276483 0.0167927183 -0.0015800241
0.0118823061 0.0167889409 -0.0015800241
0.0208329093 0.0167093128 -0.0022718776
0.0098995380 0.0166682899 -0.0015340243
0.0308361333 0.0125059336 0.0106797945
-0.0159307122 0.0161317140 -0.0125513989
0.0068355217 0.0159885772 -0.0014160592
0.0077943518 0.0159846023 -0.0014082510
-0.0235165171 0.0040118527 -0.0087459031
0.0288169812 0.0133916065 -0.0211567003
0.0187071413 0.0167163052 -0.0022281501
-0.0181237087 0.0120403878 0.0013326611
-0.0204216540 0.0099589508 -0.0150095988
-0.0168704726 0.0162740238 -0.0026877616
-0.0168034546 0.0158232041 -0.0024155620
0.0110696526 0.0036156271 -0.0112238917
0.0175294410 0.0148074999 -0.0006898213
0.0253062416 0.0124793835 -0.0017908607
0.0191479828 0.0150958635 -0.0016971547
0.0161760226 0.0058736540 -0.0204903428
0.0099631101 0.0170398839 -0.0015253592
0.0109245414 0.0170324706 -0.0015644077
0.0058664507 0.0168318935 -0.0013978276
0.0068281530 0.0168267339 -0.0013978276
0.0077865100 0.0169421174 -0.0013887081
-0.0011130651 0.0094679296 -0.0003696624
-0.0267394111 0.0100209266 -0.0236555133
-0.0051106294 0.0160832889 -0.0011719931
-0.0189904347 0.0115788504 0.0022384804
-0.0161570050 0.0093652476 -0.0027747694
0.0159388985 0.0159379207 -0.0016464163
0.0199534371 0.0147591271 -0.0023062397
-0.0177731849 0.0164378881 -0.0060388539
-0.0270677358 0.0125442855 -0.0166275892
-0.0162164271 0.0163544826 -0.0061169360
0.0286410227 0.0140057169 -0.0114113111
0.0167791434 0.0149800256 -0.0017258022
0.0190967601 0.0146727860 -0.0008850414
0.0200828742 0.0086585116 -0.0054766182
-0.0160456710 0.0165721066 -0.0125670079
-0.0151750371 0.0165239275 -0.0130043048
0.0048936489 0.0169610716 -0.0013496894
0.0058599743 0.0173122995 -0.0013769884
0.0068233307 0.0173062570 -0.0013848040
-0.0164028481 0.0162288062 -0.0070227552
-0.0168740228 0.0099193417 -0.0088812504
-0.0070961569 0.0170677938 -0.0011466164
-0.0271209329 0.0140337870 0.0122097116
-0.0061093462 0.0170586891 -0.0011485685
-0.0051214886 0.0170488879 -0.0011622328
0.0168611277 0.0051718671 -0.0207885671
-0.0236717276 0.0114759058 -0.0091623757
-0.0194809437 0.0130735599 0.0048466306
0.0088795833 0.0094155930 -0.0020875959
0.0137287900 0.0044365898 -0.0166171808
-0.0041474220 0.0150451884 -0.0011765454
-0.0031344430 0.0151032992 -0.0012032259
-0.0021509775 0.0150950588 -0.0012286026
-0.0011735619 0.0150880851 -0.0012383778
-0.0001985491 0.0150814764 -0.0012462009
0.0007812973 0.0150731578 -0.0012833197
0.0018490530 0.0150850900 -0.0012960676
0.0029267366 0.0150394216 -0.0012911279
0.0039313245 0.0150542185 -0.0013067443
0.0049043852 0.0150463618 -0.0013516415
0.0058736312 0.0150393881 -0.0013867784
0.0068359836 0.0150346048 -0.0013926346
0.0077937744 0.0150313377 -0.0013789702
0.0085843448 0.0149335116 -0.0014056284
-0.0173688345 0.0165402107 -0.0076318476
-0.0160344616 0.0166349150 -0.0078772772
-0.0109470077 0.0080498811 -0.0193762872
0.0148654440 0.0159435794 -0.0016081501
0.0183499325 0.0158995055 -0.0004789848
0.0189060606 0.0159778297 -0.0021612216
-0.0011908975 0.0170121416 -0.0012227464
-0.0179208256 0.0109892786 -0.0087719280
0.0039120796 0.0175718404 -0.0012832899
0.0048819310 0.0175637268 -0.0013067145
0.0058529223 0.0175545067 -0.0013457555
0.0218942240 0.0163532682 -0.0022749994
0.0224828590 0.0160000511 -0.0022531394
-0.0040701316 0.0099608600 -0.0003436301
-0.0031398968 0.0160653852 -0.0012090821
-0.0168074854 0.0170572139 -0.0025522280
-0.0162285790 0.0170309208 -0.0024936441
-0.0158820972 0.0171023719 -0.0023530964
0.0203319024 0.0015881453 -0.0097870771
-0.0169079565 0.0162618645 -0.0051330272
-0.0165640078 0.0162389539 -0.0053829122
0.0171246510 0.0083870944 -0.0108178351
0.0148577113 0.0171373188 -0.0015659798
0.0159293916 0.0170144923 -0.0015737880
0.0101023782 0.0088514909 -0.0092248414
0.0194851886 0.0163885988 -0.0033526216
-0.0161051527 0.0129644610 -0.0017908756
0.0185621362 0.0159248672 -0.0007788334
-0.0002124742 0.0170033090 -0.0012422670
-0.0041238558 0.0160741210 -0.0011915136
0.0039089802 0.0178124569 -0.0012754817
0.0048760041 0.0178055950 -0.0012832899
0.0186986327 0.0120722353 -0.0002343077
0.0191174280 0.0162510090 -0.0027216692
0.0208326038 0.0171817504 -0.0022781212
-0.0241434015 0.0138544105 0.0125252735
-0.0071100709 0.0177951939 -0.0011232141
-0.0271028914 0.0149283595 0.0121775251
-0.0061256145 0.0177864321 -0.0011154059
-0.0051399586 0.0177769251 -0.0011193100
-0.0122822262 0.0154421069 -0.0026342142
-0.0209029727 0.0109692607 -0.0149825308
-0.0157640502 0.0176633820 -0.0023530964
0.0187772047 0.0139948539 -0.0002050865
0.0181120913 0.0168563835 -0.0005310420
0.0155151486 0.0089188740 -0.0032589156
-0.0021870327 0.0178673454 -0.0011687521
-0.0157084092 0.0163272284 -0.0128168929
-0.0154538415 0.0164490901 -0.0130667780
0.0183267277 0.0170800686 -0.0035088006
0.0191035476 0.0174034350 -0.0037977193
0.0189836081 0.0170174092 -0.0028567631
0.0188022163 0.0169802979 -0.0019001830
-0.0181561038 0.0169067085 -0.0000416879
-0.0202770606 0.0032641608 -0.0028008018
-0.0141032413 0.0169659294 -0.0011175517
-0.0071194810 0.0181599148 -0.0011036862
-0.0061347377 0.0181509145 -0.0010958780
-0.0051520769 0.0181422308 -0.0010880698
0.0218935795 0.0170623474 -0.0022769514
0.0224811174 0.0170659386 -0.0022281501
0.0137905432 0.0159495138 -0.0015702788
0.0288762767 0.0130526684 0.0111821573
-0.0187780857 0.0114342459 -0.0021969173
0.0118794143 0.0172664002 -0.0015722234
0.0159239154 0.0179701857 -0.0015435833
-0.0142286904 0.0045309067 -0.0131761003
-0.0161109418 0.0139786303 -0.0021790657
-0.0152444057 0.0139754936 -0.0018588547
-0.0137307905 0.0139528513 -0.0016502980
-0.0262171812 0.0077684987 -0.0205007512
-0.0132754343 0.0092428233 -0.0021500681
-0.0122444406 0.0094876178 -0.0015409756
-0.0041380343 0.0170400515 -0.0011680890
-0.0145743294 0.0169963837 -0.0014785100
-0.0207033120 0.0116769243 0.0049247127
-0.0205118954 0.0121823363 0.0047685336
0.0179243628 0.0092457514 -0.0003609825
-0.0071219769 0.0184019692 -0.0011036862
-0.0061393869 0.0183935501 -0.0010880698
-0.0051587378 0.0183854625 -0.0010724533
-0.0122925825 0.0086322390 -0.0192513485
-0.0119077377 0.0088132080 -0.0176271144
0.0202425588 0.0083095133 -0.0062731151
-0.0009144586 0.0032895096 -0.0087250788
0.0137979006 0.0046578161 -0.0171523336
-0.0021576923 0.0160567313 -0.0012286026
-0.0011786246 0.0160486624 -0.0012442190
-0.0002020285 0.0160409920 -0.0012579132
-0.0160796121 0.0161621608 -0.0121921841
0.0018202770 0.0160499848 -0.0013206322
0.0028947699 0.0159906261 -0.0013154242
0.0039299927 0.0160104781 -0.0013262648
0.0049046217 0.0160012208 -0.0013789702
0.0058742347 0.0159933828 -0.0014160592
0.0187872555 0.0172862150 -0.0051174108
-0.0206781626 0.0115440432 -0.0187515859
-0.0203504302 0.0115416124 -0.0187359694
0.0148529466 0.0180922858 -0.0015488062
0.0159222577 0.0184473358 -0.0015409756
0.0008150633 0.0179858916 -0.0012216587
-0.0132285319 0.0101283602 -0.0018220935
-0.0150374174 0.0167117082 -0.0133478884
0.0039212457 0.0169700719 -0.0013106484
-0.0111728199 0.0148804635 -0.0013446677
-0.0101614594 0.0149167553 -0.0011802111
-0.0150968293 0.0180228315 -0.0020686928
-0.0154884160 0.0183746852 -0.0024468023
0.0112478873 0.0044776462 -0.0179394726
-0.0241219215 0.0149547309 0.0126849394
-0.0071291518 0.0186456069 -0.0010880698
-0.0061463532 0.0186370462 -0.0010724533
-0.0154917091 0.0186157636 -0.0024468023
0.0287259724 0.0140230805 -0.0075693745
-0.0159756653 0.0180849470 -0.0081628431
0.0057910657 0.0091034807 -0.0077130590
0.0064682844 0.0091022775 -0.0076943133
0.0166920163 0.0158957802 -0.0016555134
0.0253056455 0.0127189755 -0.0017283875
0.0209504589 0.0164737441 -0.0022593904
-0.0022039101 0.0187148973 -0.0011310223
-0.0185279585 0.0110142902 0.0000676345
-0.0151519105 0.0149654634 -0.0019882042
-0.0145006776 0.0150482282 -0.0016242806
-0.0247851871 0.0124896616 0.0123743098
-0.0108615533 0.0180502720 -0.0014160369
0.0110024353 0.0173503794 -0.0015618000
0.0191574786 0.0180545859 -0.0055182595
0.0189384315 0.0178677328 -0.0069884080
0.0298231151 0.0130024552 0.0109482836
-0.0002435301 0.0186946876 -0.0011661593
-0.0266269557 0.0124645755 -0.0182830561
0.0029532271 0.0169767514 -0.0013028402
0.0137779107 0.0186932720 -0.0015409756
0.0148501210 0.0186893977 -0.0015409756
-0.0051874337 0.0120051764 -0.0007971767
-0.0129156336 0.0140306689 -0.0009787325
0.0282090046 0.0096457563 -0.0220625196
-0.0071317372 0.0188878030 -0.0010880698
-0.0061488529 0.0188790970 -0.0010724533
-0.0247477032 0.0110921450 -0.0184017513
-0.0194922946 0.0137141868 0.0048622396
0.0186969396 0.0179750882 -0.0086626057
-0.0022101593 0.0190780535 -0.0011193026
-0.0279876553 0.0126507729 -0.0145035926
0.0148492930 0.0189280584 -0.0015409756
0.0159200858 0.0188063644 -0.0015292559
-0.0152145289 0.0167034492 -0.0134728346
-0.0250805318 0.0130376928 0.0123873036
-0.0108464770 0.0189828947 -0.0013691802
-0.0113278702 0.0180471018 -0.0015097503
0.0097019468 0.0183051266 -0.0014160369
0.0118734790 0.0181031637 -0.0015527103
-0.0173889510 0.0161065869 -0.0072726402
0.0167341847 0.0180551074 -0.0015381370
0.0150856581 0.0083949622 -0.0101098437
-0.0121167563 0.0118942298 -0.0015878323
0.0048714983 0.0181664973 -0.0012715776
-0.0162391774 0.0179390386 -0.0128897745
0.0019021980 0.0179210156 -0.0012598727
0.0029403656 0.0179393552 -0.0012716074
0.0039019356 0.0181746595 -0.0012520570
0.0183514059 0.0120653808 -0.0004165117
0.0118668284 0.0188221112 -0.0015253518
-0.0118511813 0.0160377026 -0.0019564051
-0.0114779584 0.0160878114 -0.0014628861
0.0008308120 0.0083527397 -0.0183142889
-0.0160591602 0.0188279860 -0.0028268341
-0.0111363865 0.0141968392 -0.0012223739
-0.0158315636 0.0168253183 -0.0108334590
-0.0266692229 0.0124875568 -0.0177832935
-0.0248752050 0.0119198635 -0.0182361994
0.0186941475 0.0182016976 -0.0086313728
-0.0145678408 0.0159069113 -0.0014628936
-0.0151325651 0.0160453059 -0.0018900055
0.0270377062 0.0205481015 0.0120359194
0.0249563362 0.0036026053 -0.0108074341
-0.0119988695 0.0189436525 -0.0019738171
-0.0123058632 0.0191520005 -0.0026888717
-0.0090675019 0.0150329992 -0.0011114869
-0.0080641881 0.0150009580 -0.0010888819
0.0099024232 0.0189857893 -0.0013961736
0.0106955003 0.0191175379 -0.0014160369
0.0128233535 0.0189356022 -0.0015435908
0.0137765352 0.0190513916 -0.0015409682
0.0148484530 0.0191667788 -0.0015409756
0.0180213619 0.0151143074 -0.0001800302
0.0186802428 0.0150889643 -0.0000221673
0.0218920168 0.0188362263 -0.0022880156
-0.0113936700 0.0189219713 -0.0015097354
-0.0161055028 0.0179393999 -0.0120984856
0.0183876269 0.0168142803 -0.0010412131
0.0224820096 0.0188342817 -0.0023010392
-0.0141447857 0.0159291103 -0.0010863263
-0.0162943415 0.0100914165 -0.0127778444
-0.0122231878 0.0160897113 -0.0026092324
-0.0000002463 0.0042180214 -0.0138601530
0.0224810839 0.0180103593 -0.0022515822
-0.0061711040 0.0120099932 -0.0008049849
-0.0181710981 0.0090910923 -0.0146545712
0.0315058418 0.0108698197 -0.0145660657
0.0016222927 0.0045614596 -0.0139413644
-0.0031556454 0.0170311816 -0.0011778492
-0.0021719397 0.0170214437 -0.0012012739
0.0007670108 0.0169935822 -0.0012755115
0.0018636449 0.0169840641 -0.0013005007
0.0077840532 0.0173011683 -0.0013848040
0.0085503235 0.0169759504 -0.0014160369
0.0137292156 0.0083840378 -0.0115987230
0.0262406133 0.0207831599 0.0117339920
0.0269046370 0.0208006911 0.0118979793
-0.0170847736 0.0090838429 -0.0147951264
0.0321830884 0.0146487169 0.0113279354
0.0129489014 0.0086116176 -0.0105991904
0.0038836705 0.0190217234 -0.0011895690
0.0048544775 0.0190127864 -0.0012114290
-0.0051685763 0.0189915746 -0.0010587741
-0.0001332075 0.0191788115 -0.0011349190
0.0009018607 0.0189002194 -0.0011591930
0.0019469890 0.0189157799 -0.0011895616
-0.0154456198 0.0185124315 -0.0106928963
0.0166425612 0.0170127600 -0.0015722159
-0.0121838711 0.0169996656 -0.0026081745
-0.0167981274 0.0194780044 -0.0036337394
0.0218927115 0.0180082694 -0.0022808556
0.0209687371 0.0189391784 -0.0022198204
0.0218906421 0.0193121918 -0.0022671986
0.0224790238 0.0193156339 -0.0022281501
-0.0190184526 0.0093085486 -0.0148081351
0.0161236059 0.0070834197 -0.0204382855
0.0192745570 0.0180209763 -0.0046645049
0.0195606425 0.0183712579 -0.0046332646
-0.0158938579 0.0192053281 -0.0084127281
-0.0154518075 0.0191251859 -0.0080144797
0.0301085282 0.0113671776 -0.0064761434
-0.0121058263 0.0138076320 -0.0012950022
-0.0151630826 0.0170881040 -0.0019282941
-0.0051472900 0.0129625835 -0.0009611566
-0.0110395104 0.0159389712 -0.0013744030
-0.0101507977 0.0160005540 -0.0012436453
-0.0090583973 0.0159961581 -0.0011677016
-0.0081006847 0.0160754137 -0.0011349041
-0.0139438771 0.0190775730 -0.0012078006
-0.0161448270 0.0181840919 -0.0071320850
0.0198224690 0.0028867275 -0.0068041105
0.0180897247 0.0159204602 -0.0001978669
0.0192989670 0.0177225135 -0.0041335020
-0.0120348148 0.0197279938 -0.0018979479
-0.0051821177 0.0197200030 -0.0010373164
-0.0041993321 0.0197102390 -0.0010334123
-0.0012461008 0.0196759515 -0.0010880772
-0.0001454506 0.0196647644 -0.0011005644
-0.0168724246 0.0193244405 -0.0027903859
0.0218894631 0.0195517391 -0.0022437740
-0.0162421167 0.0195589475 -0.0050705615
0.0262379628 0.0208000019 0.0144826900
0.0077589224 0.0197033621 -0.0013145227
0.0088411197 0.0196961090 -0.0013223309
-0.0158816800 0.0194940232 -0.0078504924
-0.0156049281 0.0194797479 -0.0079441983
0.0091439914 0.0170203038 -0.0014472697
-0.0171272494 0.0102875363 -0.0139257405
-0.0000256174 0.0035945624 -0.0108678136
-0.0142984241 0.0198880360 -0.0016520415
-0.0120865256 0.0200721435 -0.0019157995
-0.0061682840 0.0198513269 -0.0010412056
-0.0051892702 0.0200846456 -0.0010255966
-0.0032159523 0.0198202431 -0.0010438208
-0.0022321162 0.0198090188 -0.0010594372
-0.0011342582 0.0200401582 -0.0010599662
-0.0154879130 0.0195111297 -0.0076318476
-0.0160281658 0.0180192441 -0.0027258340
0.0210599918 0.0196787938 -0.0021761004
0.0218879264 0.0197922960 -0.0022125337
0.0224754233 0.0196815096 -0.0021344442
0.0147240032 0.0088889543 -0.0057108793
-0.0119415522 0.0149769261 -0.0018982310
-0.0144126005 0.0180738419 -0.0016151611
0.0296244230 0.0048551634 -0.0225810204
0.0209389161 0.0200405046 -0.0021266360
0.0137716476 0.0194129162 -0.0015097428
0.0148463501 0.0194068700 -0.0015284810
0.0002038866 0.0045596436 -0.0138945077
-0.0167560764 0.0199716873 -0.0028394703
-0.0161812082 0.0198790468 -0.0026565064
0.0265080445 0.0207163729 0.0136705767
-0.0166463815 0.0176476613 -0.0026654471
0.0167163257 0.0199127831 -0.0014863107
0.0218869913 0.0200313069 -0.0021969173
0.0224728938 0.0200445466 -0.0020719785
-0.0114027560 0.0171213709 -0.0015027914
0.0137805548 0.0180963613 -0.0015448947
0.0248265993 0.0211823471 0.0081419405
-0.0090041980 0.0094486959 -0.0001666341
-0.0012267125 0.0189465880 -0.0011407603
-0.0041607586 0.0180099122 -0.0011153836
-0.0031766039 0.0179999582 -0.0011290479
-0.0021957704 0.0183511600 -0.0011505429
-0.0012089801 0.0179787762 -0.0011798013
-0.0002299011 0.0179691911 -0.0011993218
0.0058448664 0.0180363692 -0.0013171453
0.0068338546 0.0180015713 -0.0013585333
-0.0263881125 0.0091219544 -0.0238909740
-0.0118565410 0.0180575289 -0.0019088639
0.0266922079 0.0135436431 -0.0118798334
-0.0080875866 0.0170778334 -0.0011368562
-0.0141892033 0.0203747712 -0.0016268659
-0.0138688758 0.0199401267 -0.0010984857
-0.0162441693 0.0205861926 -0.0021891017
-0.0151700713 0.0205862895 -0.0020407457
-0.0145551935 0.0206186883 -0.0016659219
-0.0111496933 0.0206430294 -0.0010177884
-0.0061855358 0.0205823407 -0.0010099802
-0.0051990417 0.0205711946 -0.0010099802
-0.0042146374 0.0205604285 -0.0010099802
-0.0032322337 0.0205500387 -0.0010099802
0.0118611697 0.0193028599 -0.0014980230
0.0128172953 0.0194168799 -0.0015097428
0.0195645448 0.0197511129 -0.0047425870
0.0248006061 0.0216740705 0.0101878475
0.0254552960 0.0216864645 0.0102971699
0.0167422760 0.0203640424 -0.0014576856
0.0209367219 0.0202824697 -0.0020875959
0.0218838323 0.0202766545 -0.0021266360
-0.0160876662 0.0197495371 -0.0054766182
-0.0137070343 0.0210610516 0.0024258923
0.0233446322 0.0217438675 0.0107969325
0.0238134433 0.0216671936 0.0110593121
0.0252037793 0.0212938003 0.0091414656
-0.0200682953 0.0029601082 -0.0011583511
-0.0101616420 0.0180552118 -0.0012754966
-0.0090836026 0.0180546865 -0.0011524726
-0.0231821053 0.0123259164 0.0119214039
-0.0081068426 0.0180487521 -0.0011056233
0.0282099284 0.0139503814 0.0106720012
0.0289891846 0.0139554031 0.0111405086
0.0189472642 0.0186764188 -0.0069238488
0.0191699583 0.0189523213 -0.0057369117
-0.0261201076 0.0146872886 0.0124419909
0.0077776252 0.0180205107 -0.0013692174
0.0088608395 0.0180127919 -0.0013910849
0.0193413589 0.0189308636 -0.0048362920
0.0195676871 0.0187065490 -0.0047582109
-0.0166482031 0.0199122988 -0.0083502550
-0.0163767077 0.0199319236 -0.0081316102
-0.0154996775 0.0198591836 -0.0076162312
0.0208836216 0.0179839991 -0.0022732709
0.0284792129 0.0142128877 0.0037065353
-0.0091060624 0.0190279745 -0.0011153836
0.0195722412 0.0201993026 -0.0048831496
0.0082681309 0.0085158423 -0.0205632243
-0.0157602914 0.0191047750 -0.0024155620
-0.0149936005 0.0190028362 -0.0021168757
-0.0143858306 0.0190329328 -0.0017244834
-0.0201189071 0.0140582137 0.0064864736
-0.0149137704 0.0211734436 0.0032848623
-0.0151349492 0.0199728906 -0.0021110196
0.0216494650 0.0208425969 0.0007079598
-0.0041836188 0.0189812966 -0.0010646302
-0.0160073936 0.0212539136 0.0016137790
-0.0147911534 0.0210103653 0.0018324237
-0.0143003948 0.0211353004 0.0030193608
-0.0135161579 0.0213308856 0.0026133042
-0.0152312554 0.0188406222 -0.0118173677
-0.0153647214 0.0191059746 -0.0107241292
0.0112552755 0.0196698420 -0.0014472697
0.0119048841 0.0197683200 -0.0014561955
0.0118024116 0.0202326812 -0.0013848040
0.0126810474 0.0203857645 -0.0014056284
-0.0122110061 0.0179246403 -0.0026256833
-0.0215884559 0.0027521867 -0.0021032114
-0.0168687664 0.0205587819 -0.0025248844
0.0127959885 0.0206280388 -0.0013769884
0.0135174580 0.0206202529 -0.0014160369
0.0159065686 0.0206072107 -0.0014472697
0.0166214947 0.0206047855 -0.0014472697
0.0208054129 0.0205510817 -0.0018220935
0.0258320030 0.0210262723 0.0081356894
0.0282148998 0.0069304649 -0.0217376668
-0.0032297024 0.0203079246 -0.0010099802
0.0038492247 0.0207186267 -0.0010802615
-0.0166876949 0.0198438130 -0.0100057293
-0.0000353758 0.0201498829 -0.0010685567
-0.0173984095 0.0221325345 0.0068925302
0.0232278258 0.0219401307 0.0102034640
-0.0101053193 0.0190086253 -0.0012120623
-0.0241130181 0.0130333677 0.0124662798
0.0195891391 0.0203980021 -0.0051642675
-0.0134188114 0.0203578733 -0.0016815383
-0.0179440342 0.0111497063 -0.0072726477
-0.0154742599 0.0209249109 -0.0012286250
-0.0149579495 0.0208359659 -0.0019470397
-0.0121609047 0.0202978887 -0.0020719785
-0.0071391505 0.0192524306 -0.0010763649
-0.0061549139 0.0192430988 -0.0010646451
-0.0157815162 0.0187371112 -0.0107397530
-0.0156960003 0.0188329406 -0.0097870771
-0.0153856538 0.0187238641 -0.0100681875
-0.0154826082 0.0188131295 -0.0088344086
0.0108576473 0.0200652890 -0.0013535935
-0.0177164078 0.0225940831 0.0108593982
-0.0175696686 0.0226351395 0.0112342220
0.0269320644 0.0220326819 0.0119276475
-0.0163957179 0.0200743414 -0.0046957377
0.0207922943 0.0208188407 -0.0015722159
-0.0166824460 0.0164447241 -0.0087250788
-0.0154561847 0.0171502046 -0.0086670611
-0.0139441788 0.0091315191 -0.0016659219
0.0028640418 0.0208553970 -0.0010099877
0.0057968902 0.0208156817 -0.0011544470
-0.0184261575 0.0223916657 0.0067363512
-0.0154429190 0.0223391578 0.0066738855
0.0128385462 0.0199354291 -0.0014761183
-0.0110380314 0.0193955265 -0.0013067145
0.0282142852 0.0079991221 -0.0217762012
-0.0032004495 0.0210572071 -0.0009715278
-0.0196766593 0.0229851902 0.0116402786
-0.0191522315 0.0230347700 0.0121322405
-0.0051239957 0.0139210299 -0.0010665748
-0.0118159540 0.0170554072 -0.0018728543
0.0315430872 0.0111053474 -0.0138476584
-0.0158216506 0.0200847350 -0.0022906307
0.0110002561 0.0189949274 -0.0014671553
0.0208505187 0.0218313746 0.0048778635
-0.0239404440 0.0047280844 -0.0099016074
-0.0117472596 0.0201979019 -0.0012676734
-0.0091348328 0.0200047828 -0.0010607261
-0.0081476234 0.0199948587 -0.0010431502
-0.0071554971 0.0199827775 -0.0010490138
-0.0061782268 0.0203379616 -0.0010255966
-0.0176713727 0.0216017328 0.0022384804
-0.0011426066 0.0202845931 -0.0010349620
-0.0137326606 0.0216577426 0.0032380130
-0.0144357756 0.0220714286 0.0045186561
-0.0146355107 0.0218868293 0.0051121246
-0.0161109492 0.0200488046 -0.0090999026
0.0078577399 0.0209128074 -0.0012306888
0.0089424103 0.0209039785 -0.0012468342
0.0099052992 0.0208964013 -0.0012624506
0.0108658783 0.0208900645 -0.0012702737
0.0118270889 0.0208825693 -0.0012911204
0.0127868019 0.0209949650 -0.0013145227
0.0138708986 0.0209813192 -0.0013879333
0.0149478074 0.0210932121 -0.0014160369
0.0159731228 0.0210422054 -0.0014097933
0.0166882779 0.0208968781 -0.0014035497
0.0259757061 0.0222544558 0.0117704403
0.0265059024 0.0215553530 0.0114841145
0.0199640654 0.0208045691 -0.0036962051
0.0241339412 0.0225420594 0.0108281653
0.0247891564 0.0225803182 0.0111483317
0.0254462976 0.0226280652 0.0115465801
0.0259757042 0.0226606466 0.0118172895
0.0231065061 0.0222892426 0.0098130237
-0.0180461593 0.0063396338 -0.0183767620
-0.0031981939 0.0189703740 -0.0010802466
-0.0022163470 0.0193210952 -0.0011036862
0.0029388512 0.0189430825 -0.0011955295
0.0058298218 0.0190006644 -0.0012676734
0.0198282730 0.0218475610 0.0029256549
0.0195982903 0.0206105821 -0.0053204391
-0.0198553801 0.0233170204 0.0121192317
-0.0189673342 0.0233354829 0.0123899262
-0.0195028111 0.0233810022 0.0127022844
0.0099193119 0.0200493298 -0.0013262648
-0.0241690427 0.0144030489 0.0125773381
-0.0119534582 0.0210817605 -0.0009296630
-0.0051941429 0.0203278735 -0.0010177884
-0.0172511525 0.0217072889 0.0032145809
-0.0022473750 0.0202971809 -0.0010177884
-0.0146646053 0.0224091820 0.0051745903
0.0198622420 0.0203127600 -0.0058826748
0.0235677604 0.0223663449 0.0102409478
0.0247449335 0.0221397951 0.0111682992
0.0257654060 0.0219571032 0.0112717133
0.0138620744 0.0213487744 -0.0013223309
0.0149436966 0.0213365592 -0.0013848040
0.0158982221 0.0213328861 -0.0013848040
0.0167320874 0.0213312246 -0.0013743881
0.0198625475 0.0212527588 -0.0019470397
0.0241338369 0.0228072181 0.0108281653
0.0247892030 0.0228451975 0.0111405235
-0.0196363032 0.0228821747 0.0107656997
-0.0176762007 0.0232114755 0.0115153473
-0.0171834417 0.0229964107 0.0109062623
-0.0091729499 0.0209868029 -0.0009787325
0.0187110212 0.0173310675 -0.0067416448
0.0199035108 0.0214378163 0.0015825462
-0.0161145814 0.0193116702 -0.0028091241
-0.0154907070 0.0190959796 -0.0024676267
0.0284118541 0.0096552167 -0.0216564629
0.0067809853 0.0190737545 -0.0013223607
0.0077667045 0.0191012733 -0.0013399292
0.0088485926 0.0190942027 -0.0013489146
0.0099276565 0.0194463171 -0.0013613719
0.0106518706 0.0194384716 -0.0014004204
0.0193360616 0.0199783929 -0.0047894362
-0.0153901540 0.0227557123 0.0068925302
-0.0155888870 0.0211519897 -0.0074444357
-0.0060997610 0.0150092244 -0.0011224169
0.0199956056 0.0217785574 0.0044249501
-0.0031409343 0.0216483623 -0.0009349976
0.0291311461 0.0125094280 0.0107969325
0.0197835919 0.0126009695 -0.0043521468
-0.0071798158 0.0209587328 -0.0010060612
-0.0171709470 0.0222298056 0.0077671167
-0.0158379301 0.0222175196 0.0078295898
-0.0101765618 0.0210026167 -0.0009553079
-0.0081739128 0.0209720917 -0.0009963010
-0.0061965254 0.0210699812 -0.0009917561
-0.0052140211 0.0210603513 -0.0009761397
-0.0042298571 0.0210495666 -0.0009735320
0.0211915188 0.0219301432 0.0057055932
0.0215182807 0.0220889449 0.0070330929
0.0219968632 0.0220676102 0.0079389121
0.0222235601 0.0223073252 0.0088603478
0.0048024128 0.0216803104 -0.0010412205
0.0057770940 0.0216678344 -0.0010802615
0.0239246376 0.0221107267 0.0107656997
0.0098915789 0.0216251016 -0.0011973921
0.0108519075 0.0216194578 -0.0011973921
0.0118143046 0.0216112658 -0.0012208167
0.0127745317 0.0216044076 -0.0012364332
0.0138575519 0.0215925202 -0.0012910981
0.0149395717 0.0215801112 -0.0013535637
0.0158944484 0.0215763822 -0.0013535637
0.0231052916 0.0228192545 0.0098442566
0.0236184802 0.0228759907 0.0103075784
-0.0201519653 0.0231902599 0.0110155921
-0.0176804289 0.0234828480 0.0115153473
-0.0172602087 0.0234271251 0.0111092906
0.0288475193 0.0049384125 -0.0227347557
0.0099597704 0.0172799118 -0.0015097428
-0.0135631524 0.0204230882 -0.0131917167
0.0038620695 0.0201116912 -0.0011212397
0.0048360000 0.0201007761 -0.0011544246
0.0127794528 0.0213604681 -0.0012676734
-0.0187749676 0.0235869326 0.0122337472
-0.0181390457 0.0222117305 0.0052370634
-0.0171404146 0.0218770467 0.0047060680
0.0108880037 0.0180438869 -0.0015236456
-0.0149296559 0.0231175236 0.0067051183
0.0277069211 0.0229816847 0.0122493636
-0.0168013610 0.0208891593 -0.0017283875
-0.0166083649 0.0209037103 -0.0015722159
0.0198915806 0.0222432278 0.0047893580
-0.0164818354 0.0164496042 -0.0086313728
0.0028686333 0.0200276077 -0.0010921676
-0.0136006288 0.0203313939 -0.0139569808
0.0180419143 0.0099965632 -0.0003651995
-0.0102228299 0.0218691640 -0.0008485857
-0.0092097484 0.0218491666 -0.0008980352
-0.0082062483 0.0218322575 -0.0009266678
-0.0170495808 0.0185279474 -0.0107866023
0.0240470413 0.0232414827 0.0107656997
0.0247890614 0.0232445635 0.0111444276
0.0254467875 0.0231536664 0.0114840996
-0.0181587562 0.0231061913 0.0119401496
0.0138516715 0.0218380503 -0.0012473706
0.0149346199 0.0218248479 -0.0013145227
0.0266386811 0.0210482217 0.0117183607
0.0118175745 0.0213691331 -0.0012364332
-0.0111276470 0.0120372288 -0.0008245055
0.0141177913 0.0206140764 -0.0014472697
0.0149523662 0.0207303949 -0.0014472697
0.0157865416 0.0208469145 -0.0014472697
-0.0171257704 0.0236955173 0.0111092906
-0.0165263601 0.0236207247 0.0105782878
-0.0112149715 0.0218707435 -0.0007686112
-0.0122639053 0.0217131153 -0.0003540386
0.0254944023 0.0205677114 0.0048934799
0.0058112196 0.0200882517 -0.0012051780
-0.0187237225 0.0238399692 0.0120775830
-0.0181041546 0.0236820392 0.0117589962
-0.0186502598 0.0240842067 0.0118589383
0.0198271591 0.0226307660 0.0051902067
-0.0247839950 0.0149738081 0.0129105281
-0.0010239244 0.0209911242 -0.0009688754
-0.0160819329 0.0169130042 -0.0088266004
-0.0190182701 0.0223328657 0.0061533060
0.0100109503 0.0179250762 -0.0014707167
-0.0141320229 0.0205464214 -0.0140558872
-0.0166444629 0.0215422101 0.0040813591
-0.0101367459 0.0223685466 -0.0007496867
0.0251683667 0.0203919560 0.0040501263
-0.0131772421 0.0145554096 -0.0015826244
-0.0118457675 0.0220553838 -0.0007163677
-0.0110501684 0.0223962329 -0.0006351639
-0.0092402436 0.0223466866 -0.0008225683
0.0187524445 0.0179406889 -0.0078739170
0.0208360218 0.0077319480 -0.0110052470
-0.0264322795 0.0092416853 -0.0246987808
0.0108575420 0.0213752910 -0.0012286250
-0.0182369575 0.0240305550 0.0114841145
-0.0169583075 0.0239516348 0.0110155772
-0.0165627226 0.0239023305 0.0106719863
0.0212367456 0.0206588246 -0.0008850414
-0.0157980286 0.0170124024 -0.0099536572
0.0018822025 0.0211097412 -0.0009728763
0.0028485856 0.0213449150 -0.0009553079
0.0038354746 0.0212069079 -0.0010308046
0.0048164721 0.0210715309 -0.0010900069
0.0057862340 0.0213019960 -0.0011154059
-0.0162812956 0.0203710236 -0.0062574986
0.0158898290 0.0219405256 -0.0013184268
0.0254465993 0.0236911960 0.0115153473
0.0233563762 0.0232671350 0.0102659371
-0.0042075501 0.0201957449 -0.0010217000
-0.0136656277 0.0221369006 0.0030193608
0.0009395811 0.0200208314 -0.0010677595
0.0019140295 0.0200116076 -0.0010771323
-0.0193484835 0.0239808187 0.0127699506
0.0250512101 0.0236651115 0.0113123041
-0.0186436474 0.0243525915 0.0118276905
0.0258404054 0.0240825899 0.0124680083
0.0270079020 0.0238929316 0.0122962128
-0.0160915926 0.0183340646 -0.0108959246
-0.0030063693 0.0222387947 -0.0008765031
-0.0020527397 0.0220061578 -0.0008881558
-0.0021174126 0.0208873861 -0.0009688754
-0.0155512169 0.0171968974 -0.0103805456
-0.0143382251 0.0089926757 -0.0033213887
-0.0101604536 0.0226213150 -0.0006872211
-0.0162619166 0.0159317702 -0.0108959246
-0.0090668313 0.0170842297 -0.0011739451
0.0267693643 0.0212482549 0.0111092906
-0.0119638667 0.0226668268 -0.0005414505
-0.0109591624 0.0226517133 -0.0005414505
-0.0092535391 0.0225949660 -0.0007913355
-0.0163695365 0.0215345882 0.0040501263
0.0079656933 0.0213997662 -0.0011739675
0.0089329761 0.0213896483 -0.0012052003
0.0238709878 0.0237299353 0.0107813161
-0.0179103464 0.0241938196 0.0117418002
-0.0174554847 0.0241737887 0.0116402786
-0.0165669993 0.0241719447 0.0106719863
0.0108445063 0.0221047550 -0.0011635441
-0.0161848329 0.0221646018 0.0096412282
0.0167249478 0.0219380446 -0.0013145451
0.0205600653 0.0083167721 0.0001665559
0.0009094137 0.0211180709 -0.0009767804
0.0195454620 0.0192064904 -0.0044146199
0.0138448309 0.0222044140 -0.0012005139
0.0158844702 0.0223060250 -0.0012754817
0.0067877132 0.0200738907 -0.0012754966
0.0078729615 0.0201847218 -0.0012952928
0.0089547615 0.0201777220 -0.0012989286
0.0222401265 0.0231447853 0.0096360203
-0.0150336614 0.0236768834 0.0069862362
0.0236133039 0.0232985429 0.0105158146
0.0257064570 0.0243619308 0.0125461053
0.0269091148 0.0243562125 0.0124992561
-0.0159543604 0.0217333883 0.0058617722
0.0190032534 0.0184026547 -0.0066323224
-0.0062259180 0.0219286792 -0.0009260122
-0.0052058627 0.0219392739 -0.0009125788
-0.0041660038 0.0219144635 -0.0008978788
0.0128379595 0.0159523897 -0.0015722308
-0.0168255605 0.0177903064 -0.0090061966
-0.0160818174 0.0180859156 -0.0097766612
-0.0154169239 0.0182816982 -0.0107553694
-0.0239697695 0.0113269538 -0.0183845703
-0.0052851220 0.0088821854 -0.0098183099
-0.0155979395 0.0201216824 -0.0103805456
-0.0160393454 0.0199461579 -0.0100057218
0.0276606791 0.0221200436 0.0121400487
-0.0109765381 0.0229024850 -0.0004998092
-0.0100508370 0.0228690766 -0.0006507654
-0.0091453828 0.0228430629 -0.0007496867
0.0128297089 0.0180977844 -0.0015683267
-0.0175652318 0.0200305097 -0.0084595848
0.0067991088 0.0210680515 -0.0011753235
0.0262416657 0.0212121569 0.0107813161
0.0240003951 0.0241424702 0.0108906310
-0.0182414316 0.0243022256 0.0114841145
-0.0170025826 0.0243719630 0.0111249071
-0.0165820718 0.0244458653 0.0107032340
0.0098840613 0.0221102312 -0.0011661444
-0.0171168260 0.0223906003 0.0099431630
0.0149275931 0.0221919157 -0.0012598652
-0.0182459690 0.0245739855 0.0114841145
-0.0000991397 0.0221084207 -0.0008752588
0.0008804366 0.0220969357 -0.0008889232
0.0018560546 0.0220870897 -0.0008928273
0.0028316486 0.0220766477 -0.0009045396
0.0038114074 0.0220628493 -0.0009455401
0.0047910488 0.0221681409 -0.0010021646
0.0139582511 0.0225699842 -0.0011583511
0.0149205383 0.0225594230 -0.0012052003
0.0158806462 0.0225502923 -0.0012442488
-0.0198129006 0.0249811523 0.0123118442
-0.0190969110 0.0248401165 0.0120255332
-0.0181440413 0.0246034190 0.0117235761
-0.0111331902 0.0231611393 -0.0004165117
-0.0081693158 0.0228202045 -0.0008199532
-0.0072220718 0.0227839760 -0.0008282382
-0.0061734212 0.0228080563 -0.0008404050
-0.0050759395 0.0227592401 -0.0008297656
-0.0040456639 0.0227668323 -0.0008173529
-0.0031017517 0.0228358768 -0.0008225609
0.0191620141 0.0185063072 -0.0056015579
