# .PCD v0.7 - Point Cloud Data file format
VERSION 0.7
FIELDS x y z
SIZE 4 4 4
TYPE F F F
COUNT 1 1 1
WIDTH 1181
HEIGHT 1
VIEWPOINT 0 0 0 1 0 0 0
POINTS 1181
DATA ascii
0.0131522994 0.0002322774 -0.0041952021
0.0029617390 0.0003930461 -0.0084119551
0.0158228781 0.0002910979 -0.0056476332
0.0153910620 0.0003499854 -0.0071313120
0.0167555921 0.0003349017 -0.0067408718
0.0166941453 0.0001423415 -0.0077143721
-0.0187000744 -0.0005812272 0.0054408647
0.0087138889 0.0001045018 -0.0030707307
-0.0221091695 -0.0016795769 -0.0037305765
0.0299462136 0.0002865437 -0.0208873115
0.0293790754 0.0002868455 -0.0186258666
-0.0227438472 -0.0047770813 -0.0060443319
0.0288396832 0.0002238285 -0.0122981258
0.0081761451 0.0001923349 -0.0032581426
0.0277398601 -0.0002564155 -0.0090991296
-0.0058125285 0.0003973190 -0.0087711550
0.0225619283 0.0005032253 -0.0109420083
0.0197263248 0.0005525779 -0.0121914186
0.0210987274 0.0005776752 -0.0128161199
0.0208138842 0.0005366020 -0.0117853545
0.0199394375 0.0004829932 -0.0104422458
0.0204767976 0.0004656781 -0.0100049488
0.0221242625 0.0004204959 -0.0088648610
0.0099997735 0.0001138803 -0.0071313120
0.0156210521 0.0003772732 -0.0133471154
-0.0256732777 0.0006327666 -0.0129176266
-0.0255167894 0.0005779825 -0.0144403540
0.0208496824 0.0004609413 -0.0135657676
0.0215756334 0.0006026067 -0.0134408213
0.0233539734 0.0004054066 -0.0139718242
-0.0187075958 -0.0012428015 0.0054564811
0.0246447455 0.0001526047 -0.0131909437
-0.0245797709 -0.0003037248 -0.0098175369
0.0277395938 -0.0017328393 -0.0092709251
-0.0276413523 -0.0052750576 -0.0174389295
-0.0236609876 0.0003324784 -0.0080058984
-0.0240558162 0.0005986672 -0.0087867714
-0.0234517567 0.0005572513 -0.0076310672
-0.0229708925 0.0001639407 -0.0067283772
0.0232044235 -0.0017668381 -0.0206873976
0.0218850169 0.0006420370 -0.0086618401
0.0217537079 0.0004611984 -0.0126599409
0.0222001765 0.0006184969 -0.0080371303
0.0225419272 0.0006143935 -0.0079278089
0.0230289716 0.0006379746 -0.0085525094
0.0241816249 0.0005264580 -0.0086384080
0.0238692984 0.0004977491 -0.0096551068
0.0246603172 0.0002149716 -0.0094271041
-0.0264089294 0.0008334424 -0.0153149404
-0.0139542101 0.0003280323 -0.0010092072
-0.0131089976 0.0003505927 -0.0015792511
-0.0194012001 -0.0006047003 0.0017207526
-0.0185403936 -0.0046988912 0.0057063587
0.0190549139 0.0002272744 -0.0149088763
-0.0258950219 0.0003693793 -0.0148958676
-0.0255391784 0.0002172031 -0.0139171593
0.0209605321 0.0004129671 -0.0141592361
-0.0273475759 0.0002469998 -0.0174347572
0.0068666311 0.0004398730 -0.0034299307
0.0281803645 0.0002958868 -0.0113668106
0.0138162924 0.0004919544 -0.0047261976
0.0147502003 0.0004843120 -0.0045153610
0.0035851868 0.0001634192 -0.0065690763
0.0087559959 0.0004276875 -0.0030785389
0.0102164941 0.0004281122 -0.0030707307
0.0096073551 0.0003429800 -0.0033830740
0.0089485077 0.0000037868 -0.0045179613
0.0066346871 0.0004296005 -0.0092553012
-0.0257023647 -0.0016735028 -0.0126365162
0.0059764767 0.0000163335 -0.0076466911
0.0039728032 0.0004221424 -0.0030082650
-0.0223882273 -0.0006610826 -0.0044544451
-0.0221254453 -0.0006958898 -0.0036837272
-0.0011409327 0.0000236630 -0.0052259602
-0.0004550620 0.0002366342 -0.0045544021
0.0000112717 0.0003961790 -0.0023991726
-0.0237067305 -0.0003865287 -0.0079121925
0.0058971094 0.0004488882 -0.0036850236
0.0081387693 0.0002407338 -0.0044763125
0.0079185134 0.0004308671 -0.0031748526
-0.0201329365 -0.0006448980 0.0002818517
-0.0197500773 -0.0007080082 0.0013334341
0.0127300872 0.0000078250 -0.0086774565
0.0126536470 0.0001011286 -0.0067877211
0.0142335901 0.0005109329 -0.0052259602
0.0153072551 0.0004700590 -0.0041327290
-0.0256841443 0.0009752978 -0.0128942095
-0.0255438909 0.0009578820 -0.0145444684
-0.0252616070 0.0006182622 -0.0125037692
0.0249226727 -0.0006892886 -0.0125349946
-0.0240465291 0.0008360613 -0.0088055171
-0.0234726928 0.0008041132 -0.0078601344
0.0099778334 0.0006711371 -0.0031019635
0.0135047920 0.0001901817 -0.0031332038
-0.0232271589 0.0007746648 -0.0070063658
0.0149944024 0.0007246844 -0.0045622103
0.0159381572 0.0004543476 -0.0046101771
0.0170722324 0.0005725268 -0.0055820458
0.0179315712 0.0005529448 -0.0049170814
0.0229541454 -0.0002715606 -0.0219055675
0.0206401236 0.0007458869 -0.0051322542
-0.0061730994 0.0004644636 -0.0015535913
-0.0207178332 -0.0046806112 0.0001386888
-0.0226980932 0.0003406946 -0.0050385483
-0.0223523527 0.0003551599 -0.0044785403
-0.0225206167 0.0002574679 -0.0060193427
-0.0226000957 0.0007550456 -0.0064128963
0.0249251369 0.0003792699 -0.0085368864
0.0175614990 0.0003933758 -0.0052259602
0.0193402376 0.0005734246 -0.0068501942
-0.0272208042 0.0009952318 -0.0167673714
-0.0262969807 0.0010573547 -0.0152941160
-0.0142906811 0.0005698465 -0.0007905625
-0.0138987405 0.0005835928 -0.0011653788
-0.0131359762 0.0005964115 -0.0015011616
0.0221258011 0.0002901014 -0.0112231262
-0.0273478292 0.0010184217 -0.0174285285
0.0303011648 0.0007672850 -0.0226239748
-0.0012029811 -0.0000272561 -0.0040077902
0.0040893229 0.0006638858 -0.0029770248
0.0171493068 0.0007732417 -0.0059131347
0.0140446471 0.0007628966 -0.0056424327
-0.0082924394 0.0006142668 -0.0018525533
-0.0248975828 0.0007055737 -0.0117333047
-0.0246523358 0.0006197747 -0.0093958564
0.0187564697 0.0003994498 -0.0083494820
0.0202992205 0.0005876943 -0.0072250180
0.0196715817 0.0005628727 -0.0065690763
0.0199323054 0.0005110838 -0.0051947273
0.0198986661 0.0007300228 -0.0046887137
0.0277396925 0.0008870307 -0.0090991296
0.0277402289 0.0006524641 -0.0089429505
-0.0277760886 0.0008226298 -0.0209685154
0.0238142293 -0.0015706010 -0.0205468424
-0.0200665258 0.0002082828 0.0002323873
-0.0197346210 0.0002408437 0.0010731332
-0.0148295676 0.0005415548 -0.0000096820
-0.0163430534 0.0004689377 0.0019893758
0.0144859357 0.0007526353 -0.0053508990
0.0222104844 0.0008572303 -0.0082557760
0.0217259098 0.0008412618 -0.0078080706
0.0157706384 0.0007036403 -0.0039661415
0.0061828615 -0.0000270382 -0.0093177753
-0.0191287920 0.0001973417 0.0022704937
-0.0184585564 0.0007252600 0.0019269027
-0.0168611519 0.0007021595 0.0026765503
-0.0257364884 0.0012087580 -0.0130347647
-0.0255458206 0.0010106508 -0.0138989352
-0.0189119130 -0.0003973730 0.0041836537
0.0186819267 0.0002501551 -0.0102860667
-0.0246088319 -0.0000716746 -0.0097550713
-0.0242413990 0.0006814562 -0.0110357152
0.0291981101 0.0009585470 -0.0170641057
0.0218709689 0.0003780965 -0.0106296577
0.0239887740 0.0000279248 -0.0116213746
0.0235302188 0.0003569815 -0.0128161199
-0.0030109277 0.0005745348 -0.0019837357
0.0249399133 -0.0000266470 -0.0116447993
0.0251022540 -0.0010748114 -0.0087555386
0.0047987262 0.0005378574 -0.0028403662
0.0279603917 -0.0007484965 -0.0106530814
0.0080254907 0.0001854077 -0.0030863471
0.0074192835 -0.0001768060 -0.0002283268
0.0235304274 0.0002166312 -0.0236547403
-0.0230524838 0.0010090824 -0.0068267621
-0.0233572908 0.0010418594 -0.0078341030
0.0170773584 0.0005564857 -0.0064128963
0.0304986015 0.0007711556 -0.0227176808
0.0007176147 0.0009510089 -0.0043513738
-0.0206856467 -0.0036591124 0.0000762157
-0.0201739483 -0.0033010188 0.0004666559
0.0230970625 -0.0016983673 -0.0193911307
0.0266214181 0.0005383380 -0.0043357573
-0.0217990242 0.0008815508 -0.0029145591
-0.0213757381 0.0008640457 -0.0023679398
0.0251986068 0.0009572133 -0.0078184865
0.0248018727 0.0009629913 -0.0086493380
-0.0206684433 0.0001745727 -0.0005797260
-0.0204650350 0.0002400782 -0.0002970435
0.0042869328 0.0004227441 -0.0091303624
-0.0151721304 0.0008100346 -0.0005094446
-0.0140871098 0.0008396115 -0.0013632067
-0.0131111955 0.0008475501 -0.0015714429
-0.0121279387 0.0008441005 -0.0014386959
-0.0192657337 0.0004091151 0.0014873780
-0.0102156987 0.0008841585 -0.0025865845
0.0259432681 0.0006086342 -0.0056840740
-0.0260486305 -0.0027390961 -0.0147589631
0.0281796865 0.0010822713 -0.0114417709
0.0207433049 0.0006466415 -0.0087867714
0.0287275109 0.0010032114 -0.0123657994
0.0219257008 0.0004410055 -0.0197503380
-0.0273430757 -0.0004137941 -0.0174493454
-0.0203932337 0.0007959791 -0.0002751760
0.0038952185 0.0009547118 -0.0044138469
0.0237308480 0.0004127603 -0.0109232552
0.0169686247 0.0009113792 -0.0065066032
-0.0240402482 0.0010731537 -0.0088180033
-0.0185800269 0.0000639874 0.0058625452
-0.0248916112 0.0010524895 -0.0117437132
0.0181439947 0.0002096519 -0.0065222196
0.0245460216 0.0011264235 -0.0094114793
0.0187819768 0.0006308947 -0.0047752894
0.0254205726 0.0010551736 -0.0072874837
0.0260082036 0.0008667391 -0.0058756508
0.0308965631 0.0003016908 -0.0254414119
0.0090073394 0.0006715823 -0.0031253882
-0.0082510291 0.0008796137 -0.0023991726
-0.0090771159 0.0008582491 -0.0017796718
0.0222163741 0.0010918975 -0.0083807148
0.0219552983 0.0010709520 -0.0077560134
0.0295652505 0.0002296250 -0.0196503885
0.0031207642 0.0000669360 -0.0068540908
-0.0159788989 0.0007592570 0.0009898506
-0.0258490331 0.0010924507 -0.0149807222
-0.0255370550 0.0013744347 -0.0146355666
-0.0193164349 -0.0003681369 0.0034574308
0.0183768850 0.0001006331 -0.0120352395
-0.0244638957 0.0006924476 -0.0113480575
0.0291958302 0.0011749920 -0.0171890520
0.0292002764 0.0013783388 -0.0169391669
0.0226450991 0.0004662294 -0.0127848871
-0.0041412516 0.0004000328 -0.0017939918
-0.0034557013 0.0004135333 -0.0029457919
-0.0010796014 0.0005031470 -0.0020048209
-0.0240765996 -0.0006730277 -0.0088718124
0.0054504229 0.0006668530 -0.0030394979
0.0060988581 0.0006975494 -0.0038932674
0.0068637030 0.0006808955 -0.0034143217
0.0078189196 0.0006774552 -0.0033049919
0.0231210683 0.0001126062 -0.0255288519
0.0126516484 0.0003094040 -0.0031019635
-0.0226620473 0.0010750405 -0.0051166378
-0.0230379626 0.0012504458 -0.0068579949
-0.0233281590 0.0012822598 -0.0078965761
0.0313861109 0.0002981722 -0.0253726803
0.0010759895 0.0010529235 -0.0037891455
0.0216226932 0.0012406427 -0.0057881959
-0.0222877786 0.0010556206 -0.0044958331
-0.0021037115 0.0003178325 -0.0066471584
-0.0206384100 0.0009341817 -0.0006500073
-0.0208658092 0.0009677075 -0.0017002858
-0.0203549303 0.0010519251 -0.0003688820
-0.0199490376 0.0009350572 0.0001402460
-0.0156254582 0.0010667481 -0.0006968565
-0.0141669279 0.0011044145 -0.0018629692
-0.0132210543 0.0011092573 -0.0019931160
-0.0121620698 0.0011013988 -0.0017151274
-0.0108444197 0.0011301208 -0.0026022010
0.0268967394 0.0011044312 -0.0044950508
0.0277389921 0.0012365486 -0.0093021579
0.0287268143 0.0014485549 -0.0124178715
-0.0273954011 0.0016855132 -0.0212183930
0.0213468485 0.0012170840 -0.0050385483
0.0304984469 0.0013716687 -0.0227176808
-0.0020832019 0.0010823756 -0.0024772622
0.0239434745 0.0012841132 -0.0107545964
-0.0220265612 0.0010272972 -0.0036017261
0.0184341352 -0.0002833102 -0.0176888146
0.0097919470 0.0009905193 -0.0033607744
0.0251968056 -0.0010143518 -0.0077247806
0.0144738751 0.0012872797 -0.0072874837
-0.0185298771 0.0000967514 0.0049879588
-0.0248909257 0.0013989937 -0.0117437132
0.0168952160 0.0012777317 -0.0069751330
0.0170683023 0.0010077581 -0.0058819018
0.0179431979 0.0009960886 -0.0055305101
0.0206945688 0.0004462395 -0.0198752768
-0.0067983894 0.0005066246 -0.0055226944
-0.0076506389 0.0004464462 -0.0039453171
-0.0225470886 -0.0008335691 -0.0059677996
0.0275141951 0.0012550652 -0.0062567256
0.0245875977 -0.0004251692 -0.0189694576
-0.0086330278 0.0011502262 -0.0031956695
-0.0080773151 0.0011686739 -0.0037735291
0.0222134329 0.0013201479 -0.0083182491
0.0219399352 0.0012926664 -0.0074436627
0.0216787662 0.0010416284 -0.0068814270
0.0034512887 0.0004393701 -0.0095676593
-0.0198689736 0.0007629599 0.0007399656
-0.0270272531 0.0012952816 -0.0157609619
-0.0262231417 0.0015299916 -0.0153399147
-0.0257305764 0.0017219316 -0.0149713494
-0.0121465018 0.0004848372 -0.0013304763
-0.0111952228 0.0005449746 -0.0013902821
0.0186387599 0.0001213327 -0.0125037692
-0.0068689352 0.0005420912 -0.0015245937
0.0293797441 0.0012246165 -0.0185821392
-0.0055058105 0.0004941002 -0.0018681772
-0.0048156185 0.0005356837 -0.0029848330
-0.0044606095 0.0005634222 -0.0026126169
-0.0021004295 0.0004253611 -0.0019212700
-0.0014921810 0.0001680236 -0.0028520860
-0.0002220861 0.0006428100 -0.0024616458
0.0009835855 0.0005113427 -0.0028520860
0.0018528093 0.0005372446 -0.0028755106
0.0025183233 0.0006673895 -0.0031019635
0.0036822380 0.0006047823 -0.0035809092
0.0061494960 0.0004670769 -0.0041639619
0.0088021616 0.0004389863 -0.0033674650
-0.0184405036 0.0000221785 0.0069870166
0.0106181623 0.0006791595 -0.0033206157
0.0122452723 0.0003606416 -0.0033934899
0.0129158106 0.0002760105 -0.0032737665
-0.0230340920 0.0014909785 -0.0068658106
-0.0233278386 0.0015205424 -0.0078965761
-0.0226834640 -0.0026500281 -0.0059703998
-0.0276840515 0.0018952284 -0.0211246870
-0.0061523272 0.0008617230 -0.0018135123
-0.0061255461 0.0011250507 -0.0023419149
-0.0050017266 0.0010452103 -0.0036485828
-0.0051633595 0.0013546254 -0.0045283698
-0.0222787671 0.0014235396 -0.0045153610
0.0263372473 0.0013606064 -0.0058662780
-0.0264350623 0.0003826693 -0.0152680762
0.0303038564 0.0014653932 -0.0225302763
0.0217757020 0.0004075356 -0.0157418214
0.0295644533 0.0012634210 -0.0196753778
-0.0031214608 0.0002194680 -0.0041952021
-0.0022934088 0.0004745163 -0.0045387857
-0.0009105738 0.0002219100 -0.0041952021
0.0199628193 0.0013229009 -0.0065534525
0.0197362211 0.0015264805 -0.0074983276
0.0128639154 0.0007310510 -0.0047574379
0.0134772174 0.0007356815 -0.0048823766
0.0220060032 0.0015642364 -0.0087867789
0.0227663275 0.0010251272 -0.0086826570
0.0243020989 0.0008783843 -0.0088492446
0.0250319652 0.0014225524 -0.0086555816
0.0304978453 0.0018725302 -0.0227333046
0.0242375415 0.0016159061 -0.0105515607
-0.0225853175 0.0012382064 -0.0064441375
0.0249720234 0.0004646573 -0.0080371387
0.0078843189 0.0009320267 -0.0036876239
0.0099460920 0.0015050322 -0.0067877285
0.0113375643 0.0012661647 -0.0066315420
0.0107413959 0.0009488855 -0.0041639619
-0.0071642390 0.0014634337 -0.0055279024
0.0271578748 0.0009466521 -0.0040546395
-0.0175147019 0.0013319030 -0.0012278520
-0.0173489228 0.0013247393 -0.0009779744
-0.0156710185 0.0013140421 -0.0005719103
-0.0163732544 0.0012013223 0.0003859736
-0.0246220380 -0.0015116278 -0.0092136525
0.0129951853 0.0015554223 -0.0084952377
0.0139337359 0.0015583690 -0.0085931160
0.0139304111 0.0012977514 -0.0076232590
0.0126475235 0.0012698341 -0.0067408718
0.0277395826 -0.0008221865 -0.0092162602
0.0217076037 0.0015248526 -0.0074436627
0.0303337798 0.0001149345 -0.0215619840
-0.0277216285 0.0020152330 -0.0176263414
-0.0273484588 0.0019000843 -0.0174233131
-0.0272773914 0.0019899756 -0.0166580491
-0.0270173028 0.0019667596 -0.0157772191
-0.0261540636 0.0019558482 -0.0153305493
0.0303415619 -0.0007094126 -0.0213183500
-0.0272613913 0.0015470572 -0.0166892894
-0.0273493826 0.0014591776 -0.0174233206
-0.0255218558 -0.0026315171 -0.0137427710
0.0303075835 0.0019630138 -0.0224053301
-0.0099496497 0.0006119739 -0.0018369369
-0.0090628890 0.0004739948 -0.0014191605
-0.0078865355 0.0006323885 -0.0023523234
-0.0073533868 0.0006362367 -0.0024460219
0.0295633860 0.0018843226 -0.0197191052
0.0299464576 0.0019178670 -0.0208643936
-0.0041030077 0.0012918599 -0.0045637824
-0.0030862531 0.0014432091 -0.0047808550
-0.0000605947 0.0003231186 -0.0036485828
-0.0000500335 0.0010495316 -0.0036954321
0.0007257321 0.0006745402 -0.0033362322
0.0029664831 0.0005196519 -0.0034767874
0.0030039111 0.0009668283 -0.0047886707
0.0028154152 0.0012311023 -0.0055903681
0.0038496768 0.0011976715 -0.0056052469
0.0047860676 0.0017289706 -0.0064207055
0.0048463447 0.0014673397 -0.0055305026
0.0058462238 0.0014142394 -0.0057413392
0.0066167107 0.0012258105 -0.0053821318
0.0068425061 0.0010830071 -0.0046481080
0.0078597786 0.0012126639 -0.0049526580
0.0086232303 0.0011982247 -0.0044867285
0.0091953659 0.0014756341 -0.0057881959
0.0108376639 0.0011757966 -0.0056398250
0.0152693382 0.0009745099 -0.0048979856
0.0149999289 0.0011191908 -0.0057022981
0.0145868603 0.0016063619 -0.0075894259
0.0169149712 0.0014190786 -0.0077950545
0.0229047313 0.0003845133 -0.0229987986
0.0199900772 0.0012494531 -0.0060693137
0.0207351092 0.0013867617 -0.0067213438
0.0212307535 0.0012856554 -0.0072250105
-0.0233125016 0.0017522369 -0.0076518916
0.0018249274 0.0017734841 -0.0080683716
0.0022075018 0.0017769318 -0.0081933029
-0.0052081374 0.0016304888 -0.0057881959
-0.0047762310 0.0017319862 -0.0065846927
-0.0040120399 0.0017357618 -0.0067174472
0.0233813599 0.0004521981 -0.0200002231
-0.0092180325 0.0011293069 -0.0025397278
-0.0093578650 0.0014083795 -0.0036798157
-0.0255164690 0.0017136931 -0.0146746151
-0.0073234616 0.0010695774 -0.0037079193
-0.0069506420 0.0013560373 -0.0046116672
-0.0058090268 0.0014277846 -0.0042889006
0.0299386028 0.0021298341 -0.0211559199
0.0303056519 0.0021655206 -0.0224678032
0.0003806454 0.0017571412 -0.0074748956
0.0010960595 0.0014941208 -0.0064753704
-0.0044252863 0.0001900699 -0.0034924038
0.0036415076 0.0016990323 -0.0074749030
0.0292018652 0.0004196987 -0.0168610848
0.0313857757 0.0011740848 -0.0253726803
0.0202912856 0.0017477479 -0.0071000718
0.0188405011 0.0015395302 -0.0079434253
0.0281716958 0.0018943809 -0.0125037692
0.0287242364 0.0018979441 -0.0126365162
-0.0273709483 0.0021180660 -0.0214682780
-0.0214706622 -0.0006947536 -0.0025865771
-0.0270112753 0.0003108438 -0.0156949498
-0.0248752385 0.0016309097 -0.0117749460
0.0178090092 0.0012699533 -0.0067252479
0.0199857522 0.0004740469 -0.0205103941
0.0195838660 0.0004484337 -0.0175326355
0.0271633118 0.0016162898 -0.0066003092
0.0070409393 0.0009330269 -0.0037266724
0.0162211824 0.0018137731 -0.0095208026
0.0047190087 0.0002550129 -0.0048979931
0.0118529033 0.0015343260 -0.0077794455
0.0181279499 0.0018022563 -0.0090991221
-0.0070674745 0.0017435141 -0.0070297904
-0.0062455339 0.0017303638 -0.0065378360
-0.0180525295 0.0016259421 -0.0028520860
-0.0174406469 0.0016148314 -0.0024304055
-0.0171496272 0.0015897267 -0.0014985614
-0.0170851871 0.0015570298 -0.0002907924
-0.0162051581 0.0015641972 -0.0005406775
0.0218037255 0.0018080715 -0.0093177753
0.0215369593 0.0017885212 -0.0085993670
0.0235214271 0.0000858437 -0.0209372751
-0.0022209687 0.0004407912 -0.0057465397
-0.0009250428 -0.0000710487 -0.0067148395
-0.0201974176 0.0015943367 -0.0017276220
-0.0190358758 0.0016114693 -0.0023366995
-0.0277042128 0.0022362042 -0.0176575817
0.0268028006 0.0014476124 -0.0048199035
-0.0273451321 0.0022308975 -0.0174285136
-0.0139820902 0.0015213657 -0.0034455545
-0.0129747866 0.0013988838 -0.0034221299
-0.0132104745 0.0016738586 -0.0045387857
-0.0125750555 0.0016842745 -0.0049136095
-0.0124087809 0.0013935193 -0.0032269098
-0.0110437078 0.0016873721 -0.0050073154
-0.0106403893 0.0014163908 -0.0039765500
-0.0102337105 0.0011525434 -0.0033049919
-0.0082430942 0.0014426950 -0.0048355199
-0.0058326749 0.0017126407 -0.0058819018
-0.0042108437 0.0014661811 -0.0055799596
-0.0031870278 0.0011624452 -0.0034845956
0.0192380827 0.0005300976 -0.0116291828
-0.0012111004 0.0014344566 -0.0044606961
0.0000288644 0.0014663804 -0.0055383192
0.0007621989 0.0012888201 -0.0055695511
0.0012425397 0.0012131818 -0.0050385483
0.0019783163 0.0011977963 -0.0045387931
0.0016899396 0.0014784243 -0.0059339516
-0.0169446431 0.0018271897 -0.0010092072
0.0060982006 0.0017631520 -0.0076727159
0.0058930563 0.0016161185 -0.0066003092
0.0078690061 0.0014928300 -0.0063816644
0.0087916860 0.0015574079 -0.0065846927
0.0088103404 0.0017558131 -0.0073968060
0.0096255830 0.0017647780 -0.0077247806
0.0120430272 0.0010811649 -0.0057569556
-0.0240333416 0.0019016899 -0.0088304989
-0.0186264962 0.0000312272 0.0067371316
-0.0054525910 0.0002149846 -0.0099580921
0.0231535602 0.0002376530 -0.0240920372
0.0270377360 -0.0014594607 -0.0038099699
0.0197959486 0.0009761024 -0.0049292333
0.0199784115 0.0017626453 -0.0076466911
-0.0235465877 0.0014116373 -0.0082479678
0.0019216005 0.0020417050 -0.0094895698
-0.0203431062 0.0018751062 -0.0029614009
-0.0256133601 -0.0023695845 -0.0142841749
-0.0207384862 -0.0008843187 -0.0006923936
-0.0020365445 0.0019765571 -0.0068970434
-0.0255155005 0.0015795957 -0.0139562078
-0.0015093117 0.0019926503 -0.0075373687
-0.0002014182 0.0020162035 -0.0084744208
0.0004964647 0.0020271931 -0.0089117177
0.0299385842 0.0023332480 -0.0211559199
0.0303027723 0.0023685507 -0.0225615092
0.0293752030 0.0020655040 -0.0188028701
-0.0041194921 0.0010830965 -0.0035496764
0.0040604258 0.0019916315 -0.0074983276
0.0049001994 0.0019933730 -0.0075685941
-0.0021477966 0.0014389586 -0.0046246909
0.0058202287 0.0020205546 -0.0086514242
-0.0001337538 0.0013267864 -0.0048667528
0.0081623970 0.0020222906 -0.0087243132
0.0087050581 0.0020167697 -0.0085056610
0.0092055192 0.0020395108 -0.0094114793
0.0270378646 -0.0004971400 -0.0038759075
0.0196489114 0.0019255020 -0.0085681193
0.0208416618 0.0020162463 -0.0085160695
-0.0233075842 0.0019912645 -0.0076623075
0.0159525890 0.0009641554 -0.0045856349
0.0250306726 0.0019261204 -0.0085993670
0.0263586398 0.0020069182 -0.0081620701
0.0268199537 0.0020068828 -0.0081620701
-0.0031254357 0.0019977875 -0.0077435113
-0.0248646215 0.0019778367 -0.0117957704
0.0188608449 0.0020453371 -0.0096676014
-0.0219007321 -0.0007271450 -0.0029926337
-0.0091931885 0.0017074794 -0.0057257228
-0.0009420804 0.0020130575 -0.0083494820
-0.0220192596 0.0015210211 -0.0036173500
0.0281037204 0.0015720539 -0.0116083585
0.0024293521 0.0009341482 -0.0038203783
0.0131707108 0.0020714756 -0.0106921243
0.0048373090 0.0011904668 -0.0042732842
-0.0071168309 0.0019951239 -0.0076466911
-0.0142245842 0.0013792049 -0.0027739964
-0.0196761712 0.0007569809 0.0009273775
-0.0110919056 0.0019791834 -0.0070297904
-0.0102900071 0.0019751862 -0.0068658106
0.0213815402 0.0020520594 -0.0099424757
0.0309194792 0.0012925863 -0.0254396312
-0.0209402591 0.0014717821 -0.0018369369
-0.0213922523 0.0013127998 -0.0023897998
0.0263373647 0.0017142035 -0.0058819018
0.0267112944 0.0015121456 -0.0054133795
-0.0274478830 0.0018956736 -0.0211246870
-0.0137250936 0.0016728062 -0.0045075528
-0.0120850280 0.0016933568 -0.0052415766
-0.0114893494 0.0017012041 -0.0055227019
-0.0100016324 0.0014399942 -0.0047730543
-0.0093124984 0.0014313702 -0.0044659041
-0.0081393151 0.0015832298 -0.0055539347
0.0304927006 0.0022768322 -0.0228894837
-0.0028665634 0.0017178040 -0.0060484894
-0.0020301780 0.0017168242 -0.0060068406
-0.0013289294 0.0017143972 -0.0059131421
-0.0008635755 0.0017255172 -0.0063191922
-0.0002921103 0.0017355178 -0.0066836067
0.0022713123 0.0014916863 -0.0063816644
0.0014194221 0.0017674826 -0.0078497194
-0.0172436312 0.0019275621 -0.0017067976
-0.0161776692 0.0018437915 -0.0016651489
0.0069365045 0.0014954228 -0.0064753704
0.0066197133 0.0017705597 -0.0079434253
0.0078981528 0.0017691534 -0.0078887604
0.0108757475 0.0015257485 -0.0074905194
0.0116550019 0.0011888202 -0.0066523664
0.0129694650 0.0009970684 -0.0055851676
0.0139419371 0.0010365266 -0.0067564808
-0.0243043527 0.0020713843 -0.0109003596
-0.0244084857 0.0020851325 -0.0114573799
-0.0227762721 -0.0056032632 -0.0058155246
0.0188922156 0.0009969696 -0.0055539347
0.0188678522 0.0012717843 -0.0067814700
0.0223119911 0.0016118661 -0.0104110055
-0.0064088693 0.0014171824 -0.0039349087
0.0018096947 0.0023054574 -0.0109732486
0.0027963975 0.0023004133 -0.0107608475
0.0198880173 0.0022737775 -0.0097082146
-0.0257298648 0.0021236856 -0.0130451806
-0.0252811983 0.0021156091 -0.0127067976
-0.0255385898 0.0021453425 -0.0139093511
0.0066119069 0.0002342518 -0.0072796755
0.0223469511 -0.0012835637 -0.0111606531
-0.0188118592 0.0000931825 0.0041914620
-0.0191673003 0.0002226308 0.0035779066
0.0070303427 0.0002227835 -0.0069907494
0.0220747385 0.0023861732 -0.0145965330
0.0045974934 0.0022582468 -0.0089429505
0.0189099386 0.0017950051 -0.0088336281
-0.0233027413 0.0022302475 -0.0076727234
0.0249905866 0.0022542048 -0.0088804848
-0.0218455717 0.0001827180 -0.0030134581
-0.0208752714 0.0002163053 -0.0016807579
-0.0186861679 -0.0028249156 0.0053835995
0.0188234095 0.0022951290 -0.0106296577
-0.0014600299 0.0022519473 -0.0086305998
-0.0180467591 0.0021795835 -0.0054367967
0.0278421063 0.0018744208 -0.0117697380
0.0070979716 0.0017720088 -0.0079954825
-0.0002823035 0.0008961279 -0.0027271397
0.0246241000 0.0015087314 -0.0094843619
-0.0126966741 0.0022235792 -0.0073499568
-0.0130615747 0.0019443389 -0.0056528412
0.0213198811 0.0023452323 -0.0128161199
0.0210390948 0.0023222305 -0.0118165947
-0.0207540877 -0.0017819703 -0.0007548667
0.0257190447 0.0019400399 -0.0077950545
0.0265872590 0.0019998346 -0.0078809522
-0.0218073055 0.0013769213 -0.0028937273
0.0258765649 0.0013180338 -0.0066037737
-0.0272760950 0.0025467742 -0.0216348656
-0.0214243941 0.0002490822 -0.0025657602
0.0270598531 0.0003122035 -0.0039623640
-0.0096659353 0.0017192047 -0.0061630197
-0.0079864217 0.0017269254 -0.0064285137
-0.0205417499 -0.0005974229 -0.0002439357
0.0299489703 -0.0017592702 -0.0208123438
0.0304870736 0.0025805309 -0.0230612718
-0.0034239078 0.0017225090 -0.0062254854
0.0009332587 0.0017659999 -0.0077976696
0.0299461111 0.0013063904 -0.0208810605
0.0234833118 0.0003339965 -0.0173139907
-0.0171405189 0.0020278115 -0.0024252050
-0.0164942890 0.0021130126 -0.0025397353
-0.0176899433 0.0009800699 0.0020206086
0.0034914250 0.0007079504 -0.0042264350
0.0129392147 0.0013698172 -0.0074644797
-0.0248439237 0.0024404824 -0.0118374117
-0.0252692588 0.0025744587 -0.0127302222
-0.0186701193 -0.0001816116 0.0053627826
0.0179097634 0.0015381407 -0.0078965761
0.0122069847 0.0002368148 -0.0043201409
-0.0246810392 0.0012069587 -0.0093333907
-0.0240367614 0.0014283061 -0.0088242562
-0.0040106392 0.0020040795 -0.0079954825
-0.0040678969 0.0022711493 -0.0094489567
0.0179058705 0.0021222495 -0.0104890950
0.0178868417 0.0023608189 -0.0115417279
0.0178762265 0.0025634207 -0.0126599409
-0.0257191136 0.0025814213 -0.0130659975
0.0202459265 0.0025761295 -0.0132846497
0.0132797854 0.0022965558 -0.0106608905
0.0142521448 0.0023086593 -0.0111918859
0.0149468351 0.0023121648 -0.0113480650
0.0162934419 0.0020869747 -0.0113168322
0.0159575809 0.0023513790 -0.0130555891
0.0208745990 0.0026022084 -0.0145340599
0.0223086514 0.0026105233 -0.0149401166
0.0227181185 0.0023403503 -0.0138000362
-0.0181975476 0.0004389863 0.0042445548
-0.0173762478 0.0003936272 0.0040821321
-0.0244360790 0.0012733489 -0.0114027224
0.0287290979 -0.0017746110 -0.0122968219
-0.0081947697 0.0025347453 -0.0109654255
-0.0068982085 0.0025112834 -0.0098643936
0.0153433867 0.0023466609 -0.0128473528
-0.0080820872 0.0019952301 -0.0076544983
-0.0261749104 0.0024225675 -0.0153798051
0.0256875344 0.0022690184 -0.0095260106
0.0229935572 0.0013888478 -0.0105047114
-0.0010683975 0.0010118615 -0.0025553443
-0.0141626885 0.0024612434 -0.0073811896
-0.0144925741 0.0018973593 -0.0037891380
0.0153033389 0.0026005376 -0.0144091137
-0.0174262784 0.0024469495 -0.0066627748
0.0113210818 0.0025961678 -0.0141592361
0.0108461967 0.0025132243 -0.0137063228
0.0108440379 0.0022061113 -0.0125162639
0.0122726038 0.0023535583 -0.0131284706
0.0118875625 0.0021046828 -0.0120102502
0.0128485840 0.0021812040 -0.0114917420
0.0119099785 0.0018216129 -0.0098097287
0.0128288912 0.0018224828 -0.0098409541
0.0058707194 0.0010815244 -0.0046090670
0.0141304974 0.0018831491 -0.0086930655
0.0256505590 0.0019810665 -0.0071313120
0.0268332716 0.0022972338 -0.0107545964
0.0269806162 0.0020482633 -0.0098279528
0.0209575538 0.0012084208 -0.0056077279
0.0211094357 0.0014543291 -0.0050385483
-0.0274410285 0.0029654186 -0.0213433318
-0.0224893093 0.0013480857 -0.0060849302
0.0255671609 0.0014860258 -0.0077060349
-0.0175246857 0.0027221553 -0.0085681267
-0.0222785100 0.0016683787 -0.0045153610
-0.0132954670 0.0024821833 -0.0083911307
-0.0122489510 0.0023685861 -0.0085837431
-0.0120263426 0.0025058519 -0.0095364191
-0.0111208651 0.0022544116 -0.0086930655
-0.0110457083 0.0019825213 -0.0071625449
-0.0097811883 0.0019858293 -0.0072874837
-0.0090587316 0.0019945353 -0.0076310672
-0.0086943759 0.0022635870 -0.0090991296
-0.0080370558 0.0022592116 -0.0089117177
-0.0071758805 0.0022521745 -0.0086097829
-0.0062825112 0.0023314152 -0.0095598511
-0.0047209254 0.0022847578 -0.0100361891
-0.0043864911 0.0020129513 -0.0083494820
0.0304809529 0.0027838908 -0.0232486837
-0.0021437621 0.0022441242 -0.0082870089
-0.0007643896 0.0022820774 -0.0099424757
0.0010818978 0.0020392239 -0.0093906634
0.0299820658 0.0026942939 -0.0213979967
0.0303008519 0.0025704671 -0.0226239748
0.0031750640 0.0026022680 -0.0107441805
0.0028688842 0.0026324168 -0.0114792474
0.0040931767 0.0027662870 -0.0114417709
0.0052069454 0.0025381669 -0.0113168322
0.0047659697 0.0025284681 -0.0108483024
0.0057385517 0.0022821873 -0.0099893324
0.0061673997 0.0022918396 -0.0104110055
0.0069080470 0.0025493614 -0.0118728168
0.0068640104 0.0022927411 -0.0104547404
0.0077494392 0.0025420692 -0.0115354769
0.0091894725 0.0023129787 -0.0113480575
0.0086104469 0.0022965092 -0.0106296577
0.0028663268 0.0015073866 -0.0069126599
0.0098597938 0.0019853376 -0.0095364191
0.0108507713 0.0018166937 -0.0096301250
0.0043161167 0.0012035333 -0.0046949647
-0.0257033557 0.0028105974 -0.0130972378
-0.0252614804 0.0028038714 -0.0127458386
-0.0254838020 0.0028413590 -0.0147370882
0.0138566969 0.0025610793 -0.0125115775
0.0148611404 0.0021818541 -0.0106062330
0.0157893039 0.0020744465 -0.0108170621
0.0156652126 0.0017886888 -0.0085993595
0.0100752367 0.0012001880 -0.0045387857
0.0177824479 0.0018894486 -0.0095260032
0.0191855785 0.0025272220 -0.0109420083
0.0187849067 0.0025401525 -0.0115562938
-0.0246964432 0.0022670981 -0.0092990436
-0.0240409747 0.0024928637 -0.0088138469
-0.0235350542 0.0023627970 -0.0082713999
-0.0232789665 0.0025893301 -0.0077247806
0.0148468344 0.0013035461 -0.0067475550
0.0217980165 0.0026223641 -0.0155023523
0.0028236723 0.0027750786 -0.0118790604
-0.0102286031 0.0017033331 -0.0055851676
0.0181359481 0.0027930085 -0.0130972303
0.0185736734 0.0027920324 -0.0130503811
0.0191443954 0.0027963314 -0.0132846497
0.0197316725 0.0028056372 -0.0137844123
0.0137039311 0.0022912193 -0.0104318364
0.0219198335 0.0028425436 -0.0157626383
0.0136161400 0.0019334033 -0.0097342394
0.0147067392 0.0020360481 -0.0092865415
0.0228022505 0.0028063059 -0.0138468780
-0.0146688586 0.0024469718 -0.0066940151
-0.0061914464 0.0027948059 -0.0127015896
-0.0139089329 0.0019201729 -0.0046949647
-0.0225847661 0.0017202254 -0.0064441375
-0.0140156960 0.0027539562 -0.0103381239
-0.0069581931 0.0027932134 -0.0125974752
-0.0151563128 0.0023441166 -0.0056216009
-0.0152319660 0.0020124577 -0.0035080202
0.0118281366 0.0024043005 -0.0134283341
-0.0262087174 0.0028550699 -0.0154586174
-0.0069172634 0.0008603577 -0.0017900802
-0.0224251635 0.0021283161 -0.0045504980
-0.0220725089 0.0022586845 -0.0034924038
-0.0200837143 0.0020063389 -0.0032737590
0.0134520326 0.0028354395 -0.0152837001
0.0068763765 0.0020369459 -0.0093052723
-0.0181715041 0.0024539661 -0.0069907494
-0.0172135681 0.0026901513 -0.0068814270
0.0201769192 0.0028367583 -0.0154398791
0.0279595926 0.0007207673 -0.0107545964
-0.0209660456 -0.0005203132 -0.0016026758
0.0308989137 -0.0016461778 -0.0254086219
0.0313886739 -0.0016511828 -0.0253414400
-0.0227762908 0.0024104454 -0.0048563443
-0.0228885598 0.0025443789 -0.0054758452
-0.0225234665 0.0020713136 -0.0060068406
-0.0201583989 0.0026891157 -0.0067564882
-0.0197066031 0.0026977640 -0.0072250180
-0.0177023076 0.0027310848 -0.0090366565
-0.0178969838 0.0027335323 -0.0091615953
-0.0229321644 0.0017297938 -0.0068085454
-0.0226407088 0.0015638117 -0.0051634870
-0.0147852171 0.0027403533 -0.0095988922
-0.0136726229 0.0027469061 -0.0099737160
-0.0131138479 0.0027444232 -0.0098565854
-0.0120670870 0.0027605928 -0.0107389726
-0.0115301078 0.0025135763 -0.0099112429
0.0275152251 0.0009911191 -0.0053821392
-0.0092490194 0.0022666883 -0.0092318840
-0.0091646900 0.0025333855 -0.0108873434
-0.0050035408 0.0025436301 -0.0114339627
-0.0051554730 0.0022965614 -0.0105463527
0.0309505146 0.0029160306 -0.0254316740
0.0304738171 0.0029870551 -0.0234673284
-0.0030596955 0.0022569150 -0.0088367574
-0.0021603974 0.0025298391 -0.0108170696
-0.0012319583 0.0025295597 -0.0108170621
-0.0000939752 0.0022899006 -0.0102860592
0.0008770608 0.0023045149 -0.0109263845
0.0295672510 -0.0017373059 -0.0195941590
0.0018347901 0.0025640130 -0.0125037692
0.0309937689 0.0022461768 -0.0254326575
0.0024341932 0.0025566351 -0.0121601783
0.0058678789 0.0025474802 -0.0117697455
-0.0220854208 0.0020700824 -0.0006812401
-0.0213385560 0.0020342302 -0.0018291362
0.0083716428 0.0025615469 -0.0124725290
0.0097253779 0.0023244172 -0.0118478276
0.0039294017 0.0015329458 -0.0066360049
-0.0257034488 0.0030391235 -0.0130972378
0.0114213070 0.0018371195 -0.0103797726
-0.0256575085 0.0029606577 -0.0151119120
-0.0254679285 0.0030670352 -0.0147683211
0.0128866034 0.0024332646 -0.0127536394
0.0126818726 0.0025855489 -0.0136672743
0.0169218946 0.0018178038 -0.0096691661
0.0170206092 0.0020712204 -0.0106921243
0.0195519906 0.0025353432 -0.0113324411
0.0206391867 0.0022985246 -0.0107858367
0.0219719391 0.0021187514 -0.0125974752
0.0292034596 -0.0003276877 -0.0167829953
0.0028668838 0.0030026548 -0.0120664723
0.0024885619 0.0030243937 -0.0133471154
0.0237945467 0.0009841658 -0.0096925981
0.0229343995 0.0016523805 -0.0117931701
-0.0021950686 0.0008720085 -0.0020399652
0.0202187803 0.0004469845 -0.0095364191
0.0292181671 0.0015591718 -0.0159396417
0.0215836354 0.0006726421 -0.0094739534
0.0232052896 0.0004709307 -0.0101298876
0.0231670607 0.0028625969 -0.0129410587
0.0236787163 0.0030256994 -0.0138937347
0.0241370723 0.0030368865 -0.0145652927
0.0253322367 0.0028195474 -0.0145652927
0.0260418616 0.0029259305 -0.0156710185
0.0265354980 0.0030533820 -0.0155648179
0.0199752506 0.0025611222 -0.0125662349
0.0275110882 0.0015684776 -0.0089429505
-0.0220376365 0.0002868045 -0.0035783090
-0.0001304197 0.0030598938 -0.0153649114
0.0009028640 0.0030615684 -0.0155023448
0.0020210138 0.0030465871 -0.0146511979
-0.0039831428 0.0025331713 -0.0109498166
-0.0222007409 0.0020357072 -0.0027896129
-0.0199411102 0.0022744201 -0.0042420514
0.0137143005 0.0030840114 -0.0172202848
-0.0158474818 0.0021367129 -0.0035704933
-0.0262022875 0.0030792393 -0.0154711120
0.0219183732 0.0022557825 -0.0136907063
-0.0242841244 0.0026533958 -0.0109420009
0.0125107812 0.0028118622 -0.0140186734
0.0195582267 0.0030586589 -0.0158147030
0.0184990056 0.0030196682 -0.0134720616
0.0275154561 0.0002765171 -0.0052572004
0.0278811231 0.0028978996 -0.0137576349
-0.0273531154 0.0004204493 -0.0215099268
-0.0229072273 0.0023392979 -0.0067757107
0.0156866908 0.0012305118 -0.0054758452
0.0241995323 0.0021798499 -0.0105411522
0.0243372824 0.0021690428 -0.0100986548
0.0246047471 0.0019829497 -0.0094739534
0.0262661986 0.0022886414 -0.0103797726
0.0272842422 0.0020853598 -0.0112855919
0.0278373752 0.0022360850 -0.0129020028
0.0290471967 0.0021331105 -0.0131909437
0.0286114179 0.0023446251 -0.0128195919
-0.0110204695 0.0025222767 -0.0103329159
-0.0101714237 0.0025300644 -0.0107155554
-0.0100880070 0.0022668093 -0.0092344768
0.0308962967 0.0032186154 -0.0254351459
-0.0031676022 0.0025244113 -0.0105437599
-0.0229529999 0.0028771088 -0.0035704933
-0.0230333358 0.0030437876 -0.0047449358
-0.0220438279 0.0028964635 -0.0047574304
-0.0002646792 0.0025512110 -0.0118634440
0.0002436460 0.0025644843 -0.0125037692
0.0007906862 0.0025625210 -0.0124178641
-0.0272293724 0.0003800076 -0.0166424327
-0.0227264054 0.0024749450 -0.0019774996
-0.0221502334 0.0020559970 -0.0018837936
-0.0214203820 0.0023620855 -0.0025709681
0.0089852484 0.0025677737 -0.0127770789
0.0104296347 0.0020873360 -0.0113168322
-0.0260968059 0.0033026189 -0.0154398791
0.0117783789 0.0025984626 -0.0142737590
-0.0153946234 0.0018705651 -0.0027271397
0.0168789197 0.0023866910 -0.0126786865
-0.0173921548 0.0032492839 -0.0123944469
-0.0120115979 0.0013734512 -0.0025319196
0.0026935069 0.0029005837 -0.0126182921
0.0028981240 0.0032501500 -0.0136594735
-0.0062356247 0.0027807578 -0.0119571574
0.0237507001 0.0015541967 -0.0114979856
0.0212583914 0.0006838012 -0.0097706802
0.0287253354 0.0016739387 -0.0125428103
0.0249830578 0.0028007440 -0.0135657676
0.0255555622 0.0028260015 -0.0149088763
0.0268587470 0.0032695346 -0.0156377070
-0.0061189039 0.0032849275 -0.0155231617
-0.0051176315 0.0032835044 -0.0154867284
-0.0018890902 0.0032858308 -0.0158303194
0.0021033017 0.0032636076 -0.0145340674
0.0313868634 0.0032170694 -0.0253414400
-0.0190548301 0.0021657161 -0.0048355199
0.0139455590 0.0033058170 -0.0178866349
-0.0121105416 0.0032647587 -0.0137844048
0.0130198188 0.0033018496 -0.0175873004
0.0128043322 0.0031246021 -0.0164472051
0.0122420490 0.0028198995 -0.0144403540
0.0051560169 0.0022685993 -0.0093958564
0.0152157163 0.0003710501 -0.0076623075
0.0264338125 0.0032781065 -0.0162207596
0.0225016903 0.0026000328 -0.0144403540
0.0220745467 0.0019469783 -0.0116916560
-0.0200095326 0.0029444862 -0.0076935412
0.0056841234 0.0032861698 -0.0162363686
0.0060998099 0.0032767840 -0.0156168826
0.0066194991 0.0032745358 -0.0154867284
0.0081880139 0.0030607115 -0.0156897642
0.0080384808 0.0028074887 -0.0137063228
-0.0253006704 0.0013335068 -0.0126203634
-0.0073265387 0.0025297459 -0.0107389800
0.0187376197 0.0032804888 -0.0162832253
0.0187992286 0.0030358173 -0.0144403540
-0.0275383554 0.0011437964 -0.0209685154
0.0053743413 0.0032875258 -0.0163144656
0.0286043454 0.0030163359 -0.0133783557
0.0248057637 0.0025225896 -0.0107545964
0.0252666157 0.0025330130 -0.0112543590
0.0258487687 0.0025646891 -0.0127692707
0.0269589480 0.0025876611 -0.0138703026
0.0278354045 0.0025789347 -0.0134564452
0.0290293731 0.0024878904 -0.0143154077
-0.0044848649 0.0025390536 -0.0112231262
-0.0237042196 0.0031474438 -0.0051010214
-0.0234592296 0.0033907909 -0.0050697811
-0.0233910382 0.0031530540 -0.0055070706
-0.0214603618 0.0029086806 -0.0055070780
-0.0205032714 0.0029353630 -0.0071313120
-0.0188119449 0.0029809941 -0.0099112429
-0.0176369026 0.0029375423 -0.0073811896
-0.0172755755 0.0029367581 -0.0073499568
-0.0227170251 0.0025328640 -0.0028104372
0.0101195024 0.0023322757 -0.0121914186
-0.0270118415 0.0031720717 -0.0158579536
-0.0272686109 0.0032555498 -0.0164795555
-0.0273422115 0.0032229368 -0.0174337216
0.0149758672 0.0035273582 -0.0187882967
-0.0051006107 0.0020029116 -0.0079512335
-0.0150877973 0.0033993833 -0.0124829523
0.0159158278 0.0013806801 -0.0065378435
0.0237121023 0.0022498053 -0.0116676278
-0.0127348965 0.0035027415 -0.0148776434
-0.0120878397 0.0035119224 -0.0156585239
0.0271743312 0.0023396667 -0.0125974752
-0.0105662188 0.0035268348 -0.0169704072
-0.0100089042 0.0032960419 -0.0160333477
-0.0087171411 0.0032920633 -0.0158459358
-0.0083633242 0.0033967327 -0.0155648179
-0.0030843625 0.0009670295 -0.0024668463
-0.0247735009 0.0033715460 -0.0095780678
-0.0188054107 0.0024537612 -0.0069751330
-0.0276298150 0.0031761043 -0.0212183930
-0.0110775521 0.0027806740 -0.0118270032
-0.0175118856 0.0026997291 -0.0073811896
-0.0157361962 0.0027065724 -0.0077872463
-0.0076886965 0.0027782228 -0.0117853545
-0.0121586360 0.0019643325 -0.0064441301
-0.0178766698 0.0013339147 -0.0013059415
-0.0257139094 0.0022845808 -0.0150025822
0.0099130897 0.0033196341 -0.0186883397
0.0085955029 0.0030678548 -0.0161270536
0.0070717530 0.0027892813 -0.0127224140
0.0067606019 0.0035197400 -0.0177721046
0.0045635579 0.0030274298 -0.0135970004
-0.0257200338 0.0015527308 -0.0130659975
-0.0093996329 0.0035424419 -0.0183031075
-0.0247463249 0.0030473471 -0.0119103007
0.0223131943 0.0030449238 -0.0150338225
0.0225942265 0.0031900927 -0.0144225024
0.0149387345 0.0018660035 -0.0086305998
0.0015594763 0.0033983514 -0.0163456984
-0.0011877577 0.0027922131 -0.0126911812
-0.0063847331 0.0020057671 -0.0080683641
0.0212628040 0.0026237443 -0.0155648179
0.0204826426 0.0025813300 -0.0135345273
0.0109757623 0.0035290085 -0.0187403969
0.0037704287 0.0025845077 -0.0104154758
0.0178737100 0.0035079345 -0.0173452236
0.0190371070 0.0032955110 -0.0173139907
0.0198359769 0.0030727237 -0.0166580491
0.0055874465 0.0009335000 -0.0037579052
0.0169086549 0.0015510879 -0.0083390661
0.0261893868 0.0025806874 -0.0135345273
0.0264149010 0.0025944076 -0.0141904689
0.0182379540 0.0001401026 -0.0076623075
0.0279035680 0.0012801960 -0.0106296502
-0.0228716247 0.0007632989 -0.0066627748
0.0254150629 0.0005784556 -0.0069751330
-0.0239838362 0.0035168268 -0.0053430907
-0.0238201506 0.0033197477 -0.0069938786
-0.0231806785 0.0031859297 -0.0077560134
-0.0230723172 0.0031230934 -0.0067252554
0.0017147873 0.0037322827 -0.0173868723
-0.0277737789 0.0014634356 -0.0209685154
-0.0178641416 0.0029740110 -0.0095364191
-0.0175546333 0.0029511657 -0.0081933029
-0.0163272731 0.0029602870 -0.0087867789
-0.0152106872 0.0029758010 -0.0097550713
0.0058793528 0.0037380401 -0.0183239244
0.0072853537 0.0035253894 -0.0182510503
-0.0206746273 0.0024116170 -0.0049448423
-0.0191523544 0.0018928070 -0.0036537834
0.0099082431 0.0025851633 -0.0136178248
-0.0277124941 0.0030063242 -0.0176419653
-0.0173794776 0.0020548739 -0.0035809167
-0.0264543556 -0.0002923254 -0.0152368508
-0.0159621648 0.0024311449 -0.0059235506
0.0147425430 0.0025792755 -0.0133887641
-0.0272769704 0.0024338681 -0.0166580491
0.0239457134 0.0027714260 -0.0120040067
-0.0194016136 0.0032195617 -0.0102548338
-0.0172360130 0.0032419637 -0.0119103007
0.0286652260 0.0029536560 -0.0129254423
-0.0136640435 0.0029999502 -0.0112543590
-0.0008892297 0.0037675425 -0.0204375125
-0.0001878004 0.0037691761 -0.0206686519
0.0006021772 0.0037661493 -0.0204687528
-0.0249488018 0.0036826786 -0.0093021579
-0.0244863108 0.0030364785 -0.0094739534
-0.0132081425 0.0022146124 -0.0069595166
0.0307987723 0.0038021747 -0.0254476406
-0.0044212295 0.0035156719 -0.0166372247
0.0067928778 0.0029155798 -0.0135891922
0.0202030409 0.0019916929 -0.0075373687
0.0058543729 0.0028017834 -0.0133596174
-0.0247632228 0.0037114602 -0.0120040067
0.0088487910 0.0037736408 -0.0219493024
0.0291762445 0.0030984376 -0.0182718746
0.0194916073 0.0037632007 -0.0215776004
0.0033969032 0.0022670664 -0.0093177753
0.0130003756 0.0028184894 -0.0143778808
0.0194828082 0.0005413387 -0.0119103007
-0.0031606099 0.0037391707 -0.0175092109
-0.0028840108 0.0035135373 -0.0165955834
-0.0017929162 0.0035215449 -0.0173139907
0.0042095305 0.0009266324 -0.0035704933
0.0168790985 0.0022047143 -0.0115667172
0.0237096846 0.0032571405 -0.0147683211
-0.0192153491 0.0034923945 -0.0134408213
-0.0243931226 0.0025486201 -0.0114886202
0.0289863329 0.0030778609 -0.0170328729
0.0231063906 0.0021656677 -0.0127161629
-0.0141130481 0.0037355032 -0.0157678463
-0.0131835518 0.0037343893 -0.0157912783
-0.0108458949 0.0032769609 -0.0146902315
0.0275092367 0.0018408503 -0.0105359517
-0.0100058643 0.0030515362 -0.0144715793
-0.0091986982 0.0033006407 -0.0163956769
-0.0082465662 0.0035186689 -0.0165409185
-0.0071682697 0.0035158917 -0.0164185725
-0.0053754812 0.0030456688 -0.0143154152
-0.0040856516 0.0032728761 -0.0148276724
-0.0033677341 0.0035029333 -0.0157209970
-0.0243335627 0.0039125010 -0.0087347217
-0.0023352103 0.0035176016 -0.0169599913
0.0002110907 0.0033021066 -0.0170484968
-0.0002883534 0.0033050366 -0.0172202848
0.0011295051 0.0035953075 -0.0177773125
-0.0276313648 0.0016849767 -0.0212183930
0.0038674148 0.0035047010 -0.0163977630
0.0050360812 0.0035205781 -0.0177304633
0.0050786091 0.0037446152 -0.0188757591
0.0081468588 0.0032986253 -0.0171890520
0.0077093700 0.0032901652 -0.0165955760
0.0098547591 0.0028360132 -0.0152524672
0.0109152636 0.0031108707 -0.0166372247
0.0108050918 0.0033046417 -0.0177013017
-0.0273756348 0.0039233826 -0.0214604624
0.0107880598 0.0036859680 -0.0194156729
-0.0227939747 0.0025018584 -0.0033362247
0.0118469764 0.0035308059 -0.0189257301
0.0139175141 0.0028241109 -0.0146902390
0.0075859958 0.0024098270 -0.0106452741
0.0149672050 0.0029359739 -0.0157611482
-0.0195843205 0.0016006008 -0.0019462593
-0.0242091306 0.0032020286 -0.0087274425
-0.0233641528 0.0031939428 -0.0082766004
0.0081634903 0.0037704706 -0.0215932168
-0.0174671225 0.0032211468 -0.0104890950
-0.0023083808 0.0039697066 -0.0196097828
-0.0011190000 0.0039777439 -0.0207420625
-0.0001315820 0.0039774925 -0.0208685659
0.0007375450 0.0039738733 -0.0205780677
-0.0047397604 0.0035210382 -0.0170328729
0.0098872753 0.0030769538 -0.0167049058
0.0094457185 0.0030863285 -0.0172515176
0.0180610977 0.0039745159 -0.0225302763
0.0193022639 0.0039773285 -0.0229363330
0.0194791462 0.0039748959 -0.0226552151
0.0138650490 0.0035414547 -0.0198627822
0.0138580762 0.0033116620 -0.0182822831
0.0160252880 0.0037358087 -0.0188132785
0.0167229194 0.0037217066 -0.0175014026
-0.0134063121 0.0034929942 -0.0140499063
0.0009865378 0.0033337418 -0.0168142207
-0.0000313363 0.0028093830 -0.0136282332
-0.0150331287 0.0011908058 -0.0014652349
0.0052601760 0.0000800695 -0.0064128963
0.0258338582 0.0032122321 -0.0165747516
0.0147968493 0.0017742347 -0.0080683641
-0.0238971002 0.0039402507 -0.0120040067
-0.0020565586 0.0037499163 -0.0186466984
0.0198705066 0.0036364552 -0.0206606202
0.0201366823 0.0034520794 -0.0195941664
0.0204705242 0.0036390219 -0.0196253993
0.0215696786 0.0037162453 -0.0171578117
0.0204394348 0.0028496627 -0.0161270536
-0.0247615799 0.0036949869 -0.0104734786
0.0197096225 0.0039673410 -0.0217650123
0.0017735035 0.0010475945 -0.0036173500
0.0016467021 0.0009081494 -0.0030551143
0.0100330031 0.0017945543 -0.0088180117
-0.0256565548 0.0034973193 -0.0131909437
-0.0256020464 0.0037474167 -0.0152212344
-0.0253382660 0.0035735685 -0.0147839375
0.0246008541 0.0030548777 -0.0156429075
-0.0039252741 0.0035035126 -0.0157209970
-0.0010641451 0.0032993648 -0.0167934112
0.0036346288 0.0037338212 -0.0177200474
0.0078440858 0.0035335161 -0.0189278089
0.0156828575 0.0001361053 -0.0176679902
0.0090194317 0.0030768309 -0.0166736729
-0.0272126980 0.0042438358 -0.0217493959
0.0139287012 0.0030773859 -0.0168298520
0.0145766959 0.0030708667 -0.0164550282
0.0148843294 0.0037044343 -0.0197253563
0.0156560298 0.0037403721 -0.0192297511
0.0172297228 0.0037299749 -0.0183135159
0.0219913367 0.0041748732 -0.0227489211
0.0039727921 0.0041180402 -0.0207275562
0.0050008735 0.0041163024 -0.0206561647
0.0069665862 0.0041112546 -0.0216192491
0.0078584878 0.0040897168 -0.0218951516
0.0090189306 0.0040801764 -0.0223038085
0.0095070517 0.0039777569 -0.0221866854
0.0046221754 0.0037485212 -0.0192037262
0.0070698885 0.0037524141 -0.0197893865
0.0083712498 0.0035399646 -0.0194692202
-0.0011353336 0.0041841157 -0.0206873901
-0.0001228667 0.0041839480 -0.0208997987
0.0008452431 0.0041805003 -0.0205874480
0.0013879471 0.0041775424 -0.0202501006
0.0168530643 0.0041701794 -0.0216088332
0.0174766649 0.0041767769 -0.0227176808
0.0193180833 0.0041783303 -0.0231237449
0.0196819305 0.0041753445 -0.0226760320
0.0238420684 0.0027758535 -0.0122382678
0.0098744864 0.0035969447 -0.0208248235
0.0201984998 0.0041679200 -0.0215307437
0.0202299897 0.0030901656 -0.0177044310
-0.0201173499 0.0013124421 -0.0006281398
-0.0178825334 0.0042008944 -0.0184905194
0.0029848861 0.0041784085 -0.0207290463
-0.0136763705 0.0022085197 -0.0066940151
-0.0180355348 0.0042056832 -0.0191568695
-0.0188109167 0.0041993950 -0.0179699324
-0.0256878585 0.0032680985 -0.0131284706
0.0119015230 0.0037570242 -0.0205936916
-0.0030578291 0.0039618053 -0.0185634010
0.0201397799 0.0039585792 -0.0207394473
0.0124654789 0.0030635390 -0.0159708746
0.0206808206 0.0039493944 -0.0196670480
0.0214564204 0.0039419830 -0.0188132785
-0.0242713764 0.0042009205 -0.0164081715
-0.0243556201 0.0039656218 -0.0148047619
0.0211297646 0.0039402619 -0.0185946412
0.0078230789 0.0021830294 -0.0096801035
0.0160257034 0.0028296262 -0.0150129981
0.0172176883 0.0028079376 -0.0138781182
0.0169453416 0.0029592030 -0.0147136636
0.0176791158 0.0031688455 -0.0145902745
0.0182257481 0.0032669082 -0.0153461732
-0.0260023959 0.0036022961 -0.0155440010
0.0220853146 0.0034207534 -0.0156429075
0.0040598968 0.0037380196 -0.0181573443
0.0087525221 0.0033205356 -0.0187039562
0.0102197370 0.0035434086 -0.0198440440
-0.0177371092 0.0019012969 -0.0039765500
0.0178905912 0.0037444830 -0.0197269060
0.0191205963 0.0035355482 -0.0195785500
0.0185022708 0.0037549306 -0.0207498632
-0.0142020797 0.0021912865 -0.0059443675
