# .PCD v0.7 - Point Cloud Data file format
VERSION 0.7
FIELDS x y z
SIZE 4 4 4
TYPE F F F
COUNT 1 1 1
WIDTH 1198
HEIGHT 1
VIEWPOINT 0 0 0 1 0 0 0
POINTS 1198
DATA ascii
0.0033346729 0.0217191428 -0.0005724978
0.0054071005 0.0218792483 -0.0007099238
-0.0126206428 0.0209316276 -0.0000285235
-0.0116804838 0.0209097005 -0.0000494149
-0.0200191736 0.0211168602 0.0065866308
-0.0145408362 0.0208613798 0.0002302575
0.0190084986 0.0213893950 0.0069770711
-0.0202791169 0.0211653486 0.0086013051
0.0023810042 0.0199404471 -0.0006891441
0.0133737978 0.0217415094 -0.0011737448
-0.0106739588 0.0225561932 0.0000678349
-0.0086201094 0.0225047320 -0.0000040036
-0.0076508224 0.0224802718 -0.0000446093
-0.0038294198 0.0224006996 -0.0001341504
0.0114489375 0.0207144096 -0.0011550960
0.0123805469 0.0208282582 -0.0012302947
-0.0006408992 0.0219084769 -0.0003382218
0.0014482082 0.0222747587 -0.0004444149
0.0142219644 0.0179713666 -0.0014397752
0.0234391969 0.0242396221 0.0123261036
0.0243541971 0.0242825225 0.0125837894
0.0187118929 0.0233929008 0.0085075991
-0.0125703961 0.0219478756 0.0000480759
-0.0116120912 0.0219427198 0.0000272515
-0.0624651983 0.0150358491 0.0393523686
0.0044278614 0.0199366733 -0.0008204755
0.0054335054 0.0199378468 -0.0009335902
0.0063477550 0.0198681280 -0.0009864819
0.0073089320 0.0198857635 -0.0010004219
0.0083264820 0.0198735073 -0.0010304031
0.0092596654 0.0200379416 -0.0010587078
0.0207499135 0.0229197815 0.0105066644
0.0214236733 0.0229220763 0.0105242105
0.0013082621 0.0202015974 -0.0006193322
-0.0213819109 0.0246048197 0.0131866308
-0.0006002749 0.0208646506 -0.0004431707
-0.0135696828 0.0218858160 0.0000760454
-0.0408602059 0.0188357383 0.0426268689
-0.0016149732 0.0225589871 -0.0002226484
-0.0223800726 0.0248087570 0.0132709714
0.0235525332 0.0245128050 0.0125785889
0.0243550148 0.0245414749 0.0127477767
0.0251550581 0.0244897418 0.0124328258
-0.0089956000 0.0212525167 -0.0000820857
-0.0056273714 0.0222313739 -0.0000820857
-0.0317341201 0.0267142057 0.0281857904
0.0129582025 0.0222655013 -0.0010816184
0.0177688096 0.0202616714 -0.0008005005
0.0181413200 0.0201297775 -0.0003007379
-0.0047107786 0.0226508304 -0.0000638616
0.0106570292 0.0204520412 -0.0011128512
0.0113392062 0.0218821801 -0.0010091540
-0.0084537975 0.0212383568 -0.0001133260
0.0187866222 0.0214034617 0.0070707770
0.0193161946 0.0216689184 0.0073909434
-0.0035557470 0.0210310929 -0.0002867010
-0.0066646338 0.0199255273 -0.0002942336
0.0206838120 0.0212400928 0.0090385946
-0.0016242771 0.0227694362 -0.0001992163
0.0247001294 0.0247804001 0.0127868252
0.0251577124 0.0247562937 0.0126410620
-0.0104720816 0.0205940902 -0.0001190108
-0.0549384877 0.0248346478 0.0183388870
0.0093836458 0.0178187490 -0.0012452853
0.0186505858 0.0235347524 0.0053840773
0.0189769492 0.0238977820 0.0075393068
-0.0046033934 0.0230511874 -0.0000352365
-0.0086170025 0.0172821470 -0.0003866357
-0.0096372031 0.0212651752 -0.0000742775
-0.0086432658 0.0218959562 -0.0000508305
-0.0076349936 0.0220606625 -0.0000695836
-0.0065807179 0.0222496316 -0.0000695911
-0.0545332655 0.0271014087 0.0161446091
0.0193866845 0.0228751823 0.0087006809
0.0186301805 0.0233860761 0.0057901340
-0.0035689382 0.0219185278 -0.0001871315
-0.0075956807 0.0212189965 -0.0001445588
0.0113265421 0.0226029605 -0.0009504285
0.0123435892 0.0225854404 -0.0010128942
0.0054380912 0.0209440663 -0.0008229715
-0.0225665569 0.0256211609 0.0138175832
-0.0056214239 0.0179693401 -0.0004771379
0.0188163836 0.0235907659 0.0063679861
0.0210077707 0.0209498778 0.0093665691
0.0132816080 0.0225959644 -0.0010659945
0.0143645797 0.0226632804 -0.0010816184
0.0189764649 0.0241188407 0.0075393068
-0.0213488005 0.0256112665 0.0117872925
-0.0205371045 0.0255773067 0.0117040025
-0.0542812124 0.0274165794 0.0157541689
0.0122662196 0.0220562108 -0.0010593039
-0.0552953929 0.0266692862 0.0173575711
-0.0550474599 0.0268848538 0.0171285179
0.0192924198 0.0238282233 0.0086741718
-0.0046162251 0.0232642144 -0.0000040036
-0.0037627129 0.0230321996 -0.0000652623
-0.0030198342 0.0232244134 -0.0000820857
-0.0006723928 0.0228475556 -0.0002663982
0.0190086830 0.0200411491 0.0005269918
0.0123378094 0.0228956714 -0.0009816614
-0.0223561153 0.0220581144 0.0141143175
0.0054629985 0.0222263411 -0.0006651458
-0.0214970633 0.0220419951 0.0127946334
-0.0222986862 0.0258654207 0.0131616415
0.0023951081 0.0227976143 -0.0004256841
0.0188220646 0.0241133124 0.0062274234
-0.0043597370 0.0224125683 -0.0001133260
-0.0245835707 0.0228480846 0.0134115266
0.0004338154 0.0208581612 -0.0005141747
-0.0315640457 0.0262874663 0.0271862578
0.0064043123 0.0228008591 -0.0006360066
0.0074316775 0.0227829516 -0.0006818128
0.0133516435 0.0228806473 -0.0010316399
0.0141612310 0.0228691474 -0.0010712099
0.0044178292 0.0209502205 -0.0007367235
-0.0213024244 0.0258250833 0.0116623538
-0.0206120834 0.0258264728 0.0117716771
-0.0544658080 0.0276532471 0.0155667560
-0.0055803526 0.0234958008 0.0000366020
0.0241273791 0.0255562142 0.0132397301
0.0187083073 0.0236260816 0.0085700648
0.0209508352 0.0246930346 0.0092728632
0.0141783413 0.0218364410 -0.0011857179
0.0242324546 0.0208311453 0.0109751793
0.0073407162 0.0208853036 -0.0009126615
-0.0076113604 0.0215348117 -0.0001133260
0.0186140407 0.0230060220 0.0061233090
-0.0175617225 0.0182250217 0.0011985573
-0.0228067711 0.0262183510 0.0137551175
-0.0200724751 0.0209563076 0.0037598433
0.0186183937 0.0242884718 0.0059775459
0.0084783649 0.0187331513 -0.0011362684
0.0093693072 0.0188331753 -0.0011940625
0.0113968393 0.0188064612 -0.0013027590
-0.0066391453 0.0235161707 0.0000428531
0.0133832823 0.0198740847 -0.0013433722
0.0063924883 0.0232173987 -0.0005943429
0.0074212896 0.0231983364 -0.0006443214
0.0133497510 0.0230849460 -0.0010253888
0.0141569246 0.0230776966 -0.0010399696
0.0187752210 0.0244960189 0.0071644830
0.0064597540 0.0211333074 -0.0008525652
0.0093218768 0.0208870471 -0.0009779212
0.0207616780 0.0238882601 0.0104927765
0.0212918669 0.0238831118 0.0105811255
-0.0111011341 0.0115764365 -0.0000820857
0.0217033252 0.0141091309 0.0031039016
-0.0196632557 0.0243682489 0.0116311209
-0.0214359798 0.0260663033 0.0116727697
-0.0206052922 0.0260569826 0.0117404433
-0.0639923587 0.0298209339 0.0360258184
0.0183640495 0.0238421857 0.0042028027
-0.0016528538 0.0208873749 -0.0003831935
-0.0206827335 0.0229967386 0.0127387764
-0.0076504797 0.0229900032 -0.0000064474
-0.0224634409 0.0221299902 0.0102880048
0.0004145687 0.0218817107 -0.0004181740
0.0033819282 0.0234891027 -0.0004100603
0.0133457426 0.0232926831 -0.0010004070
0.0141536910 0.0232846066 -0.0010191452
-0.0283842720 0.0290057212 0.0261867326
0.0113176657 0.0231186114 -0.0009108660
0.0180808138 0.0243841149 0.0040721940
-0.0026526081 0.0198608860 -0.0004768994
-0.0096108094 0.0229516327 0.0000628579
-0.0086126961 0.0230500996 0.0000355142
0.0022939106 0.0208635554 -0.0005903867
-0.0006935580 0.0233727992 -0.0002132681
0.0074118096 0.0235120356 -0.0006068376
-0.0206747502 0.0238298737 0.0126931267
0.0084719742 0.0229525790 -0.0007289153
0.0133424383 0.0234994814 -0.0009816614
0.0141514670 0.0234898143 -0.0010087368
-0.0213017017 0.0265251622 0.0116154971
-0.0205561370 0.0265018269 0.0115920724
0.0141606070 0.0208596773 -0.0012666163
-0.0126248933 0.0199156478 -0.0001500499
0.0181951933 0.0246112309 0.0045407237
0.0230990537 0.0239362456 0.0118809985
-0.0199697576 0.0242131501 0.0120996507
0.0013663338 0.0208031833 -0.0005625290
0.0094762491 0.0195874721 -0.0011347112
-0.0006033352 0.0237900056 -0.0001835999
0.0250396021 0.0242471620 0.0123651447
0.0063767526 0.0236384943 -0.0005318922
0.0074022673 0.0238261074 -0.0005693537
0.0083992993 0.0236710943 -0.0006528524
0.0133391079 0.0237064287 -0.0009629157
0.0141471233 0.0236989334 -0.0009774965
-0.0484251976 0.0279499739 0.0128805311
-0.0211525671 0.0267435461 0.0115374150
-0.0206535235 0.0267268345 0.0115165906
-0.0206066184 0.0251696259 0.0116712796
-0.0197383761 0.0249559432 0.0114557268
0.0193780269 0.0221610405 0.0084659504
0.0233226418 0.0252332613 0.0127243511
0.0250112358 0.0252398178 0.0132032977
-0.0085738935 0.0238753706 0.0000944036
-0.0135531612 0.0245201215 0.0001552972
-0.0126185082 0.0245168582 0.0002614978
-0.0476851687 0.0282290727 0.0132553549
-0.0006236045 0.0242138654 -0.0001289424
0.0003398692 0.0238722265 -0.0002242130
0.0003767700 0.0229267105 -0.0003207278
0.0063609313 0.0240603089 -0.0004694042
0.0133350585 0.0239146985 -0.0009379339
0.0142438691 0.0239072107 -0.0009488639
-0.0481317788 0.0281806104 0.0128492909
-0.0478670299 0.0281737372 0.0128805311
0.0224039145 0.0218959600 0.0113414796
0.0064272396 0.0220712386 -0.0007224184
0.0074562654 0.0219502077 -0.0007804957
-0.0212818533 0.0269830897 0.0115374150
-0.0205719024 0.0269756541 0.0115998806
0.0183211137 0.0198406354 -0.0016126212
-0.0046168528 0.0239158720 0.0000443506
-0.0036636277 0.0238536969 -0.0000039813
-0.0027101955 0.0239819102 -0.0000453246
0.0252743438 0.0250106007 0.0127712013
-0.0056339242 0.0211486779 -0.0001878020
-0.0026243741 0.0208871178 -0.0003424016
-0.0066097546 0.0228823200 -0.0000133467
-0.0055912416 0.0228915364 -0.0000128102
0.0216931999 0.0259611681 0.0109829875
-0.0293797143 0.0297067463 0.0284981411
0.0142003633 0.0170091353 -0.0014924806
-0.0211970843 0.0252456814 0.0117404433
-0.0206199177 0.0247256905 0.0122610377
0.0133324303 0.0241208225 -0.0009254393
0.0142403115 0.0241152905 -0.0009254393
0.0083789583 0.0219337493 -0.0008317408
0.0093005830 0.0219165608 -0.0008904514
0.0103196520 0.0219007879 -0.0009391707
0.0214429051 0.0248079225 0.0106149362
0.0219782926 0.0251391083 0.0108606564
-0.0254011825 0.0242240019 0.0150045203
-0.0212818831 0.0272164829 0.0115217986
-0.0205428861 0.0271953940 0.0115139904
-0.0206079334 0.0262917504 0.0117326342
-0.0195683874 0.0258816332 0.0113956602
0.0206737313 0.0242969394 0.0092572393
-0.0236917511 0.0258163512 0.0150800096
-0.0086159296 0.0179242082 -0.0003424016
-0.0159069337 0.0197697207 0.0019481975
-0.0076127052 0.0239576735 0.0000772226
0.0184248928 0.0247552767 0.0055402489
-0.0474670604 0.0285592601 0.0131991329
-0.0477488488 0.0289331526 0.0144110518
0.0142381415 0.0190062486 -0.0013959137
0.0002639664 0.0245201811 -0.0001410869
0.0063495971 0.0244783312 -0.0004319277
-0.0254844725 0.0238036886 0.0147025771
-0.0172561854 0.0189722702 0.0004426661
0.0142359752 0.0243250206 -0.0008942065
-0.0212688819 0.0274438038 0.0114749419
-0.0207392722 0.0274122283 0.0113812359
-0.0056312084 0.0247625187 0.0001261506
0.0113024684 0.0239466839 -0.0008417097
0.0043791290 0.0246238783 -0.0003280592
-0.0231929906 0.0254218318 0.0147234024
-0.0217924379 0.0257012546 0.0122558223
-0.0025552290 0.0222674459 -0.0001976517
-0.0086199194 0.0247277096 0.0001787368
-0.0075844415 0.0248241425 0.0001700270
0.0184289142 0.0257097706 0.0054153102
0.0023516768 0.0218130201 -0.0005222288
0.0013830436 0.0239541121 -0.0002607581
-0.0473580286 0.0289420187 0.0131304087
-0.0583470017 0.0328252986 0.0322775953
-0.0476608649 0.0291540697 0.0142548801
0.0005091631 0.0248187929 -0.0001237345
0.0000833028 0.0248331130 -0.0000820857
0.0007355639 0.0243918002 -0.0001757917
0.0063427314 0.0246887878 -0.0004069385
-0.0207520127 0.0259245485 0.0120496796
0.0142332427 0.0245319940 -0.0008785900
-0.0486181080 0.0286357366 0.0124651017
0.0185564328 0.0260301195 0.0071020098
-0.0207776092 0.0276084766 0.0111625912
-0.0541646183 0.0295600444 0.0147546427
-0.0056521166 0.0251882076 0.0001677918
0.0232718941 0.0119675025 0.0021668496
0.0034363882 0.0247524641 -0.0002570179
0.0215881392 0.0267262459 0.0109617906
-0.0086550079 0.0252651945 0.0002490032
-0.0075781643 0.0252364650 0.0002177703
0.0181233119 0.0258710235 0.0051185759
-0.0140634626 0.0254007876 0.0002927306
-0.0477323607 0.0288177580 0.0125257932
-0.0471478179 0.0291986987 0.0132241147
0.0006073860 0.0250264406 -0.0001133260
0.0013523062 0.0247957930 -0.0001799416
-0.0592511818 0.0324420445 0.0332146548
-0.0213215053 0.0263004228 0.0116779702
0.0142296609 0.0247406214 -0.0008551580
-0.0493377447 0.0288255289 0.0123316851
-0.0485236123 0.0290596932 0.0120684104
0.0186462495 0.0263229460 0.0074768336
-0.0206099190 0.0278159305 0.0110376449
-0.0541362539 0.0298043266 0.0146921696
-0.0058743227 0.0254055113 0.0001886237
-0.0053388476 0.0253909975 0.0001677918
0.0183877256 0.0261810236 0.0061649503
-0.0105604678 0.0230078101 0.0000933158
0.0183601491 0.0229783431 0.0041936683
0.0206922311 0.0260808952 0.0085700648
0.0209631138 0.0261698104 0.0094446586
-0.0026703181 0.0249061622 0.0000666055
0.0216339454 0.0272382200 0.0110688852
-0.0143489130 0.0256488770 0.0004489097
-0.0136508495 0.0256096646 0.0003364655
-0.0125670023 0.0255836621 0.0003427091
-0.0116006434 0.0255640149 0.0003630120
0.0192570966 0.0246356279 0.0086052017
-0.0197676048 0.0219141096 0.0108190002
-0.0468972549 0.0294425562 0.0132553549
0.0206847284 0.0245694742 0.0088824229
-0.0472959206 0.0296921879 0.0145359980
0.0013378893 0.0252166986 -0.0001445588
0.0023953391 0.0248763412 -0.0002226633
0.0093791625 0.0229501948 -0.0007958141
0.0003192292 0.0251760408 -0.0000768778
0.0141283330 0.0225354284 -0.0011253384
0.0142276697 0.0249463916 -0.0008473498
-0.0493489280 0.0293743908 0.0122089656
-0.0485097915 0.0293001309 0.0120267700
-0.0475803092 0.0293113738 0.0123432847
-0.0469784141 0.0293508247 0.0127243511
0.0186503995 0.0265266038 0.0073831277
0.0189589560 0.0266047455 0.0077891843
0.0224068090 0.0228634253 0.0113403993
-0.0205033012 0.0280523822 0.0110584693
0.0014231370 0.0229039378 -0.0003719506
-0.0056719594 0.0256138444 0.0002052757
-0.0046129506 0.0255919881 0.0001990321
-0.0553116202 0.0262107551 0.0177844595
-0.0126572810 0.0238534808 0.0001665103
-0.0116085857 0.0238531008 0.0001990396
0.0181155745 0.0261121914 0.0052435221
-0.0035554136 0.0255697519 0.0001865375
0.0217451118 0.0274861827 0.0111625912
-0.0651130229 0.0347859412 0.0434285663
-0.0034204109 0.0227220282 -0.0001177889
-0.0025549422 0.0228784345 -0.0001527545
-0.0086778216 0.0255893655 0.0002958599
-0.0066605620 0.0240437314 0.0000787872
-0.0056033358 0.0240242034 0.0000803444
-0.0467286333 0.0296733081 0.0131928818
0.0211136248 0.0252212435 0.0093978019
0.0124756265 0.0216129534 -0.0011469227
0.0193749294 0.0262657106 0.0083514201
0.0103010377 0.0229310729 -0.0008629587
-0.0142392674 0.0258546621 0.0004332933
0.0142240655 0.0251553543 -0.0008239251
0.0185468979 0.0267241076 0.0072581889
0.0189628471 0.0268089548 0.0076954784
0.0213071313 0.0258923545 0.0106034847
0.0123331454 0.0232046545 -0.0009597939
-0.0254023187 0.0246262550 0.0149836959
-0.0246744677 0.0252493173 0.0149342464
-0.0239008665 0.0252264589 0.0149108144
-0.0182932317 0.0202264600 0.0002302650
-0.0206363909 0.0282936394 0.0110688852
-0.0056819841 0.0258269235 0.0002240214
-0.0046225153 0.0258048363 0.0002177703
-0.0215517543 0.0248629078 0.0124883549
-0.0083513558 0.0214439705 -0.0001133260
-0.0135685354 0.0250420868 0.0002204153
-0.0116558559 0.0249066204 0.0003109697
0.0217387322 0.0277782008 0.0114749419
-0.0651965067 0.0344986953 0.0435847454
0.0187388081 0.0239210241 0.0057432773
-0.0540713742 0.0279018544 0.0156292226
-0.0096137375 0.0257373676 0.0003263775
-0.0085873380 0.0259078071 0.0003239709
-0.0468631163 0.0296810046 0.0125161232
-0.0467018932 0.0299106315 0.0131304087
0.0053217001 0.0249002799 -0.0003501949
0.0208783802 0.0258626007 0.0098194750
-0.0142511949 0.0260696784 0.0004489097
-0.0494933873 0.0297502279 0.0121777328
-0.0203463547 0.0273902044 0.0113187702
-0.0195998922 0.0268558264 0.0113500105
0.0185526665 0.0269208774 0.0071332501
0.0190743264 0.0270218998 0.0076486291
-0.0206108391 0.0285134129 0.0109907957
-0.0055869631 0.0260386541 0.0002458814
-0.0046303496 0.0260165855 0.0002302650
-0.0035710263 0.0258900225 0.0002208996
-0.0026079474 0.0257576406 0.0001677993
-0.0095715411 0.0261490084 0.0003676984
-0.0115761794 0.0229107365 0.0001053411
0.0226295348 0.0237211511 0.0114983739
-0.0015531501 0.0238132961 -0.0001346719
-0.0542457923 0.0288028196 0.0151107283
0.0015127657 0.0255858600 -0.0001272064
-0.0475552157 0.0297419652 0.0121081667
-0.0466752723 0.0301478058 0.0130679356
0.0053835120 0.0256535709 -0.0002734017
0.0209076833 0.0263403282 0.0087574767
-0.0498297364 0.0301881284 0.0124276178
-0.0487685949 0.0296729952 0.0119538726
-0.0468296111 0.0300373137 0.0124328258
0.0186634250 0.0271325782 0.0070863934
0.0191914178 0.0272096358 0.0074768262
0.0207256228 0.0271941274 0.0074143680
0.0209443960 0.0271938369 0.0074143680
0.0024503150 0.0233011954 -0.0003757057
-0.0046437364 0.0262323394 0.0002614978
-0.0005266594 0.0244222991 -0.0001133260
-0.0141477212 0.0262787193 0.0004489097
-0.0116245225 0.0259933472 0.0003994602
-0.0095873699 0.0263661630 0.0003989312
0.0043971743 0.0251692012 -0.0002550882
-0.0479857698 0.0299812183 0.0118185254
-0.0542151406 0.0293220878 0.0148483487
-0.0539664924 0.0289758109 0.0152633237
-0.0024143348 0.0235452279 -0.0001172301
-0.0017823654 0.0242406242 -0.0000820857
-0.0126172155 0.0264442042 0.0004176769
-0.0116476379 0.0264227390 0.0004332933
0.0053759255 0.0259674788 -0.0002538812
-0.0141535737 0.0264907517 0.0004489097
0.0142853279 0.0198717155 -0.0013564703
-0.0473908633 0.0305548385 0.0150669934
0.0003960056 0.0257921889 -0.0000214380
0.0193629675 0.0267355740 0.0081796395
0.0094580874 0.0238857120 -0.0006989938
0.0104347011 0.0239548460 -0.0007692677
-0.0474278778 0.0302401185 0.0120267700
-0.0467961431 0.0302708931 0.0123599367
-0.0418933108 0.0189464241 0.0430412553
0.0024257076 0.0239325315 -0.0003019896
-0.0665348098 0.0346023664 0.0457087420
-0.0126275569 0.0266584828 0.0004301715
-0.0466487929 0.0303848572 0.0130054699
0.0034208947 0.0252768397 -0.0002163973
-0.0479690731 0.0302199274 0.0117716771
-0.0096054040 0.0265848562 0.0004364225
-0.0086281300 0.0265552327 0.0004020530
-0.0066271648 0.0248739347 0.0001586127
-0.0045815092 0.0249527320 0.0001328188
0.0217304863 0.0280904770 0.0118809985
-0.0016023687 0.0198412053 -0.0005218786
-0.0135778040 0.0209298879 -0.0000331801
0.0053687915 0.0261790976 -0.0002304566
-0.0016054756 0.0248755515 -0.0000008595
-0.0141348578 0.0266897418 0.0003864366
-0.0056008175 0.0262546390 0.0002771142
0.0193235837 0.0273237601 0.0069458308
-0.0254334621 0.0232558325 0.0144579085
-0.0187620334 0.0281552449 0.0082420977
-0.0184160806 0.0281457976 0.0070916014
-0.0178623982 0.0282015540 0.0070707696
0.0212993305 0.0267438889 0.0108814733
0.0123215429 0.0239277855 -0.0009042051
-0.0484965593 0.0281355232 0.0129742362
-0.0472666696 0.0293544941 0.0140674682
-0.0639740750 0.0370057561 0.0419917516
-0.0466772392 0.0305163115 0.0123729529
-0.0538512021 0.0296745747 0.0150149362
0.0033200940 0.0222376622 -0.0005318773
-0.0126458369 0.0228899196 0.0000919449
-0.0566887110 0.0343696550 0.0300286692
0.0043518730 0.0218773596 -0.0006398734
-0.0005923177 0.0249430239 -0.0000508305
0.0191633608 0.0275044069 0.0056808116
-0.0466053262 0.0307362154 0.0122402059
-0.0187110528 0.0279208645 0.0051706331
0.0050529856 0.0263948664 -0.0002070320
-0.0493386388 0.0308039710 0.0118497657
-0.0498667285 0.0306356624 0.0123995142
0.0184834655 0.0270234607 0.0063575702
0.0209143050 0.0268515497 0.0084997835
0.0174610857 0.0209060386 0.0007925007
0.0133276749 0.0243306123 -0.0008942065
-0.0246136710 0.0256641209 0.0150630968
-0.0190030709 0.0204649903 0.0003239709
-0.0536930710 0.0314703360 0.0141143175
0.0180986244 0.0238003209 0.0037910761
-0.0548157766 0.0333483145 0.0266240295
-0.0025567731 0.0262509622 0.0002042401
0.0182492994 0.0275175124 0.0046864869
-0.0479009598 0.0306120589 0.0117623033
-0.0538434014 0.0301156789 0.0146743255
0.0192811806 0.0276737250 0.0054465430
-0.0036246201 0.0249292925 0.0001006472
-0.0188219436 0.0280675627 0.0045927810
-0.0182818957 0.0282364786 0.0053216042
0.0206945036 0.0268442146 0.0084607424
-0.0169569366 0.0282871947 0.0057589011
0.0211119223 0.0264648497 0.0094134184
0.0054595061 0.0265993029 -0.0001945299
-0.0485130772 0.0307295173 0.0115257027
-0.0498122945 0.0311270133 0.0120996507
0.0187343359 0.0261840709 0.0079141306
0.0190100241 0.0272674598 0.0066647204
-0.0135674700 0.0260372460 0.0003734353
-0.0125912428 0.0260132067 0.0003781217
-0.0135948323 0.0228299946 0.0000866029
0.0043385271 0.0228411444 -0.0005306256
-0.0016586522 0.0259426720 0.0001328188
0.0033362282 0.0228358321 -0.0004732189
-0.0064864103 0.0216561072 -0.0001269755
-0.0478606969 0.0309566706 0.0117560672
-0.0005944262 0.0259102136 0.0000603619
0.0191170126 0.0276633054 0.0043637278
-0.0086102970 0.0262329206 0.0003708276
-0.0185683072 0.0282668844 0.0043376954
-0.0182485469 0.0283821523 0.0049467804
0.0054508559 0.0268131271 -0.0001632971
-0.0484800786 0.0311656594 0.0113812434
0.0181980710 0.0270514302 0.0053617703
-0.0537297800 0.0308255777 0.0143579515
-0.0046709757 0.0267682299 0.0003177348
-0.0036071262 0.0267417207 0.0002911884
-0.0026428981 0.0267782696 0.0002531830
-0.0498280674 0.0313782468 0.0120996507
-0.0490994528 0.0305596106 0.0119434716
-0.0473306105 0.0306843258 0.0119613083
-0.0465559587 0.0310856923 0.0121308910
-0.0459871590 0.0311403275 0.0125603648
-0.0182765909 0.0285023674 0.0044470178
-0.0176534727 0.0285743847 0.0048843147
-0.0165332481 0.0284377933 0.0043845447
0.0003763640 0.0201138780 -0.0005935606
-0.0543666929 0.0281338915 0.0153845595
-0.0544785783 0.0336455479 0.0260617863
-0.0005531667 0.0198206827 -0.0005768564
-0.0126174316 0.0250700563 0.0003074455
-0.0535502061 0.0318859443 0.0136509957
0.0053375307 0.0238682926 -0.0004594129
0.0094345948 0.0248264819 -0.0005980980
-0.0194521025 0.0280862227 0.0033225464
-0.0187973790 0.0282162428 0.0034430297
-0.0166128017 0.0283216015 0.0048843147
-0.0076174363 0.0258815102 0.0002965006
-0.0201867335 0.0283747464 0.0035411986
-0.0035867619 0.0262106806 0.0002552542
-0.0465422869 0.0314474255 0.0120762261
-0.0181602947 0.0284500495 0.0052903714
-0.0178296268 0.0285580680 0.0053216042
0.0123287188 0.0249322504 -0.0008032051
-0.0485313013 0.0314688981 0.0116467373
-0.0495980084 0.0316283032 0.0121621238
0.0187576003 0.0275106318 0.0051810415
0.0192911755 0.0274957269 0.0064382674
-0.0045892503 0.0273005590 0.0003630120
-0.0036268274 0.0272728801 0.0003239709
-0.0025592374 0.0272415653 0.0002739924
0.0217505880 0.0252708271 0.0109595628
-0.0144241676 0.0205122977 -0.0001549673
0.0187083278 0.0275961533 0.0040409612
0.0183262285 0.0275436193 0.0032835128
-0.0533322394 0.0320643559 0.0133178281
-0.0106142201 0.0259072147 0.0003765124
0.0083722472 0.0259059742 -0.0003894445
0.0094056791 0.0258791968 -0.0004706559
0.0183029864 0.0276444554 0.0024271430
0.0194363650 0.0275798701 0.0019794377
0.0191333238 0.0275436044 0.0018076423
0.0124298260 0.0169725716 -0.0014726844
0.0176950227 0.0273270942 0.0044574263
-0.0477489009 0.0314481631 0.0117560672
-0.0192252211 0.0282144919 0.0025624977
-0.0471011102 0.0314320698 0.0118497657
-0.0170485005 0.0284903571 0.0051029595
-0.0485260114 0.0317115001 0.0116154971
-0.0066015422 0.0258823410 0.0002643588
-0.0066046081 0.0269282646 0.0003876957
-0.0533828512 0.0322489478 0.0129429968
-0.0536000058 0.0316916630 0.0139581384
0.0043411106 0.0238591954 -0.0004256767
-0.0514081419 0.0323556438 0.0208142754
0.0133177079 0.0249537118 -0.0008404654
0.0142196640 0.0253660604 -0.0007926848
-0.0197120272 0.0280029103 0.0109127061
0.0012496521 0.0259736031 -0.0000686896
-0.0096373186 0.0270204395 0.0004988882
0.0073719043 0.0248744339 -0.0004544136
0.0176913980 0.0276946649 0.0024870085
0.0179859102 0.0277819112 0.0019169647
0.0185416229 0.0276318863 0.0012375984
-0.0476810634 0.0316685513 0.0116311135
-0.0471161604 0.0316815972 0.0118497657
-0.0166463479 0.0286391415 0.0032288479
-0.0016468300 0.0268726051 0.0002025116
0.0056393202 0.0274436511 -0.0001133260
-0.0488070324 0.0319700465 0.0115842642
-0.0497309342 0.0320013985 0.0121100591
0.0034182274 0.0240379050 -0.0003441375
0.0184010155 0.0210312940 0.0035307826
0.0124331573 0.0179674514 -0.0014004660
0.0176951271 0.0274409615 0.0032913135
-0.0190925747 0.0279237106 0.0099756541
0.0019301136 0.0262570232 -0.0000820857
0.0023640373 0.0258238576 -0.0001418170
0.0073414147 0.0259266421 -0.0003419694
0.0093764914 0.0269365683 -0.0003444654
-0.0177737772 0.0206173584 0.0056808116
-0.0479996353 0.0293403901 0.0152231725
-0.0185277052 0.0286134146 0.0023899572
-0.0183832757 0.0286559463 0.0033537941
-0.0177959315 0.0289853625 0.0036583291
-0.0168050379 0.0288831741 0.0033225538
-0.0006053227 0.0269137919 0.0001493517
-0.0106690824 0.0268402100 0.0004754636
-0.0086178519 0.0270052254 0.0004633340
-0.0056135301 0.0269206762 0.0003567013
-0.0236669369 0.0247811303 0.0146852257
-0.0229715854 0.0249740630 0.0142236399
0.0123378132 0.0258557871 -0.0006859776
0.0132949930 0.0259047598 -0.0006911856
0.0177951511 0.0271842107 0.0051654251
0.0191738494 0.0276210457 0.0031559663
-0.0527447760 0.0319656730 0.0132491039
-0.0506568626 0.0317662805 0.0122702317
-0.0495544076 0.0323509574 0.0120267700
-0.0192842372 0.0279172361 0.0046969028
-0.0187078081 0.0277759917 0.0093821855
0.0033603737 0.0269714072 -0.0000414577
0.0033832097 0.0264368877 -0.0001133260
0.0044985861 0.0266530886 -0.0001299706
0.0054408554 0.0271309465 -0.0001320642
0.0004518030 0.0263005011 0.0000178638
0.0191366132 0.0275866017 -0.0003788274
-0.0106389038 0.0219202489 0.0000053915
-0.0485039428 0.0299932137 0.0117404358
0.0178499725 0.0274229310 0.0042283731
-0.0007003753 0.0277531482 0.0002163994
-0.0076345615 0.0269116536 0.0004290390
-0.0205088407 0.0287002139 0.0034631090
-0.0205986984 0.0289086550 0.0039160224
-0.0055818390 0.0278666243 0.0004520389
0.0124464566 0.0268768519 -0.0005753514
0.0134006422 0.0268586650 -0.0005886507
-0.0203957111 0.0288051777 0.0024167271
-0.0526022837 0.0323170647 0.0126618790
-0.0465336293 0.0318487436 0.0121482434
-0.0459731072 0.0317477956 0.0124822753
-0.0141683593 0.0272303596 0.0004332933
-0.0126586854 0.0270933807 0.0004822287
0.0033270677 0.0278256238 0.0000569198
0.0043769069 0.0277947783 -0.0000133541
0.0093548074 0.0277829915 -0.0002570179
-0.0025838206 0.0278808624 0.0003189865
-0.0016207884 0.0278488174 0.0002568337
-0.0006827230 0.0282486193 0.0002490032
-0.0066639967 0.0279028639 0.0005082610
0.0042750351 0.0271172002 -0.0000758421
-0.0253390037 0.0250042379 0.0148171084
0.0142713208 0.0268432051 -0.0005912435
-0.0628447607 0.0338146389 0.0393367521
-0.0016052278 0.0222462490 -0.0002421689
-0.0143802911 0.0279730409 0.0007352281
-0.0136057362 0.0278919600 0.0006238270
-0.0477336422 0.0311986059 0.0117560597
-0.0471067280 0.0311898664 0.0118809985
0.0162446219 0.0270991176 -0.0016009015
0.0020411217 0.0283993036 0.0001990321
-0.0116245262 0.0279232226 0.0006089929
-0.0474371016 0.0303200707 0.0151606994
-0.0469814539 0.0300851390 0.0140049960
0.0027981268 0.0253905430 -0.0002070320
-0.0145213641 0.0179664381 -0.0006021735
-0.0192894675 0.0284858122 0.0110376524
-0.0492665246 0.0311471745 0.0117092105
-0.0485848859 0.0321785659 0.0114437090
0.0163301919 0.0275772549 -0.0026210723
0.0034011079 0.0285743251 0.0001443672
0.0192420725 0.0276907384 -0.0015189078
-0.0506359786 0.0327220932 0.0123113515
-0.0167430788 0.0286521874 0.0043220790
-0.0106015168 0.0249105990 0.0002732325
-0.0015972296 0.0286114663 0.0003343943
-0.0006493407 0.0285575837 0.0002788502
-0.0096347965 0.0278593227 0.0006022501
0.0143766496 0.0278936103 -0.0004944158
0.0184685737 0.0215280615 0.0035516070
0.0189534128 0.0215443335 0.0036661373
-0.0476455316 0.0320391022 0.0113908397
-0.0188608617 0.0282993466 0.0025885226
-0.0149021894 0.0282461718 0.0011126596
-0.0086115822 0.0278586298 0.0005813438
0.0063323695 0.0251066610 -0.0003757131
-0.0187403001 0.0286206156 0.0015538606
-0.0116111152 0.0289273337 0.0007456440
-0.0154798441 0.0283464603 0.0020106705
-0.0176085047 0.0287728980 -0.0007786405
0.0033984219 0.0259109586 -0.0001507801
0.0044381656 0.0258890912 -0.0001898360
-0.0015652443 0.0289220028 0.0003676984
-0.0006026963 0.0288881212 0.0003005388
-0.0497377440 0.0328283906 0.0123807602
-0.0485848114 0.0329589732 0.0123245390
-0.0182577930 0.0287453718 0.0041971328
-0.0176628754 0.0288359523 0.0044345306
-0.0485094935 0.0325641334 0.0117248194
-0.0480527133 0.0327368528 0.0118809985
-0.0174351409 0.0289757103 0.0026431801
-0.0165827386 0.0288935080 0.0013859692
-0.0157655440 0.0286165960 0.0012193742
-0.0146090053 0.0289304815 0.0007186654
-0.0106490031 0.0238499418 0.0001743782
-0.0522909090 0.0326524228 0.0123182954
-0.0006146024 0.0291056037 0.0003317791
0.0134665240 0.0222547278 -0.0011284676
-0.0186370052 0.0288707092 -0.0009754252
-0.0126575977 0.0295208618 0.0008799556
-0.0116549581 0.0294792280 0.0008237335
-0.0015743508 0.0291368589 0.0003864366
-0.0076540485 0.0279016495 0.0005407754
-0.0106310993 0.0288985372 0.0007362711
-0.0096299686 0.0288931727 0.0007465604
-0.0197291821 0.0278861970 0.0106344270
0.0093438299 0.0282073617 -0.0002132681
-0.0640333593 0.0347512811 0.0417106412
0.0114118736 0.0279444009 -0.0003719506
-0.0135962069 0.0238997303 0.0000919524
-0.0066190232 0.0208830982 -0.0002089766
0.0176471267 0.0277307592 0.0007196116
-0.0516126975 0.0328890830 0.0122312726
0.0004232300 0.0269414634 0.0000928390
0.0013984421 0.0269333795 0.0000354248
0.0023196673 0.0268890560 -0.0000128102
-0.0624380335 0.0384355932 0.0355572961
0.0089045381 0.0290734880 -0.0000820857
-0.0186681859 0.0294885077 -0.0010566291
-0.0127757266 0.0297397375 0.0008862066
-0.0116697177 0.0296986029 0.0008471581
-0.0164991692 0.0287658833 0.0024792003
-0.0159744993 0.0284068771 0.0032600807
0.0063564014 0.0242680684 -0.0004569095
0.0133908503 0.0208146051 -0.0012827691
-0.0504086241 0.0344528146 0.0157854017
-0.0126051717 0.0297418647 0.0009174395
-0.0095990784 0.0295308828 0.0008299696
0.0083171800 0.0278742537 -0.0001773414
0.0104095656 0.0279321969 -0.0003075328
0.0143631808 0.0287381522 -0.0004152608
-0.0496658608 0.0333069153 0.0129742362
0.0156534202 0.0279141590 -0.0034867330
0.0013643035 0.0294920877 0.0003427091
0.0003151295 0.0295140520 0.0003552038
0.0156627521 0.0283815339 -0.0036272882
-0.0046210308 0.0279455557 0.0004254925
-0.0175990574 0.0287911408 0.0014276105
0.0027627253 0.0264458098 -0.0001133260
-0.0015976152 0.0295716524 0.0004426661
-0.0096164346 0.0298568830 0.0008549663
-0.0086637996 0.0296807289 0.0008167821
0.0086435908 0.0285122432 -0.0001237345
0.0093701929 0.0287501737 -0.0001539019
0.0103323422 0.0288768262 -0.0002112862
0.0113900974 0.0289000273 -0.0002695200
0.0143544357 0.0291663185 -0.0003553954
0.0181001183 0.0230561085 0.0038014846
0.0078869592 0.0282533690 -0.0000820857
-0.0517324507 0.0338668786 0.0122349979
0.0083734002 0.0295149311 -0.0000040036
0.0093066171 0.0294913799 -0.0000571039
-0.0194511153 0.0290521085 -0.0012412620
-0.0159567110 0.0285419151 0.0023542615
0.0053840019 0.0279364139 -0.0000366372
-0.0496999621 0.0339286625 0.0131095843
-0.0497753397 0.0340000466 0.0126306470
-0.0596764162 0.0376231708 0.0323713087
0.0084257601 0.0241154879 -0.0006130886
-0.0175097957 0.0282685980 0.0064226510
-0.0086336248 0.0289003402 0.0007172424
0.0174874552 0.0277157575 0.0016046140
0.0182883609 0.0276274756 0.0002614978
0.0191878770 0.0275056064 0.0006675544
-0.0045641698 0.0289143622 0.0005223128
0.0054665953 0.0263874196 -0.0002174479
0.0063097589 0.0259460658 -0.0003044856
-0.0136994831 0.0297805741 0.0008653748
0.0104400041 0.0248838589 -0.0006592077
0.0113827949 0.0248856507 -0.0007360828
-0.0035948234 0.0288812146 0.0004684377
0.0003814006 0.0279045925 0.0001990470
0.0084034242 0.0248516873 -0.0005181310
-0.0177909397 0.0284924582 0.0062086852
-0.0075916424 0.0289105251 0.0006625551
-0.0056561548 0.0288607478 0.0005660403
0.0064179152 0.0280451998 -0.0000488859
-0.0026026240 0.0289168246 0.0004136089
-0.0136053450 0.0198722333 -0.0002219555
0.0113740694 0.0296439938 -0.0001986948
-0.0194696933 0.0286006406 0.0005894724
-0.0186941549 0.0285778567 0.0006050888
-0.0176128671 0.0292666629 -0.0009379339
-0.0515258983 0.0339602455 0.0113500021
0.0014366133 0.0278754123 0.0001475039
0.0023961661 0.0279344991 0.0001119125
0.0033048203 0.0283623412 0.0001240644
0.0043542348 0.0283325091 0.0000615913
0.0104377652 0.0258506089 -0.0005643544
-0.0056374967 0.0298980102 0.0006760705
-0.0046251006 0.0298987143 0.0006563115
-0.0036104231 0.0298956856 0.0006178665
0.0063834917 0.0268958509 -0.0002070245
-0.0152322650 0.0302592255 0.0009486723
-0.0151021071 0.0300328285 0.0009174395
0.0114481337 0.0258422829 -0.0006469291
0.0053729098 0.0289521068 0.0000965866
0.0064144712 0.0289270654 0.0000503632
-0.0193903819 0.0282651111 0.0094967084
-0.0086555481 0.0301529840 0.0008627746
-0.0140077015 0.0205098577 -0.0001133260
0.0113638192 0.0300719738 -0.0001508024
-0.0193666257 0.0285536870 -0.0009941485
0.0072953720 0.0281332731 -0.0000703734
0.0156627465 0.0288736373 -0.0036624251
0.0013103371 0.0305818282 0.0004926372
0.0083615072 0.0269428864 -0.0002838251
0.0104096243 0.0269081667 -0.0004306760
-0.0082064644 0.0305377580 0.0008862066
-0.0155687518 0.0290070586 0.0006769273
-0.0195923746 0.0305861756 -0.0014425543
-0.0046686754 0.0306636877 0.0007456440
0.0065093562 0.0275225155 -0.0001237345
0.0074431561 0.0276380591 -0.0001497668
0.0073146354 0.0268761069 -0.0002476600
-0.0051768217 0.0283906907 0.0004801425
0.0156564303 0.0293833241 -0.0036272882
0.0184085686 0.0275977179 -0.0006495294
0.0083467662 0.0289383344 -0.0000600246
0.0092089409 0.0292800851 -0.0000742775
0.0114410073 0.0268783718 -0.0005268779
-0.0015851448 0.0293534026 0.0004114184
-0.0157012306 0.0298810042 0.0007135841
-0.0046900827 0.0309946314 0.0007925007
-0.0036045744 0.0307430103 0.0007362711
-0.0005860592 0.0306251645 0.0005197126
0.0003562530 0.0307139307 0.0005269992
-0.0158839673 0.0313001834 0.0025104405
-0.0155682601 0.0309313834 0.0012898567
0.0136648919 0.0224589631 -0.0011128512
0.0063850302 0.0298894420 0.0001428175
-0.0195509493 0.0299314782 -0.0013892677
-0.0516161919 0.0349054486 0.0123842331
0.0142069887 0.0258971378 -0.0006989938
-0.0066114794 0.0288751125 0.0006097752
0.0053406525 0.0299168229 0.0001943606
0.0160839800 0.0278317034 -0.0019301724
0.0188082699 0.0275712609 -0.0018312585
0.0191710256 0.0279235393 -0.0024559675
-0.0188223943 0.0300847851 -0.0011667934
0.0053576697 0.0228362158 -0.0005935681
0.0003436820 0.0288673453 0.0002852577
0.0013921408 0.0288454145 0.0002702597
0.0024421678 0.0289228782 0.0002287227
0.0033862942 0.0290017948 0.0001834157
-0.0037526453 0.0314078629 0.0008315417
0.0074550426 0.0289005563 -0.0000058514
-0.0065720100 0.0299474970 0.0007106859
0.0184278991 0.0278494582 -0.0024715839
-0.0513912067 0.0349395350 0.0112601938
0.0043332465 0.0288697779 0.0001271936
0.0156970192 0.0297518745 -0.0035570068
0.0159127172 0.0298894532 -0.0032056151
0.0013805625 0.0314459652 0.0005738559
0.0073938016 0.0241394825 -0.0005381283
-0.0161374547 0.0321159437 0.0022293152
-0.0157641396 0.0318912193 0.0023951055
0.0053364113 0.0308573768 0.0003001887
-0.0096498132 0.0302994400 0.0009174395
0.0157699082 0.0272324458 -0.0025028167
0.0166396964 0.0270959251 -0.0021852655
0.0157510061 0.0301819593 -0.0036429046
0.0084414333 0.0300627127 0.0000379357
0.0103905210 0.0314044580 0.0001209426
-0.0056140460 0.0309268460 0.0007814664
0.0161648225 0.0288733020 -0.0019718139
0.0184478927 0.0288149789 -0.0025946526
0.0192393959 0.0288209245 -0.0025579957
-0.0193756297 0.0311262682 -0.0013176081
-0.0186733976 0.0309455469 -0.0011723366
-0.0179060139 0.0312845856 -0.0011128586
-0.0513239950 0.0337988287 0.0106472047
-0.0513712242 0.0346724801 0.0106211798
0.0023605970 0.0308688693 0.0004504818
0.0175584164 0.0289271623 -0.0026480583
0.0124408482 0.0279170871 -0.0004544136
0.0063514151 0.0308610797 0.0002552691
-0.0479052663 0.0369023271 0.0125369402
-0.0474470779 0.0366049297 0.0114124762
-0.0498539954 0.0320777670 0.0183779281
-0.0201570727 0.0278800577 0.0108190002
0.0044131037 0.0309369043 0.0003254014
-0.0106331296 0.0318732373 0.0011712062
-0.0096122362 0.0318822339 0.0011389080
-0.0488496944 0.0376602635 0.0143798189
0.0158686489 0.0288246498 -0.0026058955
-0.0096330941 0.0300780386 0.0008862066
0.0134610478 0.0279029272 -0.0004818988
-0.0472193658 0.0368039161 0.0112562897
-0.0162532274 0.0327984765 0.0025729137
-0.0157344341 0.0325856432 0.0027603181
-0.0135764293 0.0325616039 0.0013182882
0.0044288728 0.0317862146 0.0004634905
0.0053757168 0.0317576788 0.0004124764
-0.0056242906 0.0321288183 0.0009673956
-0.0197217129 0.0285293497 0.0024604620
-0.0513054132 0.0354157612 0.0117248269
-0.0507922024 0.0358628109 0.0113767730
0.0157953855 0.0277888626 -0.0023399545
0.0163373910 0.0282054618 -0.0022138981
0.0177014824 0.0278812349 -0.0024924083
0.0043376721 0.0298049524 0.0002153489
-0.0126182549 0.0278614461 0.0006089929
-0.0126472376 0.0326107219 0.0012677136
0.0124187088 0.0288758576 -0.0003335503
0.0134673808 0.0289276652 -0.0003645670
0.0142488442 0.0293799564 -0.0003319782
-0.0055802632 0.0315679684 0.0008674535
-0.0469720662 0.0369933546 0.0110688852
-0.0162641481 0.0332004502 0.0021668496
-0.0158662088 0.0332909040 0.0025729062
-0.0134822428 0.0328869224 0.0013313118
0.0044072289 0.0322282650 0.0005363721
0.0053531602 0.0322020128 0.0004957590
-0.0026783573 0.0298641771 0.0005582321
-0.0016182757 0.0300048962 0.0004884797
0.0154604968 0.0297718681 -0.0025559096
0.0163355973 0.0299465954 -0.0018902671
0.0174783226 0.0298362300 -0.0027257157
0.0184463039 0.0298181958 -0.0026333807
0.0192373060 0.0298283845 -0.0025809063
-0.0194063336 0.0318820141 -0.0013158646
-0.0185968429 0.0318962932 -0.0011831176
-0.0178554915 0.0318842307 -0.0011154515
-0.0165523030 0.0321538411 -0.0011128586
-0.0512068942 0.0358034186 0.0106784524
0.0074556153 0.0299266651 0.0000741008
0.0157222282 0.0304640606 -0.0033305539
0.0093664769 0.0300050601 -0.0000104186
0.0102436058 0.0300803073 -0.0000508380
0.0109429890 0.0303015560 -0.0000820857
-0.0125959739 0.0288530663 0.0007662523
-0.0246051922 0.0247412957 0.0148040997
-0.0159606189 0.0334251225 0.0022293152
0.0235788189 0.0250988565 0.0134661840
-0.0077375472 0.0311984271 0.0009352836
0.0054485407 0.0324193910 0.0005238774
0.0162576046 0.0297246799 -0.0025621606
-0.0508930236 0.0354447812 0.0119747045
-0.0096418001 0.0308282077 0.0009920347
-0.0086505152 0.0309721008 0.0009585965
0.0123989983 0.0298335962 -0.0002357763
0.0133966785 0.0298707858 -0.0002808747
-0.0159181766 0.0336104706 0.0021043764
0.0243112091 0.0250749253 0.0131522687
0.0104652662 0.0296059400 -0.0001351860
0.0114623923 0.0302828327 -0.0001367506
0.0043874308 0.0325653106 0.0006082106
0.0054380186 0.0326412022 0.0005613613
-0.0168380179 0.0289436728 -0.0007181567
-0.0026146641 0.0309401676 0.0006824258
0.0161843412 0.0304712802 -0.0017063197
0.0124359122 0.0307010785 -0.0001507950
0.0134332534 0.0308417678 -0.0001866397
-0.0457619578 0.0375606790 0.0106472047
-0.0159811825 0.0338681489 0.0022397237
-0.0156397708 0.0335630402 0.0016295958
-0.0149671584 0.0336051770 0.0013859692
-0.0135077834 0.0335410759 0.0013391125
0.0043637864 0.0329081491 0.0006987947
0.0054298490 0.0328598768 0.0005863506
0.0130844396 0.0313251168 -0.0000820857
-0.0158847123 0.0333736241 0.0020419033
-0.0159203783 0.0330761969 0.0030180039
-0.0016453064 0.0308589637 0.0005920726
-0.0126237459 0.0318485871 0.0011860403
0.0156601928 0.0305801630 -0.0026225550
0.0172088612 0.0309913829 -0.0020499108
-0.0185028315 0.0283702686 -0.0003319707
-0.0192926191 0.0327194482 -0.0012690303
-0.0186332949 0.0327504911 -0.0011811656
-0.0178867616 0.0327352583 -0.0011232597
-0.0165393911 0.0328596011 -0.0011232597
-0.0509061366 0.0359877869 0.0107487189
-0.0504793823 0.0368568264 0.0112364190
0.0162518751 0.0289222896 -0.0021904735
-0.0036904833 0.0321765952 0.0009252402
-0.0009522571 0.0332856625 0.0009174395
-0.0145490319 0.0309349298 0.0010379005
0.0013388803 0.0300348103 0.0004114407
-0.0086196549 0.0318936929 0.0010822687
-0.0076176710 0.0318990313 0.0010250109
-0.0066453069 0.0319539830 0.0009694818
0.0176287387 0.0276501775 -0.0005818483
0.0112908771 0.0309889540 -0.0000153434
0.0122837136 0.0312135145 -0.0000571039
-0.0025888758 0.0319070853 0.0008065450
-0.0126052201 0.0331786834 0.0013156879
0.0014147086 0.0328745842 0.0007643822
-0.0192876682 0.0332926512 -0.0012534139
-0.0185454488 0.0332804248 -0.0011815605
-0.0177964792 0.0332635492 -0.0011284676
-0.0164785087 0.0332107991 -0.0011284676
-0.0512458086 0.0364313647 0.0106628286
0.0084379688 0.0309066176 0.0001318800
0.0093998332 0.0309061706 0.0001035008
-0.0136353858 0.0268954858 0.0004221398
-0.0046007149 0.0328771397 0.0010626587
-0.0036049469 0.0329013206 0.0010232750
-0.0027200358 0.0329972953 0.0009642738
0.0103256879 0.0308461189 0.0000461537
0.0023978145 0.0328664184 0.0007355335
0.0153361727 0.0315776393 -0.0017375600
0.0167602133 0.0322741643 -0.0014876750
0.0170679241 0.0318473577 -0.0015345243
0.0164155830 0.0312364586 0.0004801425
0.0023993419 0.0298963189 0.0003502193
0.0034000908 0.0298903286 0.0002757135
-0.0023662637 0.0325374678 0.0008737120
-0.0016199222 0.0336466655 0.0010080162
-0.0005970320 0.0336255766 0.0009729537
-0.0086369365 0.0329237804 0.0012282106
-0.0076381601 0.0328757688 0.0011548075
-0.0503347889 0.0374353826 0.0109127061
0.0053992383 0.0335260630 0.0006925437
-0.0066233352 0.0329439119 0.0011344302
-0.0056299213 0.0328847170 0.0010805327
0.0033757833 0.0336088128 0.0008627746
0.0043326616 0.0335737765 0.0007987443
0.0113123972 0.0319152847 0.0001068983
0.0123493019 0.0318842381 0.0000288162
-0.0168404579 0.0299479663 -0.0007491809
-0.0144994110 0.0318919644 0.0013475242
-0.0136233121 0.0318869278 0.0012102547
0.0012923086 0.0336319953 0.0009278479
-0.0196745656 0.0287069082 0.0015577647
-0.0185607560 0.0336025394 -0.0011784312
-0.0177462399 0.0336041152 -0.0011253384
-0.0164815746 0.0335244052 -0.0011518922
-0.0508561507 0.0368453935 0.0107530626
-0.0480047837 0.0375452675 0.0130679356
-0.0046391357 0.0321353525 0.0009512651
0.0175098814 0.0319030173 -0.0026374189
-0.0066171456 0.0338430926 0.0012547645
0.0013585293 0.0309964195 0.0005305979
0.0034172905 0.0309390351 0.0003827038
-0.0016445837 0.0339868590 0.0010736111
-0.0005742798 0.0339534953 0.0010423783
0.0053885877 0.0337492749 0.0007300276
0.0103709986 0.0319550708 0.0002185601
-0.0160630494 0.0308867395 -0.0010191452
0.0013498196 0.0338893309 0.0009611744
0.0023198181 0.0338027775 0.0009397465
-0.0192972682 0.0337152854 -0.0012742382
-0.0172079466 0.0287197083 0.0004957590
-0.0516683683 0.0319926962 0.0125306901
-0.0177158676 0.0339027345 -0.0011232671
-0.0164913796 0.0338426717 -0.0011597079
0.0184423849 0.0318306983 -0.0027083410
0.0152025949 0.0301151574 -0.0019249645
0.0004439463 0.0311443694 0.0005644831
-0.0005975871 0.0298901014 0.0004367727
0.0147556476 0.0332130492 0.0012506145
-0.0036153405 0.0339046679 0.0011658791
0.0235495456 0.0256188735 0.0135989385
0.0013367103 0.0341139808 0.0009986508
0.0167733040 0.0327969566 -0.0023856787
0.0165796950 0.0328400880 -0.0018104416
-0.0191202275 0.0297180898 -0.0010503781
-0.0116008185 0.0269803703 0.0004998791
-0.0176168829 0.0298916921 -0.0009816763
-0.0177205391 0.0341140553 -0.0011336756
-0.0164936334 0.0340519771 -0.0011753243
-0.0067153480 0.0345335379 0.0013547364
-0.0463470668 0.0387671888 0.0103192376
0.0137009211 0.0316211954 -0.0001289424
0.0143071469 0.0329499692 0.0001053336
-0.0177298449 0.0343285426 -0.0011336756
-0.0164992437 0.0342636555 -0.0011831325
-0.0133867003 0.0301248357 0.0009278479
0.0014118121 0.0320169441 0.0006449941
0.0023569239 0.0318190455 0.0005562055
0.0063441023 0.0318858251 0.0003722507
-0.0076010562 0.0338805020 0.0012883443
0.0192361176 0.0327305496 -0.0027604951
-0.0062217284 0.0343904570 0.0013234961
-0.0056043267 0.0339547843 0.0012638393
0.0104472619 0.0329327174 0.0003339770
0.0113890041 0.0328945965 0.0002334017
0.0123259826 0.0328614376 0.0001478094
-0.0160566829 0.0319248959 0.0005988377
-0.0036226942 0.0345130600 0.0012422848
0.0168359000 0.0330998823 -0.0025809063
0.0165664125 0.0333598107 -0.0016750869
-0.0183795281 0.0299268179 -0.0010620904
0.0064464398 0.0338144526 0.0006441298
-0.0504922643 0.0378899053 0.0106604220
-0.0496253073 0.0380145684 0.0106003555
0.0174517967 0.0327220261 -0.0028198389
0.0184433926 0.0327245742 -0.0027932851
0.0023735797 0.0345333368 0.0010423783
0.0034310760 0.0345072933 0.0010236400
0.0043923873 0.0344680175 0.0009486797
0.0192357004 0.0332329050 -0.0027891351
-0.0026069379 0.0339093134 0.0010970283
-0.0170475524 0.0297389776 0.0002927306
-0.0492692068 0.0383551195 0.0098507078
-0.0136386789 0.0308773220 0.0010473552
0.0054115988 0.0331970081 0.0006550598
0.0063546542 0.0328759030 0.0005252633
-0.0147989467 0.0341457948 0.0014734241
0.0153543651 0.0309087262 -0.0017219362
-0.0036388619 0.0347397253 0.0012797687
0.0013148130 0.0345587283 0.0010548729
0.0168299656 0.0333226882 -0.0025184331
0.0133476853 0.0319610424 -0.0000421581
-0.0165015943 0.0344731361 -0.0011987489
0.0174519885 0.0332203396 -0.0028620241
0.0184429605 0.0332260728 -0.0028245477
0.0141336303 0.0322256610 -0.0000716698
0.0163294319 0.0320056602 0.0005710173
0.0192359816 0.0334312767 -0.0028099669
0.0064136162 0.0345929749 0.0007612604
-0.0005182906 0.0342125446 0.0010788190
0.0003502478 0.0329085216 0.0008096668
-0.0096439980 0.0349029563 0.0015531826
-0.0086374506 0.0348080397 0.0014583144
-0.0065944903 0.0349720195 0.0014289144
-0.0477184132 0.0394087061 0.0095227407
-0.0116035677 0.0329254121 0.0013000491
-0.0026196318 0.0347147509 0.0012249771
0.0033507028 0.0329031199 0.0007150817
0.0043469910 0.0332424231 0.0007550094
-0.0135552660 0.0340002105 0.0014224175
0.0123660667 0.0338513777 0.0002779561
-0.0165430382 0.0319033973 -0.0010622767
-0.0160908923 0.0332621634 0.0003395799
0.0160163287 0.0305731818 -0.0021123765
0.0014099588 0.0347787738 0.0010814193
0.0023624112 0.0347568020 0.0010736111
0.0167981274 0.0336455181 -0.0021123765
0.0034218037 0.0347287282 0.0010486218
0.0043823011 0.0346909687 0.0009799126
-0.0182604734 0.0306333043 -0.0010816184
-0.0175787173 0.0308822319 -0.0010645789
-0.0106043369 0.0279453807 0.0006254587
-0.0165107325 0.0346873514 -0.0011987489
-0.0016641787 0.0332719386 0.0009382713
-0.0186146908 0.0347841680 -0.0011753094
-0.0178829208 0.0347232446 -0.0011253384
-0.0164156295 0.0349010155 -0.0011857328
0.0133336801 0.0328708068 0.0000836152
-0.0126153938 0.0348572955 0.0015910465
-0.0116359331 0.0349318162 0.0016046289
-0.0106261000 0.0349027254 0.0015924770
-0.0083631948 0.0353702977 0.0014952916
0.0192346778 0.0308401287 -0.0025954796
0.0143544581 0.0345655903 0.0002739924
0.0151806865 0.0345491432 0.0002406734
0.0023902671 0.0341986753 0.0009955216
0.0025114452 0.0334919840 0.0008627671
0.0036819836 0.0338228494 0.0008862066
0.0043986328 0.0339300409 0.0008580807
0.0053719860 0.0340855867 0.0007893714
0.0064226277 0.0343707874 0.0007300276
-0.0075996369 0.0349167362 0.0014103922
-0.0066174325 0.0353103057 0.0014718595
0.0162735824 0.0309384279 -0.0006844801
0.0169369411 0.0310471505 -0.0010503781
0.0114183156 0.0339052454 0.0003690991
-0.0166964568 0.0327714607 -0.0010645789
-0.0085985996 0.0339273885 0.0013515922
0.0174522605 0.0335186720 -0.0028901426
0.0184436087 0.0335226581 -0.0028588949
0.0192352217 0.0336357541 -0.0028099669
-0.0166173056 0.0309204534 -0.0010444251
0.0161173660 0.0348763615 0.0013859692
0.0064045750 0.0348154306 0.0007925007
-0.0161468349 0.0311589390 0.0005348074
-0.0505509153 0.0384755358 0.0104597928
-0.0498536453 0.0384527221 0.0100693600
0.0175726935 0.0307727158 -0.0026641963
0.0184432920 0.0308286808 -0.0026508672
-0.0479751155 0.0396793410 0.0085856887
-0.0187346488 0.0352124646 -0.0011987564
-0.0164292790 0.0351186842 -0.0011753243
-0.0488654599 0.0389811546 0.0086459266
-0.0461799949 0.0394160077 0.0099756541
-0.0096257329 0.0328558423 0.0012688163
-0.0170113854 0.0348528028 -0.0010660019
-0.0498501584 0.0375538543 0.0111251073
-0.0488295704 0.0382428467 0.0102801891
-0.0461286306 0.0382916853 0.0104754167
-0.0159714371 0.0341914147 0.0022980245
-0.0499702767 0.0372401401 0.0112562981
0.0160811394 0.0352190137 0.0018232587
-0.0145924427 0.0348451585 0.0016505617
0.0093765510 0.0338416547 0.0005138788
-0.0149924904 0.0333039090 0.0014796677
