# .PCD v0.7 - Point Cloud Data file format
VERSION 0.7
FIELDS x y z
SIZE 4 4 4
TYPE F F F
COUNT 1 1 1
WIDTH 1192
HEIGHT 1
VIEWPOINT 0 0 0 1 0 0 0
POINTS 1192
DATA ascii
-0.0016417941 0.0100672282 -0.0032650996
0.0216075443 0.0090873782 -0.0113237891
0.0280749835 0.0017666072 -0.0063105319
0.0041854857 0.0051534958 -0.0154572520
0.0004337495 0.0104294121 0.0004987400
0.0215454921 0.0094763357 -0.0053578634
0.0260887966 0.0091924760 -0.0231150854
0.0218247399 0.0098030027 -0.0023592804
-0.0185645819 0.0092473384 -0.0188702140
0.0043985574 0.0096135680 -0.0097776446
-0.0161675327 0.0103880111 -0.0102930237
-0.0259421356 0.0097791571 -0.0188702140
-0.0244062692 0.0095024034 -0.0189764146
-0.0239444599 0.0101508461 -0.0189764146
-0.0056769596 0.0099481903 -0.0076380391
-0.0046209609 0.0099609606 -0.0070757959
-0.0210068449 0.0100652426 -0.0207880605
-0.0205338299 0.0099146161 -0.0196219403
-0.0196916275 0.0098937396 -0.0191742349
-0.0013422547 0.0096783955 -0.0082002673
0.0203532912 0.0105407573 -0.0022968072
-0.0155378124 0.0099199414 -0.0146721993
-0.0162517428 0.0107469410 0.0000770669
-0.0166135281 0.0107329004 -0.0003914628
0.0096113505 0.0095523428 -0.0114174951
0.0094845360 0.0098583922 -0.0088874409
0.0003214842 0.0047386661 -0.0133362282
-0.0011803834 0.0101762731 0.0002957117
-0.0005810028 0.0101797730 0.0004753154
0.0063300906 0.0105254129 0.0001473557
-0.0009710016 0.0053265803 -0.0175604243
0.0011693882 0.0089156218 -0.0197104458
0.0143675422 0.0067920517 -0.0208271015
0.0206946507 0.0105667692 -0.0015627835
-0.0037830891 0.0097076818 -0.0075130919
-0.0168336779 0.0100618415 -0.0167274866
0.0033310028 0.0096199531 -0.0096683297
-0.0067224903 0.0093884319 -0.0110739116
-0.0246483535 0.0101491641 -0.0192075614
0.0054314444 0.0093359854 -0.0114174876
-0.0159022324 0.0103385411 -0.0045925993
0.0174026527 0.0106183812 -0.0001884270
0.0244738646 0.0098442156 -0.0217719693
0.0214278325 0.0105739534 -0.0013519470
-0.0042582164 0.0053303726 -0.0175708327
-0.0015723025 0.0087758861 -0.0201182459
-0.0026458064 0.0092110280 -0.0170710701
0.0113696158 0.0070014354 -0.0208609346
0.0004344294 0.0106815044 0.0004909318
-0.0263145901 0.0075584669 -0.0186640639
0.0312826671 0.0098315328 -0.0222561155
0.0211591683 0.0098533034 -0.0006569568
-0.0165388435 0.0106240641 -0.0102774147
-0.0239464939 0.0103682354 -0.0189764146
-0.0210596845 0.0102824047 -0.0206787381
-0.0205715783 0.0103200972 -0.0195136685
-0.0196963400 0.0103252251 -0.0191716421
0.0202379301 0.0107794851 -0.0024686027
-0.0172575936 0.0109091662 -0.0026091654
0.0211866535 0.0090647172 -0.0122296084
-0.0159936771 0.0103002265 -0.0190701205
-0.0185519718 0.0100158248 -0.0151032526
-0.0154730333 0.0097692553 -0.0151969586
-0.0155635169 0.0099521764 -0.0164463613
-0.0131562566 0.0095329992 -0.0151969586
-0.0039261905 0.0101942662 0.0005455967
0.0173894167 0.0078148246 -0.0211941246
-0.0209723786 0.0088883433 -0.0210847948
-0.0162766427 0.0097610019 -0.0191950593
-0.0079351841 0.0093971789 -0.0109489653
-0.0066018654 0.0107253380 0.0009230282
-0.0092707230 0.0102228709 0.0007330086
0.0183733962 0.0098041221 -0.0101680858
0.0183329880 0.0098253023 -0.0094965342
0.0143702915 0.0078227930 -0.0208630208
0.0271164365 0.0060710069 -0.0221546087
-0.0115798404 0.0102435239 0.0010453593
-0.0225905813 0.0078456160 -0.0197760183
0.0103842104 0.0106340274 -0.0000557024
-0.0166768841 0.0081520788 -0.0192939732
-0.0156898201 0.0080827624 -0.0193916503
-0.0146221062 0.0079458281 -0.0196553562
0.0193230808 0.0016354416 -0.0073725302
-0.0045589833 0.0087172054 -0.0201365892
0.0180192031 0.0107471608 -0.0000634883
0.0184512436 0.0106087141 0.0002707299
0.0103352526 0.0067962538 -0.0208792780
0.0205774456 0.0096354838 -0.0080753285
0.0004350794 0.0109335929 0.0004831236
0.0014648652 0.0106758699 0.0004336815
0.0322987847 0.0098320767 -0.0222811047
-0.0006485255 0.0078652166 -0.0201024655
-0.0166438669 0.0108560957 -0.0103242639
-0.0159730390 0.0108447149 -0.0104960594
-0.0152326291 0.0103968121 -0.0220062304
-0.0151933162 0.0104132574 -0.0215689410
0.0244738720 0.0100484286 -0.0217719693
0.0201156586 0.0110237598 -0.0024842191
-0.0168774873 0.0111423321 -0.0029527489
-0.0036035860 0.0087106619 -0.0202544499
-0.0046428060 0.0102064647 0.0008475389
-0.0006003501 0.0089595094 -0.0198884849
-0.0256048515 0.0075506158 -0.0191325936
0.0172764733 0.0103697553 -0.0001624022
-0.0156541765 0.0105229523 -0.0187994111
-0.0037133088 0.0108322427 0.0007193591
-0.0026658559 0.0108247995 0.0006334540
-0.0016242051 0.0108179599 0.0005592760
-0.0005954700 0.0108130239 0.0005319472
0.0188756324 0.0100564323 -0.0021406356
-0.0185715444 0.0104942508 -0.0172740985
0.0174228027 0.0098219682 -0.0096308384
-0.0156259015 0.0090030599 -0.0193199981
-0.0196101777 0.0078214779 -0.0191846509
0.0223209821 0.0067854486 -0.0213265512
-0.0199273899 0.0037056692 -0.0030152220
0.0143656684 0.0087419618 -0.0207099784
-0.0085585704 0.0096773729 -0.0092934985
-0.0055503426 0.0108451433 0.0008540582
-0.0026365584 0.0087066535 -0.0202654023
-0.0226192214 0.0087861754 -0.0196488891
0.0002582101 0.0096448772 -0.0091581512
0.0103860097 0.0111336932 -0.0000791121
0.0251318365 0.0077099986 -0.0218074638
0.0185072385 0.0111300983 0.0001499485
0.0004389426 0.0111850463 0.0004596990
-0.0152944690 0.0106552131 -0.0207880605
-0.0162883289 0.0108763278 -0.0155093092
-0.0258430243 0.0083519630 -0.0231619347
0.0232232362 0.0094738398 -0.0135414917
-0.0184881836 0.0102432817 -0.0149783064
-0.0016419003 0.0101012029 -0.0021718685
0.0206948817 0.0093198083 -0.0111051444
-0.0163843092 0.0102390666 -0.0146659557
-0.0158426464 0.0101950653 -0.0136456061
-0.0129434085 0.0095787775 -0.0135414843
-0.0196244903 0.0036848392 -0.0021094028
-0.0186043344 0.0002542995 0.0015373137
0.0256926641 0.0061727129 -0.0223185811
0.0267382674 0.0061055329 -0.0224539433
0.0287144147 0.0060109738 -0.0223435704
0.0294344947 0.0059298910 -0.0225559715
-0.0162751749 0.0107529499 -0.0067009721
-0.0162778012 0.0107996278 -0.0075963838
-0.0159639940 0.0106771458 -0.0074131433
-0.0244409814 0.0078518689 -0.0188827161
0.0015529385 0.0093545653 -0.0111571942
0.0024124673 0.0093450174 -0.0114096869
-0.0218938515 0.0099629220 -0.0197885353
0.0244738832 0.0102526657 -0.0217719693
-0.0273259506 0.0100329835 -0.0167170782
0.0144025041 0.0108727887 -0.0001618881
0.0154102286 0.0109923966 -0.0002626199
-0.0073126247 0.0097379927 -0.0069820900
-0.0068893610 0.0099806674 -0.0067634452
-0.0153330630 0.0106160268 -0.0217667613
0.0191570818 0.0107258186 0.0005143564
-0.0175991431 0.0114185289 -0.0023905132
-0.0203170925 0.0116805583 0.0035754126
-0.0055564558 0.0102114640 0.0008891802
0.0196112432 0.0090643167 -0.0204913262
-0.0248454548 0.0088157021 -0.0193441380
0.0063348776 0.0114021488 0.0001004916
-0.0169145390 0.0115143880 0.0000770669
-0.0162366964 0.0114919767 -0.0003602225
-0.0182056800 0.0113518722 0.0022322964
-0.0026627248 0.0114565268 0.0006080624
-0.0016272357 0.0114500895 0.0005612131
-0.0005975412 0.0114444979 0.0005299803
0.0200092047 0.0107482970 -0.0045832191
0.0195756145 0.0113161877 -0.0013597552
-0.0186431631 0.0108195394 -0.0173834208
-0.0105376756 0.0108763836 0.0010473114
0.0206443816 0.0092021730 -0.0154156033
-0.0163465887 0.0096842982 -0.0181955341
0.0024064509 0.0096216407 -0.0097099636
0.0221953355 0.0096761491 -0.0025154594
0.0073963040 0.0078360662 -0.0207343567
-0.0096281460 0.0108721629 0.0010609832
-0.0253718793 0.0099950563 -0.0193646345
0.0106135448 0.0095800795 -0.0103971455
0.0053890543 0.0078419335 -0.0206272025
0.0146253994 0.0098380577 -0.0092310328
0.0154468557 0.0098319929 -0.0093872044
0.0103854425 0.0113839917 -0.0000791121
0.0205222815 0.0102217868 -0.0015534181
-0.0162748024 0.0105967820 -0.0042646322
0.0294540897 0.0104407240 -0.0222248826
-0.0193655081 0.0114819594 -0.0011411030
-0.0172400326 0.0107762851 -0.0125107262
-0.0165936723 0.0106238052 -0.0133931283
-0.0167110972 0.0107163228 -0.0124873016
-0.0166763030 0.0109226853 -0.0116049144
-0.0165606961 0.0106532890 -0.0094705019
-0.0220523067 0.0123257637 0.0122275706
0.0043524532 0.0093405116 -0.0113612656
-0.0259582959 0.0107836425 -0.0188577194
-0.0239032879 0.0108338930 -0.0189719591
0.0134179154 0.0107886568 -0.0000956524
-0.0205783956 0.0107510053 -0.0195074026
-0.0196908899 0.0107558072 -0.0191924591
-0.0156425536 0.0108368024 -0.0215564538
0.0133310808 0.0098469630 -0.0090123806
0.0139951622 0.0098557007 -0.0087000299
-0.0046295011 0.0108384527 0.0007824805
0.0214287862 0.0115605369 -0.0013987962
-0.0188319944 0.0107744932 -0.0185443331
0.0244165920 0.0091200508 -0.0217077527
-0.0057215421 0.0087734070 -0.0199342985
-0.0049478756 0.0090035778 -0.0199551154
-0.0219826214 0.0119581893 0.0036378857
-0.0159739628 0.0106138382 -0.0164880175
-0.0181486942 0.0116349161 0.0028257649
-0.0016283402 0.0117029771 0.0005612131
-0.0005953079 0.0116964877 0.0005143639
0.0200781673 0.0114239268 -0.0045145098
-0.0215790235 0.0107703283 -0.0197000373
0.0122167403 0.0095773228 -0.0103867371
0.0303679220 0.0105421841 -0.0222561155
0.0203685462 0.0101056322 -0.0005476344
0.0274232402 0.0088156145 -0.0221124385
-0.0096203564 0.0116357021 0.0010193270
-0.0125890737 0.0096238777 -0.0118860258
-0.0249331295 0.0070394482 -0.0193755273
-0.0254677869 0.0106992759 -0.0192210991
-0.0158522017 0.0101614892 -0.0123857874
0.0063305283 0.0110270232 0.0001356434
0.0206037723 0.0110891573 -0.0016096327
0.0214286037 0.0110668540 -0.0013857875
-0.0160392225 0.0100989267 -0.0083408300
0.0144098355 0.0116182938 -0.0002587084
0.0154121732 0.0116149858 -0.0002977569
0.0174020492 0.0116168186 -0.0001962353
0.0205735005 0.0115507767 -0.0016304646
-0.0111874854 0.0091693886 -0.0114799608
-0.0226972625 0.0060184952 -0.0183673296
-0.0055710757 0.0096631236 -0.0093169231
-0.0213542171 0.0099622086 -0.0207724441
0.0247800872 0.0094284937 -0.0220062304
-0.0262043700 0.0112831593 -0.0184766520
-0.0257778466 0.0112623572 -0.0188514758
-0.0238893293 0.0112419650 -0.0188723002
0.0244737081 0.0105611049 -0.0217251200
-0.0205968395 0.0111832730 -0.0194761772
-0.0195990019 0.0111882836 -0.0191513393
0.0203428380 0.0117783472 -0.0020469297
0.0201040171 0.0112803876 -0.0022031013
0.0200818516 0.0116602108 -0.0046082158
-0.0215791091 0.0111878589 -0.0195855070
-0.0102702444 0.0115115903 0.0010141265
-0.0153090237 0.0108679421 -0.0207568277
0.0303700976 0.0108487681 -0.0222248826
-0.0005574161 0.0094636548 -0.0095277671
0.0014686873 0.0111790560 0.0004050341
-0.0128081879 0.0096046515 -0.0126044322
-0.0176254213 0.0112561211 -0.0001415778
-0.0113852797 0.0119249262 0.0009766426
-0.0123947477 0.0108893216 0.0011273529
-0.0160934702 0.0106150992 -0.0037023965
0.0224294066 0.0100755896 -0.0014847014
-0.0176396146 0.0091780722 -0.0185443331
-0.0167411491 0.0092354417 -0.0188827086
-0.0056500146 0.0057707801 -0.0187994260
-0.0154845593 0.0102481730 0.0005351882
0.0084377918 0.0078340825 -0.0207268242
-0.0026590331 0.0118351541 0.0005846303
0.0213708170 0.0060940105 -0.0212487895
-0.0073362058 0.0096689723 -0.0093872044
-0.0196741894 0.0061685573 -0.0191325936
0.0134645151 0.0078866500 -0.0208099205
-0.0239538848 0.0127061717 0.0080420431
-0.0173050091 0.0112036765 -0.0076224152
0.0244732425 0.0108727477 -0.0216157977
0.0203608200 0.0120015331 -0.0025154594
-0.0055602947 0.0118322074 0.0007725935
-0.0046506627 0.0118785091 0.0006873664
-0.0075801490 0.0119810775 0.0009230282
-0.0065920753 0.0118670426 0.0008638185
-0.0221210644 0.0129347295 0.0132270958
-0.0128407506 0.0110102594 0.0008735638
0.0104789212 0.0098595079 -0.0087833200
0.0114466688 0.0098579619 -0.0087703113
0.0133164534 0.0098513961 -0.0088718254
-0.0201545618 0.0025469456 -0.0017501954
0.0053113038 0.0107810833 0.0001961347
0.0133813657 0.0117715523 -0.0002227966
0.0073020468 0.0095840320 -0.0105194841
0.0023443950 0.0086909309 -0.0201893840
0.0163558386 0.0067893360 -0.0211216528
0.0042851558 0.0107871629 0.0002800729
-0.0171684846 0.0118014999 0.0007954743
-0.0201268494 0.0119830742 0.0045437049
-0.0192537010 0.0120370127 0.0059492867
-0.0196638666 0.0123590827 0.0071049985
-0.0124488613 0.0117835924 0.0011033695
-0.0226301737 0.0099053532 -0.0195303131
-0.0047263270 0.0093907900 -0.0106678549
0.0206938908 0.0119238943 -0.0015627835
0.0214297324 0.0119294003 -0.0014378298
-0.0141971884 0.0099385232 -0.0093715880
0.0251875445 0.0067834761 -0.0217334572
0.0257502981 0.0097166151 -0.0234690774
-0.0250252225 0.0052567013 -0.0181564931
-0.0232815556 0.0122859478 0.0048560556
0.0190284066 0.0095300153 -0.0116986129
-0.0041598594 0.0048465915 -0.0139475483
-0.0219502896 0.0120005757 0.0046374109
-0.0063399514 0.0102156959 0.0009204205
0.0004346082 0.0101770665 0.0004987400
-0.0158063397 0.0101426914 -0.0106053818
0.0023571784 0.0101688355 0.0004310738
0.0031249812 0.0101655573 0.0003998261
-0.0125739342 0.0096615776 -0.0105585251
0.0256945156 0.0067820344 -0.0221155602
-0.0083366549 0.0094031710 -0.0107927863
-0.0066110482 0.0093957148 -0.0107823778
-0.0056016101 0.0093996115 -0.0104741994
-0.0217013545 0.0129148439 0.0128678884
-0.0205155835 0.0131026730 0.0111343320
0.0261853859 0.0098849535 -0.0234508682
0.0164154544 0.0103645660 -0.0003446136
0.0087822909 0.0095606036 -0.0111988503
0.0081584482 0.0095721185 -0.0108552594
0.0245752633 0.0110811964 -0.0215377081
0.0203424990 0.0122700408 -0.0020469297
0.0323008522 0.0078003891 -0.0222211350
-0.0161398090 0.0103415735 -0.0116361389
-0.0056463713 0.0124890059 0.0006913673
-0.0047253324 0.0124802478 0.0006158706
-0.0162629187 0.0106680281 -0.0057014469
0.0082056606 0.0106106438 0.0000302102
0.0053161932 0.0117840283 0.0001473334
-0.0165974237 0.0099814199 -0.0174458865
0.0294402242 0.0059755947 -0.0235172380
0.0103991507 0.0123788044 -0.0002118591
-0.0184414051 0.0115783513 0.0013889428
-0.0127291745 0.0120002329 0.0008232426
-0.0116076833 0.0115708821 0.0010266136
0.0174036101 0.0121147111 -0.0002300832
-0.0197659694 0.0114983097 -0.0191504378
0.0023625074 0.0107973851 0.0003920030
0.0032602390 0.0107926652 0.0003425386
0.0073489612 0.0107710622 0.0000751000
-0.0215241015 0.0105184559 -0.0201789755
0.0245751850 0.0112876333 -0.0215064678
0.0312870070 0.0079021398 -0.0221608523
0.0197751783 0.0101158079 -0.0002352837
-0.0164659806 0.0108758062 -0.0033796225
-0.0259196572 0.0117023587 -0.0188150425
-0.0244717747 0.0117059760 -0.0188230816
-0.0237231180 0.0116817802 -0.0187438894
0.0134124672 0.0123675801 -0.0002977569
-0.0206498727 0.0116199739 -0.0193699691
-0.0198615529 0.0118415952 -0.0190909524
-0.0274046436 0.0104850493 -0.0165713076
-0.0152243106 0.0101764090 -0.0017658118
0.0185056850 0.0117569454 0.0001681652
0.0190758333 0.0116853863 0.0004518908
-0.0056425044 0.0127417706 0.0006705355
-0.0047190012 0.0127321631 0.0005846377
-0.0160268024 0.0110181980 -0.0060137976
-0.0256445296 0.0114829279 -0.0233805869
0.0167506561 0.0090547465 -0.0209442396
0.0206941813 0.0122934170 -0.0015783999
-0.0227674469 0.0129475445 0.0133936908
-0.0240023881 0.0126099400 0.0119776931
0.0062910812 0.0118518099 0.0000489410
0.0134149743 0.0126157589 -0.0003289897
0.0264110304 0.0114728361 -0.0218937863
-0.0195725821 0.0068850815 -0.0191885624
0.0156541280 0.0077413004 -0.0210574660
-0.0172201023 0.0110399723 -0.0116517562
-0.0175304078 0.0124368221 0.0033567678
-0.0125576099 0.0126631409 0.0007720497
-0.0115562631 0.0126638152 0.0009204280
-0.0225834921 0.0109079294 -0.0195096452
0.0200828537 0.0120193772 -0.0046394560
0.0214301385 0.0125460215 -0.0014612693
0.0205739886 0.0125360042 -0.0016616974
-0.0003023623 0.0046221558 -0.0139787812
-0.0190121159 0.0123066641 0.0060429927
0.0229136460 0.0095041879 -0.0085594747
0.0200793818 0.0123841241 -0.0045613591
0.0144137973 0.0121151358 -0.0003133733
0.0013584876 0.0125608444 0.0002905112
0.0134209301 0.0089625418 -0.0207162146
-0.0192797258 0.0135031119 0.0083856340
-0.0282206759 0.0139817894 0.0159757938
-0.0208208300 0.0120591410 -0.0192575324
-0.0016266061 0.0120816119 0.0005455893
0.0267098919 0.0098287724 -0.0222217608
-0.0156615227 0.0125693716 0.0010141265
0.0123931803 0.0107541308 -0.0000849832
-0.0115287965 0.0094557628 -0.0093872044
-0.0146459518 0.0127832144 0.0003338885
0.0102073038 0.0095451176 -0.0116205234
0.0205734149 0.0127833113 -0.0016512889
0.0043060882 0.0126660392 0.0001213085
0.0057177944 0.0129046738 -0.0000166390
0.0059664184 0.0125289038 0.0000145938
-0.0219548307 0.0132132769 0.0131646302
0.0312847830 0.0108491778 -0.0222461242
-0.0178830251 0.0114815757 -0.0008912254
-0.0162227042 0.0117272846 -0.0007819030
-0.0161327161 0.0110016465 0.0001082998
0.0022588326 0.0126799159 0.0002306309
0.0164096430 0.0109906942 -0.0002743322
-0.0247543156 0.0126559101 0.0068238731
-0.0246119052 0.0126882419 0.0075422879
-0.0164632648 0.0111169964 -0.0002665166
0.0154215833 0.0127309933 -0.0004383121
-0.0125749549 0.0130486414 0.0008188989
-0.0163759589 0.0102690477 -0.0137913767
-0.0147079555 0.0094782971 -0.0174537096
-0.0174850561 0.0112975128 0.0009516533
0.0013598958 0.0129381679 0.0002748873
-0.0245993584 0.0062422492 -0.0185469333
-0.0193469599 0.0137864314 0.0085730460
-0.0255239494 0.0123480335 -0.0189139489
-0.0066015711 0.0112334937 0.0009126049
-0.0156069463 0.0129814669 0.0005076658
-0.0146028688 0.0132846162 0.0001915973
0.0245751105 0.0114942305 -0.0214752350
-0.0236255266 0.0138217472 0.0137112346
-0.0225321911 0.0138333701 0.0134340283
0.0057168668 0.0131557286 -0.0000166390
0.0052728197 0.0127490461 0.0000614356
-0.0025312761 0.0093849096 -0.0105637331
-0.0018434050 0.0094094481 -0.0095537920
0.0224156603 0.0109435618 -0.0013714824
0.0164030492 0.0098170191 -0.0098245014
0.0064319381 0.0095974430 -0.0101368520
-0.0135475909 0.0099629182 -0.0084501449
0.0276565403 0.0116454214 -0.0220218543
0.0014201095 0.0067539159 -0.0202064980
-0.0155746927 0.0107074939 -0.0195542667
-0.0188202783 0.0100153759 -0.0185567010
-0.0125889732 0.0133063160 0.0008579548
-0.0181356221 0.0130940564 0.0058868211
-0.0188030265 0.0125812851 0.0062304046
-0.0188921094 0.0130362213 0.0072767939
0.0023736199 0.0118018463 0.0003139209
0.0203701146 0.0087351222 -0.0212585349
0.0212471448 0.0085997358 -0.0212902296
0.0042967023 0.0117895566 0.0001941826
-0.0163808241 0.0109402463 -0.0016174410
-0.0249665566 0.0116035454 -0.0191482101
0.0257964879 0.0112532750 -0.0221936423
0.0013649007 0.0131885111 0.0002436545
-0.0072660325 0.0108577684 0.0009828862
0.0283653550 0.0122537650 -0.0153531376
-0.0155564463 0.0035294369 -0.0058576260
-0.0171830133 0.0113050491 -0.0108240265
-0.0167431980 0.0110873319 -0.0103867296
-0.0271988250 0.0135130882 0.0126336273
0.0274230540 0.0077989306 -0.0221024398
-0.0120510114 0.0095294937 -0.0067009721
0.0257836357 0.0106848292 -0.0235211421
0.0261676237 0.0106614176 -0.0234345440
-0.0156431645 0.0099064205 -0.0186293591
-0.0155061884 0.0099218991 -0.0173626039
-0.0296066962 0.0145212822 0.0202862527
-0.0228428952 0.0143755302 0.0135706868
-0.0078642247 0.0115625113 0.0010219347
0.0113543151 0.0087584257 -0.0207708795
0.0186272301 0.0057514701 -0.0196167398
-0.0183852054 0.0134012438 0.0066052284
-0.0260718279 0.0130820796 0.0097912159
-0.0026492467 0.0128443539 0.0005202349
-0.0016194740 0.0128378831 0.0004968103
0.0223209150 0.0078100320 -0.0213327948
0.0233927630 0.0078553073 -0.0214013923
-0.0155400885 0.0135496035 0.0002410468
-0.0146083189 0.0135398023 0.0002020132
-0.0013116272 0.0101592503 -0.0002665166
-0.0056354320 0.0131205171 0.0006340947
-0.0223741084 0.0143669918 0.0134925898
-0.0005871719 0.0128304735 0.0004519131
0.0004551420 0.0128199756 0.0003464427
-0.0266344137 0.0132659376 0.0134665575
-0.0246720947 0.0103680640 -0.0191638339
0.0113902846 0.0107561834 -0.0000810791
0.0057209404 0.0134049766 -0.0000478718
0.0052024657 0.0134118646 0.0000354256
-0.0214415006 0.0134808123 0.0129459705
-0.0210151747 0.0143007860 0.0125399139
0.0265592486 0.0108995251 -0.0221520085
0.0274256989 0.0108533241 -0.0220624600
0.0284410641 0.0108508691 -0.0221336726
0.0017043827 0.0096242297 -0.0096995551
0.0032898663 0.0134249255 0.0001239162
-0.0246878937 0.0109122694 -0.0191435311
-0.0156235015 0.0108795799 0.0003304165
0.0303550623 0.0125064813 -0.0148065183
-0.0311311074 0.0143562481 0.0225664284
-0.0135588823 0.0110064037 0.0006575268
-0.0115791028 0.0108814090 0.0010316949
-0.0188406296 0.0116470791 -0.0175333563
0.0144012673 0.0095703304 -0.0105038676
-0.0128286202 0.0135591477 0.0007798579
-0.0123920441 0.0135720521 0.0010609757
0.0114122098 0.0128707960 -0.0003164951
0.0223192833 0.0085285697 -0.0212784652
0.0066077048 0.0121473297 -0.0000478718
0.0014269510 0.0079241097 -0.0201913137
0.0174062774 0.0129856803 -0.0002899487
-0.0225850791 0.0117263570 -0.0193720553
0.0196316130 0.0132195503 -0.0026403982
-0.0274162181 0.0140917748 0.0154604223
0.0174027681 0.0111172982 -0.0001988504
0.0180232152 0.0112438202 -0.0001415778
0.0195464492 0.0108464584 -0.0007038135
-0.0192218237 0.0098976176 -0.0189451817
-0.0255897716 0.0125741139 -0.0187890027
0.0224158168 0.0135372505 -0.0014144126
-0.0173568577 0.0137577765 0.0036066454
-0.0026439363 0.0136014260 0.0004792195
-0.0016152067 0.0135946274 0.0004596990
-0.0287000462 0.0146214850 0.0195522215
-0.0155158034 0.0137996338 0.0001629647
-0.0146172522 0.0137957186 0.0002228301
0.0124157341 0.0129918158 -0.0003446061
-0.0225441344 0.0146556087 0.0135498699
0.0097545348 0.0090975277 -0.0198197681
-0.0191977099 0.0140329562 0.0081357565
-0.0266021192 0.0136670470 0.0135269668
-0.0257596038 0.0138651878 0.0136456396
-0.0247284397 0.0144101717 0.0138830300
0.0303635113 0.0088129565 -0.0223014001
0.0312858745 0.0088165347 -0.0221899021
0.0258010887 0.0117881745 -0.0217329282
0.0264465474 0.0119545013 -0.0218049604
0.0222926773 0.0129974149 -0.0014193822
0.0093835723 0.0117608085 -0.0001045037
-0.0253564306 0.0144212432 0.0139767434
0.0154253980 0.0132266060 -0.0004968811
-0.0186263695 0.0053057615 -0.0134477858
-0.0254781023 0.0148685127 0.0166942086
0.0262300968 0.0123894066 -0.0202570576
0.0156624652 0.0071328729 -0.0210483540
-0.0036729025 0.0136079937 0.0004909318
-0.0159960054 0.0101813544 -0.0094496775
0.0061610295 0.0096049961 -0.0099025909
-0.0128306439 0.0138146132 0.0007798579
-0.0123843467 0.0138260722 0.0010297429
0.0104103126 0.0129983909 -0.0003172774
0.0294559523 0.0109507628 -0.0221967716
-0.0097161075 0.0129042268 0.0008716267
0.0033132108 0.0086861774 -0.0202674810
0.0205729529 0.0131538175 -0.0016460810
0.0134194130 0.0131120980 -0.0003862549
0.0023551108 0.0078550838 -0.0202258397
0.0103174411 0.0098521765 -0.0090279970
-0.0026452383 0.0139809437 0.0004753154
-0.0016156016 0.0139736198 0.0004518908
-0.0212979801 0.0120637417 0.0062304046
-0.0086122146 0.0121802725 0.0009724777
0.0187160783 0.0098687243 -0.0081065614
-0.0065438403 0.0137611404 0.0006367099
-0.0056256494 0.0137518980 0.0005802941
-0.0262752511 0.0071209613 -0.0187369455
0.0004612496 0.0137003437 0.0002956968
0.0013679536 0.0136910379 0.0002158936
-0.0244755521 0.0139054656 0.0138127562
-0.0217459798 0.0146377496 0.0133676436
0.0214298777 0.0130403675 -0.0014612768
-0.0285923108 0.0152430758 0.0225351956
0.0258507095 0.0128293112 -0.0165713076
-0.0105453050 0.0102397036 0.0010844078
0.0093991458 0.0127550177 -0.0002450515
0.0274237990 0.0098331217 -0.0221111868
-0.0256519355 0.0125557855 -0.0191325936
0.0164235570 0.0137220621 -0.0005242098
-0.0007874472 0.0099645760 -0.0064667109
-0.0177455023 0.0099660009 -0.0164776016
-0.0156770572 0.0118033290 0.0010765996
0.0032744734 0.0117954277 0.0002449360
0.0309941322 0.0125930160 -0.0204132367
-0.0189255290 0.0116396137 -0.0186120067
-0.0128376810 0.0140711218 0.0007954743
-0.0123911789 0.0140830129 0.0010453593
-0.0119880913 0.0140779242 0.0010141265
0.0299757496 0.0125775561 -0.0135883484
-0.0185380541 0.0136952102 0.0070425179
0.0022635730 0.0131816790 0.0001941975
-0.0255967639 0.0131473839 0.0135456976
-0.0245694220 0.0130463541 0.0136878099
-0.0234016404 0.0100325104 -0.0191325936
0.0104158008 0.0137448646 -0.0003797505
-0.0047146538 0.0137440264 0.0005429965
-0.0192290768 0.0107617117 -0.0189451743
-0.0237589590 0.0129335411 0.0135332104
-0.0065397276 0.0142675117 0.0006080624
0.0103918510 0.0118817538 -0.0001415927
-0.0026467433 0.0142341666 0.0004753154
0.0151885850 0.0067692325 -0.0209343601
0.0013702298 0.0141937435 0.0001915898
0.0022702897 0.0138082989 0.0001434293
0.0284384154 0.0098313615 -0.0221798960
0.0303661041 0.0098298639 -0.0222732965
0.0205725543 0.0137709454 -0.0016478244
-0.0279597789 0.0151872709 0.0216918346
0.0134209897 0.0138593465 -0.0004200954
-0.0007179221 0.0096575581 -0.0088405851
0.0164262578 0.0140931681 -0.0005710591
-0.0185555480 0.0110638998 -0.0167795438
0.0272507109 0.0125114396 -0.0164932106
-0.0145423068 0.0142892413 -0.0000166390
-0.0115608117 0.0122819841 0.0009438451
-0.0272962749 0.0151256509 0.0207547899
-0.0183338150 0.0141490176 0.0056369361
0.0104161212 0.0141191855 -0.0003914628
-0.0157970414 0.0106789097 -0.0176020656
0.0307539292 0.0123555996 -0.0173834208
-0.0096823787 0.0121619590 0.0009650420
0.0308374614 0.0126571320 -0.0159465987
-0.0036969548 0.0118420795 0.0006315093
-0.0026572729 0.0122140981 0.0005690213
-0.0005927896 0.0120745935 0.0004948359
0.0004423978 0.0118146911 0.0004304256
0.0014735209 0.0118077435 0.0003679153
0.0071020396 0.0113969818 0.0000302102
0.0124047520 0.0118736848 -0.0002165455
0.0200889409 0.0129443556 -0.0043895710
-0.0207343251 0.0145315677 0.0117278006
0.0154157495 0.0121115819 -0.0003524218
0.0164120942 0.0119864978 -0.0003270376
0.0180224292 0.0119933486 -0.0001415778
-0.0026482856 0.0144874305 0.0004753154
-0.0016150465 0.0144786686 0.0004362743
-0.0086702919 0.0128965639 0.0008540582
-0.0076163961 0.0128870346 0.0007974487
-0.0233244598 0.0124216415 0.0078858789
-0.0228292607 0.0124094114 0.0076984670
-0.0065353429 0.0145200342 0.0005846377
0.0188121274 0.0099492837 -0.0055452753
0.0074011115 0.0118222162 -0.0000545848
0.0013710046 0.0144451931 0.0001811814
0.0022724280 0.0144362748 0.0001161080
0.0124186072 0.0139882825 -0.0003953669
-0.0105914427 0.0119237751 0.0009708758
0.0303972736 0.0116968304 -0.0221816245
0.0267152227 0.0112647414 -0.0219749976
0.0104172165 0.0143682174 -0.0004070792
-0.0179455206 0.0110089555 -0.0179456566
-0.0243262947 0.0127894841 0.0097599830
0.0094088251 0.0137502626 -0.0003426541
-0.0056218123 0.0145111792 0.0005456042
0.0194057971 0.0086835269 -0.0211739037
-0.0163306221 0.0145750418 0.0002176221
0.0164269395 0.0143414997 -0.0005866829
0.0174103044 0.0139794238 -0.0003758464
0.0262400918 0.0126424581 -0.0195386503
0.0266196914 0.0126113072 -0.0216626395
-0.0145585379 0.0110066868 0.0005039554
-0.0128469830 0.0145834014 0.0008110907
-0.0119139245 0.0146004111 0.0011859145
0.0284811705 0.0115948841 -0.0220715497
0.0286810771 0.0119210780 -0.0212253500
0.0150859309 0.0095695853 -0.0104960594
-0.0106120287 0.0139259398 0.0007902887
0.0288322344 0.0150879323 0.0105720963
0.0293796100 0.0149576887 0.0106553789
0.0302431993 0.0149142928 0.0106710102
0.0312811211 0.0148155950 0.0105304476
-0.0188414715 0.0112087838 -0.0185313094
-0.0177256688 0.0107686147 -0.0184610356
-0.0186480545 0.0115136579 -0.0002352837
0.0124198357 0.0146112889 -0.0004226957
0.0043103928 0.0131669007 0.0000848752
0.0272675119 0.0135311745 -0.0157904271
0.0305959322 0.0124141090 -0.0163838957
-0.0238778293 0.0126449987 0.0067457911
0.0093834559 0.0078315921 -0.0207802523
-0.0065371571 0.0147741549 0.0005846377
0.0013696728 0.0146973729 0.0001811814
0.0022711502 0.0146882124 0.0001161080
0.0303709544 0.0111544654 -0.0222170744
-0.0171116330 0.0126737431 0.0029194709
0.0189984404 0.0127659664 0.0003035199
0.0271488726 0.0117504634 -0.0219593886
-0.0188656300 0.0116803125 -0.0166103486
-0.0156426318 0.0141814202 0.0001395475
-0.0252904855 0.0112354904 -0.0193512384
0.0051934952 0.0093493033 -0.0109489653
-0.0056235725 0.0147650726 0.0005456042
-0.0047146371 0.0142504461 0.0005299803
-0.0036759591 0.0141147114 0.0004909318
-0.0115587329 0.0131743848 0.0009165239
-0.0106378114 0.0129119605 0.0009022038
0.0195350982 0.0142174363 -0.0005164016
-0.0217408240 0.0157106519 0.0145858284
0.0214293376 0.0139059648 -0.0014593322
0.0223821364 0.0140090846 -0.0014222208
-0.0120616099 0.0148611143 0.0012327712
0.0093773212 0.0108871460 -0.0000400860
-0.0233804509 0.0108285956 -0.0191117693
0.0104164230 0.0146183111 -0.0004070792
-0.0426484086 0.0169601813 0.0229412522
0.0293815359 0.0153700411 0.0106970426
0.0134223262 0.0143572278 -0.0004461203
-0.0417349525 0.0169109516 0.0223998483
-0.0087642325 0.0117078759 0.0010297354
-0.0146229705 0.0098854061 -0.0111988429
0.0051698508 0.0138828754 0.0000302102
-0.0086384220 0.0139071755 0.0007154550
-0.0075902557 0.0138975754 0.0006764065
0.0064101769 0.0128099434 -0.0000657383
0.0073752487 0.0127667040 -0.0001435447
0.0281850100 0.0125405304 -0.0141818170
0.0295237452 0.0156545117 0.0108532216
0.0310940631 0.0141989365 -0.0095589999
0.0094048083 0.0146267340 -0.0003341902
-0.0404370688 0.0162826367 0.0224414822
-0.0156577826 0.0148566589 0.0003206935
-0.0188975707 0.0147390887 0.0064490493
0.0083900103 0.0127600282 -0.0002079625
0.0203700103 0.0141878463 -0.0027965698
-0.0271563232 0.0146178193 0.0171314981
0.0306623466 0.0140832737 -0.0111676101
0.0104137091 0.0148695707 -0.0003914628
-0.0113884350 0.0148614496 0.0008501466
-0.0105918227 0.0148126595 0.0006982964
0.0201917328 0.0139588863 -0.0044051874
-0.0016153222 0.0142261386 0.0004440825
0.0260588899 0.0127919987 -0.0171647761
0.0260631517 0.0126005784 -0.0167899523
-0.0146049960 0.0146233328 -0.0000999365
-0.0235273652 0.0144834854 0.0136956181
-0.0162264705 0.0114600249 -0.0011411030
0.0253722928 0.0138168633 -0.0028434191
0.0181862265 0.0138688982 -0.0001311768
-0.0424602516 0.0171896033 0.0218480136
0.0043104729 0.0137946196 0.0000692438
-0.0410432927 0.0166367143 0.0230349507
0.0294282921 0.0149745867 -0.0021093953
-0.0152329681 0.0153468437 0.0004518908
0.0022691758 0.0150662139 0.0001161154
-0.0256770961 0.0144277588 0.0140392091
0.0164180361 0.0129792690 -0.0004305039
-0.0036840988 0.0148761347 0.0005046185
-0.0114874793 0.0138702020 0.0008963998
0.0323010162 0.0108495839 -0.0222736094
-0.0185546130 0.0100989621 -0.0173834134
-0.0019524200 0.0100111533 -0.0051079784
-0.0114150001 0.0153384022 0.0008163061
-0.0105940504 0.0153223835 0.0006913524
-0.0065655923 0.0128777362 0.0007408392
-0.0047173081 0.0131116100 0.0005690139
-0.0036821114 0.0128512643 0.0005475637
0.0299123786 0.0151440464 0.0037003513
0.0032861372 0.0127977878 0.0001590457
0.0294505619 0.0098284539 -0.0222860966
0.0277795121 0.0144855902 -0.0087312628
0.0144224996 0.0129827224 -0.0004305039
-0.0245884247 0.0147660188 0.0151012149
-0.0163752735 0.0150938928 0.0003321599
-0.0156520903 0.0155261606 0.0007517394
-0.0206911042 0.0121194571 0.0076359864
-0.0026584072 0.0155021437 0.0004909318
0.0083916141 0.0137597546 -0.0002430994
0.0301113576 0.0138223283 -0.0166212860
0.0196785219 0.0149662159 -0.0015346650
-0.0005819341 0.0138385259 0.0004030671
-0.0156671312 0.0118798278 0.0006904136
-0.0264534317 0.0154845342 0.0218480136
0.0032859007 0.0154371411 0.0000926834
-0.0461018942 0.0172441192 0.0218792465
-0.0276896507 0.0136188790 0.0146326777
0.0073737605 0.0147700906 -0.0001825858
0.0144269867 0.0139765553 -0.0005046818
0.0154303564 0.0139698721 -0.0005769152
0.0295077823 0.0153745599 -0.0000791121
0.0181443878 0.0128698349 -0.0001064483
0.0299291946 0.0153750516 0.0107595082
-0.0193344392 0.0118211135 -0.0188592840
-0.0271673948 0.0155582055 0.0229412522
-0.0219097175 0.0068017263 -0.0198549125
0.0056530880 0.0139712170 -0.0000322554
0.0063565029 0.0137764886 -0.0000908393
0.0073763980 0.0137675218 -0.0001747776
-0.0472769327 0.0178067684 0.0209109541
0.0022642268 0.0155712739 0.0001278277
-0.0457727052 0.0172086470 0.0225508120
0.0222922154 0.0148971714 -0.0014326442
0.0032845745 0.0156891048 0.0000926834
0.0063522449 0.0155327506 -0.0001103524
0.0322994143 0.0102388430 -0.0222811047
0.0181374140 0.0158026516 0.0022010636
-0.0105927652 0.0157039501 0.0006757360
0.0214302614 0.0122989081 -0.0014612693
0.0201974437 0.0146717615 -0.0045613591
-0.0159333944 0.0102389026 -0.0112300832
-0.0128958141 0.0156910270 0.0007954743
-0.0114168851 0.0157213956 0.0008110981
-0.0086258119 0.0149208345 0.0006432217
-0.0472542308 0.0180844106 0.0205361452
0.0184384510 0.0147337765 0.0004269090
0.0191300251 0.0147275813 0.0014436077
-0.0162715428 0.0157030076 0.0005247723
-0.0157395415 0.0159922466 0.0007062238
-0.0146341128 0.0158341154 0.0002158936
0.0032832222 0.0159411170 0.0000926834
-0.0161478892 0.0125668272 0.0008891802
-0.0215012580 0.0120405518 0.0056525525
-0.0026610037 0.0158824660 0.0004909318
-0.0421502106 0.0179500282 0.0198177304
-0.0418077968 0.0174509361 0.0203018691
0.0183701366 0.0160901695 0.0026071202
-0.0107274642 0.0160881802 0.0006783437
0.0273559131 0.0168063790 0.0116028693
-0.0116835376 0.0161077194 0.0008163061
0.0163561478 0.0078166313 -0.0211353991
-0.0389685072 0.0182932578 0.0209422018
-0.0096777966 0.0159497038 0.0006568860
0.0113967918 0.0117535666 -0.0001572091
0.0055865264 0.0147880539 -0.0000322703
0.0063551953 0.0147794150 -0.0001084078
0.0083880452 0.0147619583 -0.0002430994
0.0191334635 0.0148681961 0.0005705785
0.0285482183 0.0156814083 -0.0014638696
-0.0161686316 0.0163492151 0.0000770669
-0.0157285593 0.0164271593 0.0011078324
-0.0166428760 0.0139956549 0.0011390653
-0.0077964133 0.0108618140 0.0010245349
0.0163694583 0.0086641498 -0.0211511645
-0.0456344225 0.0183926485 0.0209109541
0.0273089111 0.0138707757 -0.0163448546
0.0093993330 0.0151295997 -0.0003055651
0.0294595212 0.0116664581 -0.0221395064
-0.0488892980 0.0182761736 0.0227226075
0.0223492943 0.0118649155 -0.0013861898
0.0154322414 0.0149642043 -0.0006257165
0.0164295249 0.0149611905 -0.0006393809
-0.0115394061 0.0163579434 0.0007642414
-0.0105970195 0.0163416564 0.0006705355
-0.0096877953 0.0139166526 0.0007486474
0.0294071659 0.0154225007 0.0039814692
0.0004618103 0.0142041519 0.0002801027
0.0032914085 0.0139269941 0.0001030844
-0.0472149290 0.0183578916 0.0201300737
-0.0469989292 0.0181156807 0.0210046675
-0.0414476357 0.0179215297 0.0195886698
-0.0406871550 0.0180262700 0.0196225103
-0.0399561264 0.0182292052 0.0199426617
-0.0172494389 0.0141660869 0.0017325338
0.0187243186 0.0154330805 0.0007017683
0.0190554298 0.0157837495 0.0003503766
0.0189395472 0.0162484534 0.0014201831
-0.0047358321 0.0159033537 0.0005690362
-0.0026654815 0.0162635334 0.0004987400
-0.0146520538 0.0163475126 0.0002540778
-0.0087202517 0.0108681284 0.0010746475
-0.0086324951 0.0159393139 0.0006373581
-0.0026691006 0.0165178962 0.0005065557
0.0104960762 0.0152029172 -0.0003914628
-0.0455836989 0.0186628178 0.0204736646
0.0144276870 0.0149727911 -0.0005378742
-0.0260500312 0.0154654719 0.0215981361
0.0114183463 0.0149892420 -0.0004226957
0.0207061544 0.0097189769 -0.0052329171
0.0283824056 0.0148216560 -0.0041709263
0.0124189788 0.0151109174 -0.0004279036
-0.0163351633 0.0142971314 -0.0001415778
0.0272414461 0.0135637969 -0.0120734368
0.0310093053 0.0126117766 -0.0166962463
0.0258694142 0.0127337128 -0.0146034900
0.0292661265 0.0150153041 0.0001551565
0.0093647046 0.0087648742 -0.0206728820
0.0103722978 0.0158009306 -0.0003713835
-0.0489033200 0.0187178850 0.0224102493
-0.0415647142 0.0171413831 0.0213378426
0.0004444951 0.0166056752 0.0002957191
0.0172924921 0.0148898736 -0.0005050395
-0.0417661257 0.0189174041 0.0170065518
-0.0216195993 0.0117309466 -0.0195113141
0.0124160517 0.0159866214 -0.0004246477
0.0298078880 0.0154671445 0.0011390653
-0.0086482046 0.0168339238 0.0006653350
0.0043110242 0.0147988796 0.0000399631
0.0273582451 0.0170906037 0.0117121842
-0.0484937914 0.0189570561 0.0216137376
-0.0208905227 0.0128008090 0.0105720963
-0.0036999853 0.0158937275 0.0005417075
0.0295262858 0.0136011653 -0.0207880605
0.0083803805 0.0157670751 -0.0002157707
-0.0166380517 0.0088423230 -0.0192419160
-0.0239236392 0.0147007406 0.0141016748
0.0004388252 0.0169864967 0.0003113355
-0.0466176607 0.0177822262 0.0212428477
0.0322382823 0.0118213892 -0.0222293455
0.0214280710 0.0158862844 -0.0014573801
-0.0065358495 0.0151542798 0.0005690139
-0.0417924635 0.0191905722 0.0167254414
0.0063435966 0.0167911276 -0.0000927914
0.0073590716 0.0167820305 -0.0001415927
-0.0086543849 0.0173446015 0.0006705355
0.0043043895 0.0158064663 0.0000497233
0.0103982287 0.0167537816 -0.0003192294
-0.0404649191 0.0169450790 0.0216606017
-0.0409534462 0.0168820359 0.0221291389
0.0322996862 0.0088162813 -0.0222511161
-0.0399690904 0.0162798092 0.0224883463
0.0171763077 0.0159556270 -0.0006647576
-0.0402073227 0.0184673145 0.0190993156
-0.0185688473 0.0111453943 -0.0174302701
-0.0075795939 0.0149106197 0.0006100293
-0.0047203479 0.0148851871 0.0005358513
-0.0026520779 0.0149943046 0.0004779305
-0.0016181218 0.0149849057 0.0004362892
-0.0005788682 0.0148470178 0.0003620591
0.0004599644 0.0148348399 0.0002722647
0.0013676127 0.0150757320 0.0001811888
0.0032908665 0.0148067698 0.0000829082
0.0050737867 0.0147936083 0.0000145789
-0.0418669768 0.0195006877 0.0168659892
-0.0465789847 0.0184772313 0.0204944815
-0.0446949489 0.0189121403 0.0207235571
0.0134207513 0.0149819069 -0.0004461203
-0.0156431720 0.0168970153 -0.0079191495
-0.0395480804 0.0186997056 0.0194429066
-0.0388489254 0.0191974863 0.0194553938
0.0180191658 0.0146191902 -0.0001415778
-0.0146450987 0.0169819295 0.0002124142
-0.0113125658 0.0169482008 0.0007156488
-0.0475073047 0.0195189118 0.0193804260
-0.0463663675 0.0195004791 0.0182351526
-0.0135960495 0.0175386742 0.0004987326
-0.0155461011 0.0168067589 0.0003456827
-0.0086568287 0.0175998136 0.0006705355
-0.0449183695 0.0180323049 0.0216918346
0.0103922263 0.0173833817 -0.0002899487
-0.0388869755 0.0187448487 0.0205361303
-0.0401864909 0.0174145438 0.0211608466
-0.0118782958 0.0143368989 0.0010765996
-0.0162423179 0.0151472688 -0.0195074100
0.0004289942 0.0174955837 0.0003425684
0.0073526381 0.0174126439 -0.0001181532
0.0083652334 0.0174042732 -0.0001572017
-0.0418648385 0.0197960585 0.0168503728
0.0312993489 0.0117923319 -0.0221966226
-0.0164062195 0.0172118433 -0.0072007421
-0.0157783739 0.0172023773 -0.0072163586
0.0195315033 0.0149697177 -0.0004539285
-0.0163083784 0.0120062940 0.0005991515
-0.0145788779 0.0118717402 0.0004685577
-0.0135713210 0.0119170584 0.0005584639
0.0293345265 0.0151533633 -0.0013597552
-0.0147399595 0.0177367330 0.0000770669
-0.0112659549 0.0177541301 0.0006783437
0.0083707413 0.0167744271 -0.0001767296
-0.0046238983 0.0169221461 0.0006054621
-0.0075887134 0.0159289204 0.0006139334
0.0293564908 0.0126401186 -0.0125107262
-0.0161567703 0.0167279691 0.0000302102
-0.0157389641 0.0172261000 -0.0000556801
0.0042916192 0.0168179199 0.0000926685
0.0103874104 0.0176372863 -0.0002587084
-0.0404479094 0.0176184289 0.0204424318
0.0184532180 0.0150401965 0.0010765996
-0.0254896805 0.0119924024 -0.0192332361
0.0190895945 0.0167886205 -0.0064615030
0.0004272284 0.0177488215 0.0003425684
0.0014560921 0.0176112615 0.0002996232
0.0144245801 0.0159725174 -0.0005300660
0.0320229232 0.0124986619 -0.0219437648
0.0154297454 0.0159627013 -0.0006218124
-0.0416941680 0.0200567357 0.0164911803
-0.0404874645 0.0200468488 0.0166161265
-0.0441150628 0.0202230215 0.0178186651
0.0124114165 0.0169891044 -0.0004109833
-0.0257413276 0.0087277237 -0.0231869239
-0.0407224186 0.0190160573 0.0176749881
0.0073467335 0.0177926235 -0.0000908319
0.0083602471 0.0177836269 -0.0001337770
-0.0464472882 0.0199503787 0.0176416691
-0.0076069748 0.0169508122 0.0006490704
0.0123923896 0.0087562036 -0.0207771305
-0.0157421269 0.0178626105 -0.0000687037
-0.0152873350 0.0178765655 0.0001395475
-0.0016238140 0.0158712603 0.0004362967
0.0042744419 0.0177073181 0.0001629498
-0.0386251025 0.0197928920 0.0190836992
-0.0154192029 0.0172050260 -0.0064823274
-0.0159146078 0.0170920230 -0.0057951529
0.0023103030 0.0160597451 0.0001573917
-0.0465207733 0.0172394589 0.0217230823
0.0014466466 0.0179942772 0.0003347602
0.0024752179 0.0177300647 0.0002878886
-0.0397198983 0.0170910321 0.0218480136
0.0193646476 0.0158450678 -0.0004539285
-0.0404270329 0.0197027773 0.0173306223
-0.0065473979 0.0159187801 0.0005905088
-0.0404927693 0.0203120001 0.0162881371
-0.0400862284 0.0203489885 0.0167566743
0.0198503062 0.0135003068 -0.0020469297
0.0285352953 0.0125748739 -0.0136039574
-0.0112799471 0.0183960423 0.0007017683
-0.0405914448 0.0185421184 0.0183630642
-0.0465321653 0.0204785094 0.0168503877
-0.0155722341 0.0183954686 0.0001863893
-0.0016321437 0.0168854967 0.0004421528
0.0186291672 0.0127596110 0.0001785886
0.0171716549 0.0169578940 -0.0006218124
0.0032776007 0.0161951110 0.0001161080
0.0051115835 0.0157157853 0.0000145864
0.0073664291 0.0157755837 -0.0001611132
-0.0480298288 0.0201670900 0.0197240170
-0.0409535281 0.0173687711 0.0203799512
-0.0143618500 0.0180523507 -0.0000478793
-0.0147393188 0.0181180537 0.0000614431
0.0190002322 0.0162286460 -0.0047019217
-0.0128432838 0.0150929615 0.0007850733
0.0287901573 0.0126284212 -0.0126981381
-0.0005875556 0.0158596970 0.0003737714
0.0004528603 0.0158457868 0.0002781209
0.0013985774 0.0158631541 0.0001995917
-0.0462782942 0.0207541063 0.0166629758
-0.0455740131 0.0207589976 0.0168607887
-0.0447706915 0.0207437053 0.0168659892
-0.0440385900 0.0207429752 0.0170065518
0.0312830769 0.0101366080 -0.0222561155
-0.0486158095 0.0199530646 0.0206402596
-0.0404231064 0.0205910876 0.0161319729
-0.0397706144 0.0206385516 0.0167462584
0.0194229707 0.0171841905 -0.0034993682
-0.0167094469 0.0175329000 -0.0063886214
-0.0169781558 0.0174775720 -0.0070133302
-0.0153270122 0.0176638849 -0.0073524658
0.0164310597 0.0159551948 -0.0006881822
-0.0162768662 0.0176457092 -0.0089030582
0.0063097747 0.0184435695 0.0000692587
-0.0157340989 0.0176570863 -0.0087104449
-0.0208069086 0.0122018717 0.0095413383
-0.0146689517 0.0149712414 0.0001310091
-0.0161208548 0.0186256692 -0.0001415778
-0.0016457634 0.0179027691 0.0004694816
0.0190560557 0.0163731314 -0.0057951529
0.0043881750 0.0184691250 0.0002124142
-0.0155109158 0.0179461464 -0.0069508571
-0.0417271890 0.0181508064 0.0185995605
-0.0045212945 0.0185802206 0.0006549191
-0.0036058640 0.0185665004 0.0005976539
-0.0026940396 0.0185535997 0.0005455967
-0.0016572485 0.0185404643 0.0004987400
0.0014369944 0.0185039379 0.0003659930
0.0024599684 0.0184945613 0.0003425684
-0.0156445019 0.0186721645 0.0003894176
0.0191108063 0.0172228925 -0.0068883840
0.0043976652 0.0088877734 -0.0204132367
0.0083496617 0.0184180327 -0.0000791121
0.0093615726 0.0184093192 -0.0001181532
0.0292427763 0.0153434761 -0.0004851688
-0.0464405455 0.0209947303 0.0160382595
-0.0457333289 0.0209985748 0.0162256714
-0.0445808060 0.0210006088 0.0164833721
-0.0438707285 0.0210041516 0.0166629758
-0.0406990089 0.0208821446 0.0160382595
-0.0396322571 0.0209024735 0.0164443161
-0.0155707775 0.0181345455 -0.0074818525
-0.0147871710 0.0181476176 -0.0072475914
-0.0177408159 0.0173148662 -0.0035774503
-0.0136273904 0.0129077397 0.0004237723
-0.0065701855 0.0169415511 0.0006451737
-0.0055340668 0.0169320777 0.0006354060
-0.0037150560 0.0169122368 0.0005729403
-0.0447769277 0.0190768018 0.0195053723
0.0222903267 0.0184932053 -0.0014222283
0.0197346285 0.0138695836 -0.0016596112
0.0186470523 0.0137432702 0.0001573917
0.0033712899 0.0178469718 0.0002462473
-0.0413003899 0.0183989666 0.0180373248
-0.0026979661 0.0188087225 0.0005534049
-0.0016593104 0.0187945366 0.0004987400
0.0093944557 0.0157575980 -0.0002860446
0.0024567908 0.0187486038 0.0003503766
0.0034831567 0.0186104625 0.0003035273
-0.0026870249 0.0179173797 0.0005378034
0.0114423148 0.0169418529 -0.0003758464
-0.0384178124 0.0175462887 0.0222540703
0.0164243877 0.0169592425 -0.0006237645
0.0093563376 0.0186641589 -0.0000869203
-0.0442630909 0.0212595314 0.0161632057
-0.0438469462 0.0212636590 0.0162881520
-0.0395244919 0.0211719647 0.0162048545
-0.0389691778 0.0212109834 0.0166942086
-0.0144728702 0.0183274969 -0.0077942107
0.0124404998 0.0179407150 -0.0003780741
-0.0147733269 0.0188134424 0.0000815373
-0.0106070368 0.0169812962 0.0006835591
-0.0447372831 0.0212369487 0.0158404466
0.0198246241 0.0103263874 -0.0013909880
-0.0055547664 0.0179551095 0.0006822627
0.0224138014 0.0187415294 -0.0014222208
0.0063028196 0.0188252777 0.0001004990
-0.0076269908 0.0179745592 0.0006881189
0.0054574003 0.0158436559 -0.0000447650
-0.0016666045 0.0190511569 0.0005221721
-0.0160430670 0.0148347169 -0.0197989512
-0.0154493405 0.0184433907 -0.0067946855
0.0114179607 0.0139910989 -0.0003934149
0.0056219874 0.0167147554 -0.0000478793
-0.0484301783 0.0210389718 0.0191930290
0.0093841488 0.0167649016 -0.0002372433
-0.0204707757 0.0116537139 0.0028882381
-0.0208935961 0.0120460913 0.0058868211
-0.0395395122 0.0167067498 0.0224013235
0.0221676119 0.0178703330 -0.0014456455
-0.0026746998 0.0170262083 0.0005143713
-0.0005963324 0.0168732107 0.0003835466
0.0004355339 0.0172402710 0.0003191438
-0.0056254202 0.0142587051 0.0005664211
-0.0154235875 0.0181953982 -0.0068571512
-0.0452263393 0.0175791271 0.0224414822
-0.0473576747 0.0208831653 0.0177874323
-0.0045259641 0.0190899186 0.0006549265
-0.0036161738 0.0190782771 0.0006219503
-0.0457295515 0.0204929933 0.0171731468
-0.0136846928 0.0168676525 0.0004913490
-0.0437057875 0.0214959905 0.0156842675
0.0051368689 0.0168583244 0.0000302177
-0.0123200445 0.0143504068 0.0012327712
0.0224136822 0.0189899690 -0.0014222208
0.0034742327 0.0191199929 0.0003347602
-0.0170784555 0.0176319554 -0.0053890962
0.0223800242 0.0168242231 -0.0014534760
-0.0147292120 0.0141527951 0.0000993814
0.0014701905 0.0168483853 0.0002527442
0.0024037873 0.0168697014 0.0002284255
0.0032922486 0.0168038309 0.0001561772
-0.0423565246 0.0176830553 0.0202550199
-0.0486145653 0.0205260366 0.0201925542
-0.0397231542 0.0180477723 0.0205751862
-0.0386902802 0.0214739665 0.0164234992
0.0190955922 0.0138358027 0.0004965123
0.0154225836 0.0169670992 -0.0005612988
-0.0147343120 0.0185267963 -0.0070601795
0.0252574943 0.0140843764 -0.0006101076
0.0164153539 0.0179682374 -0.0005281139
-0.0010301853 0.0100834351 -0.0026716311
-0.0056289481 0.0151467696 0.0005560052
-0.0112724109 0.0181385800 0.0006861519
-0.0106122075 0.0178745240 0.0006705355
0.0042619640 0.0182177238 0.0002176221
-0.0066013215 0.0189017095 0.0007330310
-0.0463227890 0.0204948299 0.0170690324
0.0093720024 0.0177750066 -0.0001767296
0.0223300159 0.0159154572 -0.0014438573
-0.0106311282 0.0187729150 0.0007017758
-0.0087094149 0.0188415423 0.0007065814
-0.0436260588 0.0217398629 0.0152027216
-0.0016795853 0.0195640251 0.0005612131
-0.0161411390 0.0172327161 -0.0000322554
0.0034688832 0.0195016153 0.0003503766
0.0193770453 0.0169079266 -0.0025154594
-0.0055813072 0.0196175650 0.0007252004
-0.0465551503 0.0187507942 0.0194741394
-0.0388841517 0.0199036300 0.0186047610
-0.0136553077 0.0149496868 0.0004581269
-0.0140678948 0.0188678578 -0.0000166390
-0.0272570252 0.0132747963 0.0135394540
0.0224132352 0.0192401782 -0.0014066044
-0.0445983820 0.0205363519 0.0172314551
-0.0473261811 0.0222771466 0.0167410579
-0.0161359981 0.0141799077 0.0000458341
-0.0136349080 0.0139272250 0.0004222151
0.0014171330 0.0196512602 0.0004245620
-0.0056413123 0.0159111321 0.0005820375
-0.0112857139 0.0189080983 0.0007017683
-0.0143656759 0.0185324289 -0.0081065614
-0.0055858782 0.0198738202 0.0007330086
-0.0462065600 0.0215364359 0.0155697372
-0.0045396620 0.0197308473 0.0006861445
-0.0400251560 0.0192716867 0.0180060770
-0.0393091030 0.0185480379 0.0202706363
-0.0416049324 0.0203027055 0.0159757938
-0.0465730838 0.0190239474 0.0187369790
0.0052995486 0.0178202614 0.0000848603
0.0113834357 0.0187660530 -0.0002333391
-0.0388061740 0.0217997953 0.0158910211
-0.0414913557 0.0196305811 0.0172876772
0.0014433777 0.0182482675 0.0003425684
-0.0485845841 0.0213127770 0.0188494381
-0.0455935113 0.0191379935 0.0188598391
0.0044013737 0.0045991596 -0.0127606038
0.0085258270 0.0109213963 -0.0000166539
-0.0456176810 0.0212394670 0.0156842675
-0.0465382822 0.0168570653 0.0225708988
0.0024424614 0.0196402669 0.0003933217
-0.0395246111 0.0176120624 0.0213872995
0.0034643160 0.0197567567 0.0003659930
-0.0388001390 0.0178886950 0.0216527935
