# .PCD v0.7 - Point Cloud Data file format
VERSION 0.7
FIELDS x y z
SIZE 4 4 4
TYPE F F F
COUNT 1 1 1
WIDTH 1195
HEIGHT 1
VIEWPOINT 0 0 0 1 0 0 0
POINTS 1195
DATA ascii
0.0026795415 0.0280822683 -0.0005808717
0.0253212396 0.0245085675 0.0116529148
0.0189742614 0.0260185283 0.0059629064
0.0196046028 0.0255171973 0.0058195945
-0.0083668325 0.0276155788 0.0001453513
-0.0073426608 0.0276649464 0.0000652948
-0.0063359886 0.0276236031 -0.0000248945
0.0166030340 0.0265509468 -0.0047507677
0.0006193405 0.0283697490 -0.0003965816
-0.0465529785 0.0304372106 0.0377083160
-0.0445698798 0.0359976590 0.0367920734
0.0185339376 0.0266486127 0.0019101405
-0.0149873439 0.0280460361 0.0004342699
-0.0142215658 0.0277426187 0.0003669986
-0.0133816209 0.0277647916 0.0003431791
-0.0529306307 0.0327998772 0.0429141708
0.0161897633 0.0271496344 -0.0032202473
0.0179277770 0.0274750981 -0.0035638309
-0.0441204831 0.0339687169 0.0357300676
-0.0443282649 0.0338756442 0.0351990797
-0.0432472602 0.0337900370 0.0349491872
0.0106365476 0.0276438948 -0.0011612496
0.0116879782 0.0276096482 -0.0012736863
-0.0173729863 0.0284715611 -0.0007269329
-0.0174944941 0.0282367487 -0.0000498688
0.0006081590 0.0285902265 -0.0003653488
-0.0439469367 0.0345983207 0.0343869515
-0.0433130562 0.0345346257 0.0341787226
-0.0444710031 0.0362519026 0.0365734287
-0.0183361340 0.0286876205 -0.0007089174
-0.0173039082 0.0289299954 -0.0008338711
-0.0165430252 0.0282966960 0.0003718042
-0.0152862500 0.0286494065 0.0000528598
0.0135619342 0.0281893406 -0.0014273396
0.0145931579 0.0281834472 -0.0014210960
0.0152249970 0.0281468090 -0.0015647805
-0.0435941964 0.0337565616 0.0362923034
0.0056359936 0.0260438118 -0.0010337776
0.0126186507 0.0275945980 -0.0014069772
0.0156603213 0.0273138899 -0.0029547459
0.0186343938 0.0275641847 -0.0036106801
-0.0403877199 0.0326087624 0.0262970384
-0.0023349824 0.0284850057 -0.0001227504
0.0056216847 0.0276470836 -0.0008168539
-0.0188520122 0.0288037527 0.0045885574
-0.0175938327 0.0286643747 0.0040966105
-0.0167630184 0.0282907430 0.0034953260
-0.0013419634 0.0266465116 -0.0004281572
0.0005969403 0.0288109425 -0.0003341159
0.0151401982 0.0286666397 0.0016836876
-0.0445041731 0.0381193236 0.0368076898
-0.0436811075 0.0374836773 0.0368233062
-0.0183135476 0.0291755218 -0.0008541814
-0.0177277643 0.0291437935 -0.0009088388
-0.0168019030 0.0292762909 -0.0001748151
-0.0152774807 0.0292730127 0.0002218762
-0.0142382812 0.0293303896 0.0004238614
0.0194376409 0.0273618903 0.0007153952
0.0015988534 0.0256229732 -0.0007776415
-0.0445956588 0.0342791229 0.0356988348
0.0167949870 0.0260769073 -0.0004090762
0.0106205307 0.0283949021 -0.0010962507
0.0116736563 0.0283587743 -0.0012118167
-0.0013530052 0.0255197044 -0.0005683622
-0.0083428044 0.0285815317 0.0002946237
-0.0171655957 0.0286535416 0.0030268037
-0.0155796427 0.0278925765 0.0022615397
-0.0093594845 0.0291984286 0.0004342699
0.0006308814 0.0256516505 -0.0007058030
0.0044446196 0.0286629219 -0.0004793575
0.0187641662 0.0265226793 -0.0022519550
-0.0174724814 0.0285100210 0.0012463906
-0.0162037183 0.0284033660 0.0009236315
-0.0073440764 0.0286967140 0.0002196932
-0.0063466374 0.0285971034 0.0001332664
-0.0103573408 0.0269047488 0.0001600960
0.0002417078 0.0270761978 -0.0005027822
0.0005856880 0.0290319044 -0.0003028682
-0.0103725325 0.0277825352 0.0002827698
-0.0003039672 0.0246737022 -0.0007604531
0.0016407536 0.0265748594 -0.0006708524
-0.0123747159 0.0285554398 0.0004243904
-0.0167374779 0.0206222255 0.0044948515
0.0106139835 0.0287168268 -0.0010712540
0.0116680413 0.0286794696 -0.0011899567
0.0159468912 0.0285504479 -0.0016116297
0.0076044463 0.0255875830 -0.0012146330
-0.0167001579 0.0285277609 0.0030268037
-0.0033413174 0.0276750345 -0.0001336357
0.0034102255 0.0282892678 -0.0005548468
0.0034804658 0.0287723523 -0.0004658571
0.0179311987 0.0278669205 -0.0036419204
0.0186356790 0.0279629994 -0.0036575294
-0.0428456739 0.0331587270 0.0348242559
-0.0103264730 0.0286737848 0.0004030296
-0.0133630130 0.0286506657 0.0004206800
0.0169840716 0.0262320209 -0.0001591987
0.0177023746 0.0266688634 -0.0009838066
0.0182888340 0.0267621856 -0.0011274836
0.0126765659 0.0285550784 -0.0013374707
0.0158361867 0.0287786927 -0.0015335402
-0.0104290154 0.0295040552 0.0005092376
0.0151573196 0.0281061027 -0.0008151329
0.0066742636 0.0266607497 -0.0010413027
0.0096157296 0.0265938882 -0.0012087247
0.0155416802 0.0287638325 -0.0013044944
-0.0424490348 0.0364391729 0.0328173973
-0.0174005982 0.0284859706 0.0021938661
-0.0155263366 0.0261195917 0.0028393844
0.0085942186 0.0256520677 -0.0012540019
-0.0123733673 0.0296561066 0.0005702579
-0.0087368991 0.0298484880 0.0004967430
0.0096540265 0.0291796047 -0.0009400717
0.0103922365 0.0291571561 -0.0010025448
0.0016849709 0.0286631566 -0.0004340506
0.0077301562 0.0276679862 -0.0010242930
0.0085870652 0.0265969802 -0.0011600426
-0.0453491807 0.0343502015 0.0391347148
-0.0171740372 0.0291290376 -0.0008932150
-0.0151792932 0.0279083233 0.0007934773
-0.0083470438 0.0294707362 0.0004071945
-0.0073674526 0.0295633953 0.0003488862
-0.0063650049 0.0295249987 0.0002859065
-0.0604460537 0.0400906056 0.0396969505
0.0016542820 0.0294286739 -0.0003549329
0.0026578566 0.0294200797 -0.0003898537
-0.0149264764 0.0261429083 0.0018710920
0.0158456750 0.0289589483 -0.0016584864
0.0156015605 0.0290632192 -0.0012211895
0.0066415910 0.0276344065 -0.0009228683
0.0153738633 0.0293269958 -0.0010025448
0.0153190494 0.0292632077 -0.0003778434
-0.0101415981 0.0292255748 0.0004655102
-0.0081827957 0.0300445054 0.0004655102
-0.0074013639 0.0300147701 0.0004217827
-0.0062928032 0.0299762134 0.0003718042
-0.0003524760 0.0276185889 -0.0004127419
0.0006455069 0.0277583245 -0.0004632047
0.0014974435 0.0279614795 -0.0004910624
0.0194065571 0.0277147759 -0.0035950562
-0.0615885779 0.0408323705 0.0406496264
-0.0603493303 0.0409234390 0.0406339951
0.0164472088 0.0280884001 -0.0027048683
0.0036177912 0.0294696558 -0.0003969243
0.0045770779 0.0295080189 -0.0004586747
-0.0611573309 0.0404864028 0.0402591862
-0.0457040146 0.0395081490 0.0394314416
0.0066083018 0.0286127161 -0.0008038899
-0.0133474600 0.0303391721 0.0006490180
-0.0123438556 0.0303104836 0.0006529221
-0.0113713797 0.0295854043 0.0005428025
-0.0452913716 0.0336176828 0.0352303125
-0.0604839027 0.0406030715 0.0401030071
0.0166199990 0.0287569258 -0.0036627299
0.0187205225 0.0267762486 -0.0002216643
0.0096394168 0.0296191517 -0.0008723980
0.0105931219 0.0295828823 -0.0009817204
0.0156977698 0.0292144958 -0.0023456609
0.0152606294 0.0295390841 -0.0012940711
0.0056409482 0.0286539439 -0.0006792417
0.0164883211 0.0291878972 -0.0032983369
-0.0173646528 0.0296585578 -0.0008671677
-0.0123697426 0.0306498613 0.0006966495
0.0160089508 0.0267870668 -0.0057815332
-0.0150662418 0.0297883023 0.0006451139
-0.0078590978 0.0302536692 0.0004655102
-0.0073076691 0.0303439144 0.0004459897
-0.0063122045 0.0303108338 0.0004092955
0.0159545280 0.0290131364 -0.0037512428
0.0176754706 0.0287203398 -0.0037029556
0.0186340511 0.0286763590 -0.0036750308
0.0194372162 0.0286796149 -0.0036491922
0.0135661960 0.0279740635 -0.0014523289
0.0145988204 0.0279640127 -0.0014648235
-0.0471098050 0.0340937600 0.0390722491
-0.0598820671 0.0421039686 0.0403216518
-0.0592048392 0.0420111045 0.0400717594
0.0158221200 0.0292776246 -0.0037928841
0.0194372423 0.0292857755 -0.0036887771
0.0127128297 0.0290680658 -0.0012899137
0.0016441995 0.0246479753 -0.0009150750
-0.0425176844 0.0357468575 0.0330126025
-0.0121403653 0.0290685985 0.0004967430
0.0152949523 0.0296108890 -0.0024393669
-0.0152250249 0.0248262268 0.0021444017
-0.0083563570 0.0305143911 0.0005279907
0.0057270452 0.0296125356 -0.0005714914
-0.0153561961 0.0256346371 0.0022355074
-0.0053647496 0.0278170127 -0.0000264517
-0.0141369486 0.0295480434 0.0004342699
-0.0153701361 0.0306635369 0.0009860971
-0.0142992120 0.0305942986 0.0008340904
-0.0072124954 0.0306722242 0.0004655102
-0.0063297357 0.0306443591 0.0004405284
-0.0599956065 0.0424645543 0.0404778309
-0.0595868528 0.0424210355 0.0403841175
-0.0588229224 0.0422227234 0.0396969505
0.0158217363 0.0294803921 -0.0038033074
-0.0043353010 0.0286801141 0.0000887194
-0.0123361144 0.0269647408 0.0002749839
-0.0157573763 0.0299517121 -0.0008775985
-0.0154278111 0.0297529493 0.0000719407
-0.0003714489 0.0286268126 -0.0002810156
0.0056877602 0.0302938465 -0.0004871583
0.0086885868 0.0296468232 -0.0008026382
-0.0023180491 0.0304635074 0.0000677684
0.0193300843 0.0276312474 0.0029955634
-0.0169401038 0.0290801581 -0.0000967255
0.0006013771 0.0239259694 -0.0009182116
-0.0154477004 0.0308253039 0.0019843185
0.0066959709 0.0260135029 -0.0011212400
-0.0143740643 0.0286346246 0.0002976188
-0.0013503528 0.0286599863 -0.0002141541
-0.0063408650 0.0308664683 0.0004592666
0.0178215131 0.0259136464 0.0014494190
-0.0183140580 0.0297081638 -0.0008971116
-0.0590292886 0.0426231921 0.0400092937
-0.0586232394 0.0425796360 0.0399155952
-0.0396859422 0.0319405198 0.0243916865
0.0096251313 0.0300588924 -0.0008073247
0.0116487602 0.0296481643 -0.0011071956
0.0127025209 0.0296067763 -0.0012399501
-0.0603618845 0.0416167527 0.0408838876
-0.0164012183 0.0284379292 -0.0007561392
-0.0172005463 0.0302406196 0.0001687759
-0.0133485477 0.0296580661 0.0005401501
0.0056754816 0.0306241717 -0.0004465675
0.0097147329 0.0303951856 -0.0007308146
-0.0170806851 0.0297625009 0.0000073963
-0.0043535680 0.0296664741 0.0002583617
-0.0033768660 0.0296203066 0.0001297274
-0.0023809283 0.0296314750 0.0000047812
-0.0147171188 0.0315743685 0.0014962757
0.0189882945 0.0266270805 0.0056443121
0.0026432758 0.0287478473 -0.0004611260
0.0045423415 0.0289841909 -0.0004637411
-0.0189609360 0.0310494397 -0.0009921363
-0.0183167774 0.0306680147 -0.0009728989
0.0192242060 0.0254604090 0.0053694379
-0.0161567051 0.0306738857 -0.0019481203
-0.0157520715 0.0307094473 -0.0017834252
-0.0394426957 0.0322462618 0.0238919239
0.0096996389 0.0307336841 -0.0006527102
-0.0043713357 0.0312384535 0.0003967935
0.0126800155 0.0303795580 -0.0011025018
0.0116619952 0.0290013123 -0.0011649600
-0.0123849567 0.0277403053 0.0003530511
-0.0605293289 0.0434597135 0.0418834127
-0.0587728992 0.0429564416 0.0401342399
-0.0003093279 0.0296136010 -0.0001732504
-0.0438967049 0.0422833860 0.0429766513
0.0194369648 0.0296915565 -0.0037095940
-0.0612728447 0.0396317095 0.0399468280
-0.0445823893 0.0410687253 0.0390097685
-0.0166125651 0.0304189865 -0.0010077527
-0.0172280502 0.0278474409 0.0057308730
-0.0155822840 0.0315091088 0.0009786540
-0.0142225083 0.0314615145 0.0010941231
0.0076490138 0.0266555008 -0.0011081642
-0.0589227974 0.0433344841 0.0403528847
-0.0444412082 0.0423647314 0.0392700620
0.0193029791 0.0269972328 -0.0035430139
-0.0465025082 0.0309587251 0.0387442745
0.0158358365 0.0297430325 -0.0039855111
0.0165585838 0.0295414347 -0.0037043861
0.0086784605 0.0286800507 -0.0009643605
0.0016928648 0.0311820451 -0.0001904315
0.0026592163 0.0311553646 -0.0002279079
0.0179605559 0.0265454892 0.0008715668
0.0176636130 0.0265529919 0.0000438371
-0.0191453341 0.0314039662 -0.0012055805
-0.0460785478 0.0387277752 0.0398114808
-0.0164294969 0.0312025901 -0.0020645431
-0.0157389659 0.0312279109 -0.0018615148
-0.0592734441 0.0430419147 0.0403841175
-0.0156106744 0.0283205416 -0.0007422513
0.0194372069 0.0300949309 -0.0037408343
-0.0455032364 0.0335664898 0.0390097685
-0.0113768931 0.0277077835 0.0003223473
-0.0452580154 0.0415880904 0.0393377431
-0.0445120409 0.0419071764 0.0392908789
-0.0445472077 0.0418123975 0.0395407714
-0.0433385670 0.0421323031 0.0411025323
-0.0453198180 0.0424309373 0.0393845923
-0.0156111438 0.0319594145 0.0011370683
-0.0430840775 0.0423430875 0.0398531146
-0.0431509763 0.0419000015 0.0398968495
-0.0086325873 0.0300632846 0.0004967430
0.0160552654 0.0299903434 -0.0042197723
0.0162192155 0.0300996918 -0.0037824756
0.0176914595 0.0296552796 -0.0036872721
0.0186318122 0.0296956841 -0.0037050119
0.0016710756 0.0314171538 -0.0001123419
-0.0180495847 0.0285426658 0.0023708546
-0.0461982861 0.0401301458 0.0400405265
0.0083083380 0.0312145706 -0.0005027822
0.0159381218 0.0289085489 -0.0027517176
-0.0133047607 0.0315840170 0.0008584314
-0.0053395964 0.0306140278 0.0004123950
-0.0191667732 0.0316737592 -0.0014398342
-0.0603742227 0.0427322462 0.0410921164
-0.0611940101 0.0413934439 0.0411181487
-0.0113224518 0.0285530668 0.0004178935
-0.0183759909 0.0315254778 -0.0010984933
-0.0173939187 0.0314724147 -0.0011040589
-0.0154080857 0.0316851661 0.0021695623
0.0105795469 0.0300223697 -0.0009150899
0.0194370262 0.0302980151 -0.0037512428
-0.0093916375 0.0280833188 0.0002859065
-0.0429624915 0.0424004868 0.0409775861
-0.0161106680 0.0280638803 0.0030268037
0.0155712105 0.0304289218 -0.0033139533
0.0046025254 0.0306618977 -0.0003603643
-0.0093447287 0.0286570396 0.0003619248
0.0160754248 0.0301314313 -0.0044696573
0.0167816542 0.0303869564 -0.0023560768
-0.0093803760 0.0316824839 0.0007064843
0.0066026840 0.0307842623 -0.0004763401
0.0156006925 0.0301430840 -0.0036263040
0.0162153542 0.0303134341 -0.0037512428
-0.0189639945 0.0318909436 -0.0014086014
-0.0592966303 0.0436585844 0.0409619696
-0.0159996953 0.0311299283 -0.0022988042
-0.0181953777 0.0286318976 0.0038545334
-0.0013784415 0.0315294936 0.0000932792
-0.0172274578 0.0301650483 0.0007934773
-0.0138068292 0.0293269623 0.0004655102
0.0136864632 0.0306426603 -0.0010934344
0.0096130921 0.0286112968 -0.0010146967
0.0194378980 0.0304958094 -0.0037824756
-0.0192324314 0.0318626761 -0.0015647805
-0.0183954164 0.0319296494 -0.0011649674
-0.0173870269 0.0318933874 -0.0011587238
-0.0456610098 0.0427443609 0.0380570926
-0.0452831835 0.0427882671 0.0389420874
-0.0442630947 0.0427251533 0.0388692059
-0.0431223735 0.0426879600 0.0395563878
-0.0156769510 0.0315231606 -0.0018771312
-0.0434347987 0.0426885784 0.0391854681
-0.0091984589 0.0294605512 0.0004592666
-0.0156214703 0.0312607139 0.0000750700
-0.0131814238 0.0322740525 0.0009444484
-0.0428560004 0.0426491499 0.0407277085
0.0194911994 0.0274505112 0.0061815586
-0.0580389425 0.0441451073 0.0399468280
-0.0427213609 0.0431572795 0.0390097685
-0.0437150598 0.0424970165 0.0425705798
0.0158672184 0.0305578727 -0.0044071842
0.0146373864 0.0306641851 -0.0010466224
0.0006573161 0.0315980539 0.0001000369
-0.0113788750 0.0323176906 0.0009028146
-0.0103601273 0.0322754085 0.0008559430
-0.0053906888 0.0316859335 0.0005238333
-0.0581678674 0.0438937247 0.0401967056
-0.0202841405 0.0213847701 0.0088365516
-0.0155892614 0.0306522567 0.0000768059
0.0189328641 0.0255347248 0.0050508436
0.0166994855 0.0305797700 -0.0030064008
0.0106847817 0.0306396279 -0.0007977730
0.0116165234 0.0306453127 -0.0009263179
0.0126639493 0.0309332702 -0.0010056666
-0.0192133207 0.0320635363 -0.0016272462
-0.0185863916 0.0321302488 -0.0012628383
-0.0173952635 0.0321111828 -0.0011587238
-0.0453597084 0.0431244373 0.0384006836
-0.0157301296 0.0322919935 0.0011214518
-0.0157766026 0.0325935856 0.0021343657
-0.0156658981 0.0318125412 -0.0020957759
-0.0103052873 0.0300131235 0.0005592161
-0.0094328541 0.0298386011 0.0005101392
-0.0132199097 0.0325170755 0.0010277459
-0.0581697375 0.0445166081 0.0401342399
-0.0426596478 0.0434257016 0.0388535894
0.0027030723 0.0299494285 -0.0003372303
0.0036589818 0.0300365482 -0.0003544188
0.0046257023 0.0300038699 -0.0004278219
0.0053430740 0.0299065914 -0.0004923663
-0.0033392610 0.0286400560 0.0000016594
-0.0022935329 0.0289673526 -0.0000717363
-0.0003546702 0.0306068752 -0.0000654778
0.0005807744 0.0306287874 -0.0001221022
-0.0433778912 0.0418267548 0.0393741913
-0.0189399850 0.0323014408 -0.0015023074
-0.0043724123 0.0276764985 -0.0000867120
-0.0022911525 0.0309994835 0.0001045743
-0.0442769527 0.0431061462 0.0385256298
-0.0113533419 0.0306113716 0.0006576309
0.0006413308 0.0247659963 -0.0008243120
0.0106064957 0.0315080136 -0.0006790257
0.0115933567 0.0315243602 -0.0008109605
0.0126491142 0.0314861760 -0.0009192398
-0.0166010540 0.0217466597 0.0050779115
-0.0191942770 0.0322642624 -0.0016897193
-0.0182871278 0.0322836190 -0.0012256524
-0.0173935834 0.0323228166 -0.0011821485
-0.0461886004 0.0431665257 0.0384163000
-0.0452103317 0.0432994366 0.0383017696
-0.0458063856 0.0435055494 0.0386037119
-0.0157997739 0.0328806937 0.0012463906
-0.0131029729 0.0327263400 0.0009965056
0.0152907111 0.0298268814 -0.0024081266
-0.0426284075 0.0437107086 0.0387598909
0.0158384014 0.0308443699 -0.0040948335
0.0177015755 0.0306041706 -0.0036722219
0.0186324604 0.0306026321 -0.0037793315
0.0194381606 0.0307978857 -0.0038085005
0.0016247609 0.0323145017 0.0000204050
0.0036682782 0.0322565362 -0.0000592417
0.0046432987 0.0322159827 -0.0001513830
0.0056072306 0.0321870968 -0.0002029261
-0.0494904146 0.0437035486 0.0399624445
-0.0178689715 0.0282756891 0.0011214518
0.0046111327 0.0316323191 -0.0002407527
0.0056321286 0.0316270515 -0.0002919456
-0.0146630276 0.0276143197 0.0004967430
-0.0173759107 0.0306107234 -0.0009486100
-0.0003693292 0.0256142411 -0.0006250015
-0.0053306296 0.0286155809 0.0001049989
-0.0059110858 0.0310748164 0.0004655102
0.0106229354 0.0320107117 -0.0006199128
0.0115816025 0.0319655612 -0.0007526597
-0.0192067157 0.0324839875 -0.0016819111
-0.0183558185 0.0325437114 -0.0013148955
-0.0174019653 0.0325408354 -0.0011821485
-0.0448962152 0.0436405316 0.0380727090
-0.0023569597 0.0275767613 -0.0002379513
-0.0093389023 0.0306482520 0.0005885118
-0.0083483588 0.0309433658 0.0005654597
-0.0074244123 0.0309862960 0.0005045587
-0.0123789776 0.0326021314 0.0009561011
-0.0130095091 0.0329523832 0.0010277459
0.0152555853 0.0304351021 -0.0020645356
0.0026272179 0.0317196250 -0.0001248440
-0.0064670984 0.0310962144 0.0004967430
0.0158397909 0.0310416911 -0.0041260663
0.0179226659 0.0311323795 -0.0037356263
0.0186312571 0.0311135743 -0.0037949702
0.0194373783 0.0311055128 -0.0038137159
-0.0170253906 0.0296067987 0.0006216818
-0.0428293273 0.0426223874 0.0399780609
-0.0161733981 0.0315934196 -0.0021860173
-0.0156921130 0.0321078077 -0.0017834252
-0.0155519452 0.0312112141 -0.0013148955
-0.0436937585 0.0431148857 0.0386661924
-0.0426164791 0.0440916866 0.0390410013
0.0106162783 0.0322326422 -0.0005886799
0.0115723368 0.0321937725 -0.0006964302
0.0126258405 0.0321634561 -0.0007714129
-0.0157532562 0.0332835317 0.0010902116
-0.0069989413 0.0308843423 0.0004655102
-0.0131644290 0.0332030207 0.0011214518
-0.0426916927 0.0444378778 0.0391659476
0.0086498484 0.0306456853 -0.0006292632
0.0096926298 0.0309545267 -0.0006214774
0.0016048735 0.0306372400 -0.0002294725
-0.0182896964 0.0328388512 -0.0013808256
-0.0173005480 0.0328625962 -0.0011868274
-0.0165079031 0.0326227397 -0.0011250994
-0.0155992191 0.0326774642 -0.0012368134
-0.0434696525 0.0437411219 0.0383805968
-0.0431189314 0.0434622765 0.0387420394
-0.0012921991 0.0319722518 0.0001406649
-0.0193002690 0.0327950418 -0.0017553142
-0.0494689196 0.0446249396 0.0411337651
0.0116729280 0.0324099213 -0.0006823784
0.0126216393 0.0323817134 -0.0007526597
-0.0083656181 0.0315944552 0.0006217116
-0.0132011380 0.0334462672 0.0011995339
-0.0429141968 0.0444589034 0.0386037119
-0.0427368209 0.0447673425 0.0392284133
0.0163816251 0.0285954867 -0.0031890071
-0.0156537686 0.0305528659 -0.0009855127
-0.0576362014 0.0443274081 0.0401342399
-0.0433990583 0.0443940908 0.0382653363
-0.0133581217 0.0336990058 0.0012963691
-0.0501207635 0.0435920581 0.0401530005
-0.0182391386 0.0331746861 -0.0013851768
-0.0161278117 0.0331031233 -0.0013461357
-0.0157461707 0.0331298038 -0.0011899567
-0.0036330952 0.0329411402 0.0005279833
0.0097680381 0.0315150321 -0.0005767441
-0.0073163752 0.0326477215 0.0006663257
0.0136258733 0.0287061427 -0.0013792238
-0.0452260077 0.0418515578 0.0395824201
-0.0140763242 0.0337512940 0.0014025697
-0.0440394804 0.0447860286 0.0378696807
-0.0429151133 0.0450870916 0.0392284133
-0.0426943973 0.0451339856 0.0394470580
0.0056637600 0.0309542734 -0.0004090688
0.0073131472 0.0309607778 -0.0005027822
0.0158828273 0.0315168947 -0.0040792171
0.0162063278 0.0317574739 -0.0037512428
0.0177064762 0.0314871147 -0.0036599285
0.0186291598 0.0315278172 -0.0037887192
0.0016663799 0.0332363546 0.0002343708
0.0026479324 0.0331955925 0.0001531595
0.0036208329 0.0331626311 0.0000969374
0.0042680558 0.0331411064 0.0000594535
0.0136654358 0.0324752778 -0.0007667041
-0.0156024937 0.0333352014 -0.0010103530
0.0159061179 0.0319535136 -0.0037980920
-0.0651278794 0.0318575948 0.0410869159
-0.0187207405 0.0332519859 -0.0015803969
-0.0159938093 0.0332248285 -0.0016897193
-0.0165518094 0.0332812592 -0.0011431000
-0.0154765714 0.0335935354 -0.0002216643
-0.0432600230 0.0448530540 0.0382679291
-0.0003783891 0.0326459780 0.0003046298
0.0006845349 0.0296627302 -0.0002463183
-0.0063315071 0.0334697068 0.0007709095
0.0076231062 0.0326715708 -0.0002899936
0.0093831429 0.0319161564 -0.0004923663
0.0126352189 0.0319338441 -0.0008338785
-0.0115113910 0.0290514659 0.0004967430
-0.0440705791 0.0451051667 0.0379009284
-0.0073792692 0.0316814035 0.0005650872
-0.0063845664 0.0316491947 0.0005389357
0.0161971487 0.0319897681 -0.0036575368
0.0178125873 0.0319803059 -0.0036575443
0.0186252240 0.0319509953 -0.0037512428
0.0195159577 0.0316420719 -0.0038116297
0.0085873287 0.0317736939 -0.0004583842
0.0136513598 0.0330331847 -0.0006776920
0.0146258436 0.0325981453 -0.0007526523
-0.0431239828 0.0451628119 0.0382913537
-0.0507950559 0.0442103669 0.0404778309
-0.0487540290 0.0444105864 0.0404153503
-0.0123416688 0.0309733916 0.0007292682
0.0006929373 0.0266273636 -0.0005856177
-0.0043735560 0.0306354742 0.0003490800
-0.0160152074 0.0334508270 -0.0016584864
-0.0165385958 0.0335914195 -0.0012055731
-0.0155997444 0.0336722210 -0.0007682836
-0.0139906239 0.0342022628 0.0014338025
-0.0022977034 0.0332327485 0.0004446858
-0.0465651453 0.0436691642 0.0391190983
0.0036473086 0.0277361553 -0.0006417579
0.0077065583 0.0332314745 -0.0002029261
-0.0053433757 0.0335273296 0.0007826665
0.0145863257 0.0296538044 -0.0012687391
0.0085851997 0.0326361805 -0.0003731495
-0.0013073387 0.0334173292 0.0004432031
0.0076506119 0.0296549816 -0.0007474592
0.0125789838 0.0328144282 -0.0006768054
-0.0033560137 0.0334239081 0.0005793029
-0.0023849870 0.0335596651 0.0005324462
-0.0145229865 0.0338391736 0.0016784722
-0.0046331305 0.0319219083 0.0004967430
0.0193497203 0.0266497973 -0.0033826625
0.0137502849 0.0332556143 -0.0006433374
0.0146956220 0.0332313702 -0.0007026887
-0.0133138690 0.0308676865 0.0007559934
-0.0182386618 0.0336183682 -0.0013574904
-0.0173439663 0.0335294977 -0.0011462441
-0.0165537689 0.0338143930 -0.0011899567
-0.0154413823 0.0339228809 -0.0006277210
0.0010252555 0.0273377392 -0.0005444309
0.0017316488 0.0275463033 -0.0005604422
-0.0144091230 0.0297905263 0.0005998218
-0.0118836444 0.0331292078 0.0009965131
0.0095900111 0.0276662912 -0.0011062718
0.0026810186 0.0306045432 -0.0002856946
0.0076972861 0.0334573090 -0.0001654422
0.0086730551 0.0332949385 -0.0003153703
-0.0134106372 0.0343168899 0.0013817379
-0.0123593081 0.0343273953 0.0012776309
0.0160782896 0.0313260108 -0.0045945961
0.0152352452 0.0327211618 -0.0012524298
0.0046784375 0.0334722027 0.0001094246
0.0154218990 0.0296456981 -0.0027204847
0.0165890511 0.0296955425 -0.0033295697
0.0171923377 0.0299066249 -0.0032983369
-0.0143666398 0.0344117731 0.0016107985
0.0125471214 0.0333997458 -0.0005930162
-0.0156048443 0.0318700597 0.0025999227
-0.0123323556 0.0316654444 0.0008169168
-0.0173742529 0.0340821967 -0.0011274836
-0.0165494476 0.0340241566 -0.0012211895
-0.0155491624 0.0341377109 -0.0006589538
-0.0554810613 0.0466815457 0.0396344699
0.0136403032 0.0334801897 -0.0006089828
-0.0054490026 0.0295201782 0.0002892518
-0.0103706550 0.0328696445 0.0009604821
0.0107129095 0.0290009994 -0.0010546020
0.0086626383 0.0336285979 -0.0002763218
-0.0053446051 0.0326294228 0.0006342062
-0.0043880325 0.0326855853 0.0005748475
-0.0003958570 0.0316058248 0.0001153254
-0.0113507006 0.0328680649 0.0009700858
-0.0142078530 0.0347184241 0.0016628557
-0.0442891046 0.0458077490 0.0380258597
0.0067021679 0.0316336229 -0.0003715849
0.0076359380 0.0316479430 -0.0004358387
0.0159963891 0.0321896300 -0.0036887771
-0.0559447780 0.0461934954 0.0396969505
-0.0042918231 0.0317239910 0.0004342624
0.0125873061 0.0337166712 -0.0005652553
-0.0165713299 0.0342519656 -0.0011899567
-0.0154729802 0.0342656747 -0.0005808717
-0.0063718893 0.0343963280 0.0009840184
0.0016323605 0.0299767349 -0.0002997464
-0.0093353931 0.0336020365 0.0009926164
-0.0103692878 0.0306608323 0.0006321201
-0.0142638031 0.0349785089 0.0017878094
-0.0136981588 0.0348785669 0.0014962757
-0.0093518253 0.0326694846 0.0008600706
-0.0083386134 0.0326257572 0.0007349232
-0.0013786333 0.0296370741 -0.0000885075
0.0165910348 0.0254252199 -0.0055941213
0.0176524147 0.0325234160 -0.0036523140
0.0186216496 0.0324747488 -0.0037278032
0.0195308570 0.0324618891 -0.0037609881
0.0036706848 0.0342959836 0.0002780983
0.0046372321 0.0342715979 0.0002531090
0.0057104044 0.0342427939 0.0002156326
-0.0039816480 0.0323337466 0.0004655102
0.0194261856 0.0329915211 -0.0037200099
-0.0083489250 0.0336276740 0.0009143257
-0.0013361315 0.0306420643 -0.0000014699
-0.0154272225 0.0327506810 0.0030837411
-0.0157589000 0.0329983309 0.0017149204
-0.0165736992 0.0344664305 -0.0012055731
0.0086442046 0.0339772478 -0.0001865274
0.0095993821 0.0336233675 -0.0003166741
0.0106777428 0.0336800516 -0.0003872013
-0.0192795563 0.0336174294 -0.0017973131
0.0086487643 0.0276832599 -0.0010744056
-0.0103626009 0.0315645635 0.0007431710
-0.0032785519 0.0325794816 0.0004134455
0.0050782040 0.0293325577 -0.0005340150
-0.0542561039 0.0458810329 0.0388535894
0.0046956670 0.0280393530 -0.0006402156
0.0056283530 0.0327263698 -0.0001071340
-0.0460333154 0.0395216793 0.0394314416
-0.0156672951 0.0337659717 0.0008247101
-0.0550223067 0.0463458672 0.0392596461
-0.0142639037 0.0351970568 0.0017669850
-0.0063596964 0.0326384678 0.0006484815
-0.0123478267 0.0347025469 0.0013852098
-0.0443583280 0.0467718244 0.0386557765
0.0158156268 0.0324936658 -0.0027751422
0.0176070314 0.0330105498 -0.0036825335
0.0186185874 0.0329966471 -0.0037137663
0.0104180137 0.0329784751 -0.0004767498
0.0166069120 0.0333913192 -0.0028016961
-0.0032713490 0.0339947715 0.0006752291
0.0159837008 0.0307091419 -0.0046102125
-0.0083834399 0.0346203744 0.0011448839
-0.0153893884 0.0335432664 0.0029226893
0.0077346815 0.0338512063 -0.0001045337
0.0115641654 0.0337577164 -0.0004573411
0.0123683419 0.0339510590 -0.0005027822
0.0136647150 0.0338981003 -0.0005920103
0.0166097917 0.0326667950 -0.0011587238
-0.0160541814 0.0344303176 -0.0016584864
-0.0526152477 0.0471273884 0.0391347148
0.0056350622 0.0336692780 0.0000965276
0.0132079050 0.0341486111 -0.0005340150
-0.0160366837 0.0338888094 -0.0016480705
-0.0156493913 0.0346974656 0.0009808966
-0.0154705402 0.0345902294 0.0020359510
0.0016037689 0.0343746915 0.0004150474
0.0146863274 0.0337813497 -0.0006495735
-0.0134125520 0.0353438631 0.0015977898
0.0000888647 0.0342024937 0.0004655102
0.0066933949 0.0302475858 -0.0005563369
-0.0441655964 0.0464556143 0.0382913537
0.0155581310 0.0308727566 -0.0031994230
0.0036385579 0.0306906719 -0.0003059974
-0.0136046801 0.0351074040 0.0015275085
-0.0123597588 0.0354160517 0.0016316155
0.0172498729 0.0317019448 -0.0032931289
-0.0023953302 0.0316573307 0.0001858675
-0.0155700613 0.0337103978 0.0019625553
-0.0131406430 0.0339687020 0.0012932473
-0.0123491455 0.0336091891 0.0011214518
-0.0113846865 0.0336977616 0.0011156031
-0.0033293350 0.0306266416 0.0002058574
0.0076015852 0.0344130099 0.0000378171
0.0086746188 0.0344609916 -0.0000446683
0.0096248016 0.0344044045 -0.0001140779
0.0106504718 0.0343666598 -0.0002435243
0.0117926160 0.0333869979 -0.0005465096
0.0128958002 0.0339369401 -0.0005340150
0.0154051743 0.0336343274 -0.0008984229
-0.0164697710 0.0348472670 -0.0011326915
-0.0152917746 0.0353895351 0.0026582160
0.0026810521 0.0345612988 0.0003801191
-0.0160043407 0.0321745425 -0.0015647805
0.0167752411 0.0310668554 -0.0032202473
0.0171847083 0.0306431744 -0.0032452291
0.0165917668 0.0327387080 -0.0029417297
-0.0129193496 0.0290903021 0.0004967430
-0.0063599423 0.0348478481 0.0010659301
0.0166616011 0.0315678790 -0.0030953011
-0.0143756773 0.0356863514 0.0018960887
0.0076301582 0.0305776801 -0.0005762598
0.0020137837 0.0348167866 0.0004655102
0.0027615575 0.0350201651 0.0004655102
0.0036406179 0.0347621590 0.0003848129
0.0056857541 0.0347042978 0.0003093237
-0.0023520107 0.0325635001 0.0003129968
0.0076306155 0.0348367020 0.0001219267
0.0087020257 0.0348013416 0.0000532100
0.0096617211 0.0347743854 0.0000047886
0.0106316581 0.0347220451 -0.0001342094
0.0137301683 0.0343563259 -0.0005418232
0.0147220548 0.0344295129 -0.0005895442
0.0154410060 0.0343254730 -0.0009713119
-0.0192958731 0.0331105143 -0.0017959198
-0.0523303002 0.0476701707 0.0388587900
-0.0013455583 0.0326637849 0.0002930963
-0.0083811153 0.0354300290 0.0013049596
-0.0161591191 0.0351107419 -0.0011899567
-0.0155518036 0.0355581120 0.0010824034
-0.0153054800 0.0356347784 0.0019921118
-0.0009814689 0.0337897763 0.0004655102
-0.0043521859 0.0336369947 0.0007240826
-0.0436979756 0.0468376055 0.0386349447
0.0161018837 0.0334279537 -0.0026111549
0.0167259388 0.0338264853 -0.0027933663
0.0176050700 0.0334246233 -0.0036866835
0.0186169222 0.0334111154 -0.0037158302
0.0194979962 0.0334251225 -0.0037200025
0.0036158410 0.0352219418 0.0004655102
0.0045812503 0.0352022424 0.0004592666
0.0055558365 0.0351665094 0.0003952289
0.0010777896 0.0321272612 0.0000906864
-0.0447439030 0.0431156233 0.0384787656
-0.0123363007 0.0358935148 0.0016953999
-0.0449787751 0.0468213633 0.0389160551
-0.0149969663 0.0358863473 0.0009340399
0.0145240370 0.0287260842 -0.0013718701
0.0088913273 0.0312507302 -0.0005418232
0.0046074372 0.0347390175 0.0003655457
0.0061053578 0.0351322815 0.0003093311
-0.0531992912 0.0485637113 0.0419771113
-0.0153848622 0.0350249559 0.0026363635
-0.0514899418 0.0485802144 0.0400405265
-0.0131245535 0.0348615795 0.0013713294
-0.0033769554 0.0316252410 0.0002983862
0.0076410454 0.0286373887 -0.0008917844
0.0158966128 0.0299710128 -0.0047039185
-0.0469580814 0.0479987115 0.0411337651
-0.0189450141 0.0320920497 -0.0014710745
0.0150860660 0.0347768515 -0.0005340150
0.0154040195 0.0347607285 -0.0005808717
-0.0184109379 0.0340688303 -0.0013336337
-0.0080486778 0.0357452407 0.0012776235
-0.0086026732 0.0358578861 0.0016107985
-0.0165529083 0.0353331491 -0.0009765199
-0.0444548279 0.0473245382 0.0391347148
0.0186156910 0.0338235646 -0.0037262535
0.0195240825 0.0338215604 -0.0037200099
0.0050043557 0.0354146734 0.0004655102
0.0058711283 0.0353813842 0.0004030296
-0.0053814948 0.0345839933 0.0009633356
-0.0103649665 0.0336549953 0.0010746100
-0.0141411778 0.0363636613 0.0019335577
0.0100846160 0.0322531983 -0.0005340150
0.0108328583 0.0326942354 -0.0005674681
0.0186161920 0.0340241492 -0.0037512428
0.0116609167 0.0328537151 -0.0006225056
-0.0051529072 0.0312738717 0.0004655102
-0.0402249843 0.0447295830 0.0419458784
0.0036545505 0.0317119136 -0.0001782870
0.0086794160 0.0352664068 0.0001594031
0.0096412376 0.0352376327 0.0001063102
0.0106050707 0.0352006033 0.0000219622
0.0112545593 0.0351579562 -0.0000967255
0.0154286902 0.0348883346 -0.0008776060
0.0163815655 0.0348263979 -0.0010650179
-0.0521195531 0.0484051257 0.0386974253
-0.0514106899 0.0484188348 0.0388134308
-0.0014090876 0.0338670537 0.0005349272
0.0136879049 0.0315856710 -0.0009103811
0.0066387895 0.0353344157 0.0002859065
-0.0165022966 0.0356322527 -0.0009478873
-0.0151224816 0.0361995250 0.0012307742
0.0162730440 0.0313414410 -0.0045321230
-0.0005645233 0.0340101421 0.0005071589
0.0195241198 0.0340248868 -0.0037356263
0.0006325094 0.0326821730 0.0002468580
-0.0157574154 0.0326786712 -0.0016741029
0.0066399630 0.0326211900 -0.0001969209
-0.0150697771 0.0363766849 0.0010745951
-0.0454825833 0.0474240035 0.0398843624
-0.0149179678 0.0365104228 0.0015587413
-0.0141691249 0.0360816047 0.0017305368
-0.0133755859 0.0358361676 0.0017586404
0.0016658453 0.0327926055 0.0001375356
0.0026265827 0.0325975046 0.0000264698
-0.0187139902 0.0329291672 -0.0015647805
-0.0191490483 0.0343289524 -0.0015647730
-0.0183699187 0.0346844643 -0.0011495447
-0.0173866805 0.0346220732 -0.0010946190
-0.0513536409 0.0488616079 0.0387911238
-0.0080014784 0.0362340435 0.0014338025
0.0066283848 0.0355638564 0.0003249475
-0.0123706628 0.0363579690 0.0017461532
-0.0147421155 0.0359387547 0.0011526847
0.0155374669 0.0316460282 -0.0030250198
-0.0436518118 0.0451220870 0.0380414762
-0.0152899008 0.0365141630 0.0007466280
-0.0103426669 0.0345882773 0.0012522468
-0.0093643721 0.0346836597 0.0012015754
-0.0457095429 0.0488487929 0.0398531146
0.0151836537 0.0310458858 -0.0013148955
0.0176056419 0.0343359634 -0.0037699735
-0.0141798612 0.0367230698 0.0020012388
0.0026441345 0.0337883160 0.0002670640
0.0145782754 0.0348817185 -0.0004840291
0.0155134127 0.0353725702 -0.0006901941
-0.0571551025 0.0455609038 0.0400717594
-0.0166092254 0.0360130221 -0.0008419103
-0.0164229441 0.0360217243 -0.0003466031
-0.0513518229 0.0491673574 0.0387520827
-0.0003683290 0.0346385762 0.0005741173
-0.0534274355 0.0466811508 0.0389829762
-0.0043507777 0.0346124917 0.0009055340
-0.0023577532 0.0346558914 0.0007729435
0.0167827681 0.0344514772 -0.0026892445
0.0025849042 0.0361823589 0.0006841549
-0.0150469746 0.0372217074 0.0024333277
0.0003678331 0.0363018289 0.0009236315
-0.0085114371 0.0360902175 0.0016524547
0.0169936158 0.0346670225 -0.0037200099
0.0176047832 0.0346445367 -0.0037824756
0.0186153911 0.0344347209 -0.0037699661
-0.0023469257 0.0356099010 0.0009730959
-0.0140705574 0.0370515138 0.0019804144
-0.0133241061 0.0366467461 0.0018476599
-0.0063271280 0.0339256227 0.0008778253
-0.0053395815 0.0340072140 0.0008715743
-0.0002841356 0.0335993767 0.0004342624
0.0006604285 0.0336210728 0.0003756934
0.0016675515 0.0337177515 0.0003073716
-0.0186740886 0.0336566046 -0.0015543646
-0.0551469475 0.0457613543 0.0391784348
-0.0563058555 0.0454728827 0.0397021361
-0.0558157787 0.0456652567 0.0395251550
-0.0173612777 0.0356402621 -0.0010462946
-0.0154354554 0.0368439928 0.0010902116
-0.0151967350 0.0369196311 0.0018220150
-0.0003643113 0.0356620848 0.0007691958
0.0048536640 0.0285420958 -0.0005724526
0.0167331286 0.0348939598 -0.0029703623
-0.0466160029 0.0486380309 0.0408214219
-0.0154098962 0.0364930555 -0.0001071340
-0.0123561975 0.0350606367 0.0015150139
-0.0183276124 0.0355820730 -0.0010478592
-0.0152172428 0.0373175293 0.0019648054
0.0004503259 0.0365469381 0.0010121295
-0.0112774875 0.0353648067 0.0014025623
-0.0102919955 0.0355137512 0.0013869458
-0.0090555567 0.0360403210 0.0016134062
0.0146180168 0.0315938517 -0.0008502624
0.0096497657 0.0350092575 0.0000672617
0.0106179202 0.0349619985 -0.0000529981
0.0117067089 0.0346618146 -0.0003004393
0.0126408916 0.0345990583 -0.0004120416
0.0046902932 0.0327943265 -0.0000232405
-0.0150263477 0.0374905989 0.0029643306
0.0136859156 0.0296758022 -0.0012655950
-0.0143353166 0.0372977853 0.0022068822
0.0154586360 0.0356070399 -0.0004224575
0.0162962042 0.0359862000 -0.0000654852
-0.0157587249 0.0332077071 -0.0017209521
-0.0165335182 0.0364031568 -0.0009517914
-0.0153080346 0.0369621664 0.0007466280
-0.0511901528 0.0504905805 0.0411962308
0.0135857798 0.0347875208 -0.0004500619
-0.0531920344 0.0473935157 0.0390201695
0.0159208346 0.0352468640 -0.0018146581
-0.0124152806 0.0368318558 0.0018242502
0.0076169576 0.0350720659 0.0001843923
-0.0462481827 0.0489915907 0.0402591862
0.0164160766 0.0261583533 -0.0059064720
-0.0189312194 0.0355926603 -0.0010650104
-0.0157542136 0.0343668088 -0.0018458983
0.0165098477 0.0361824185 -0.0001279584
-0.0104759950 0.0360014364 0.0015118846
-0.0093296971 0.0366756693 0.0016327032
-0.0083421748 0.0366521254 0.0015545690
0.0116303461 0.0356549025 -0.0001505187
0.0036461574 0.0327071175 0.0000115463
-0.0150398556 0.0378338397 0.0029643306
-0.0142681804 0.0375623852 0.0021522099
-0.0134297367 0.0373362526 0.0019335651
0.0006742252 0.0342809930 0.0004565844
-0.0190367829 0.0347017646 -0.0013187996
-0.0183045808 0.0364652649 -0.0009737036
-0.0173647385 0.0365436003 -0.0010289794
-0.0165852550 0.0367628112 -0.0008619821
-0.0152999554 0.0373432711 0.0012776235
-0.0151841734 0.0375101715 0.0018554830
-0.0003365634 0.0365744904 0.0009898224
0.0086873081 0.0350400954 0.0001281702
0.0006488001 0.0348499566 0.0005321631
0.0015720201 0.0349200964 0.0005084628
0.0022175142 0.0350399837 0.0004967430
0.0171641801 0.0324489400 -0.0030953086
-0.0152415689 0.0371740609 -0.0000342524
-0.0155659039 0.0357695296 -0.0005912802
-0.0500074327 0.0505488887 0.0397802480
-0.0493402183 0.0504082367 0.0397219248
-0.0484134704 0.0503844023 0.0395303555
-0.0113415997 0.0365973040 0.0016508752
0.0096485419 0.0326441824 -0.0004527962
-0.0436831340 0.0464362353 0.0383069851
-0.0482803211 0.0504676551 0.0394783057
-0.0103635360 0.0366433933 0.0015951747
0.0096571622 0.0357498005 0.0001598501
0.0105948411 0.0357510522 0.0000485086
0.0126692289 0.0355040878 -0.0002699366
-0.0023361465 0.0366735011 0.0011739859
0.0046581812 0.0339239016 0.0001750195
-0.0133270603 0.0377248824 0.0020584965
0.0016441157 0.0318697840 -0.0000290519
0.0156749915 0.0362739041 -0.0002029261
0.0164914504 0.0364663899 0.0000906864
0.0162367225 0.0365316868 0.0006529221
0.0026693863 0.0283018593 -0.0005496314
0.0066102557 0.0336242095 -0.0000108352
-0.0003355427 0.0370253026 0.0010714734
0.0135925245 0.0356029794 -0.0003356731
-0.0073410105 0.0355823338 0.0012316012
-0.0063329823 0.0356386006 0.0011642033
0.0157610588 0.0328718349 -0.0021660572
0.0066184234 0.0295752045 -0.0006676263
-0.0492384806 0.0490952730 0.0411962308
-0.0173176397 0.0369684324 -0.0010212830
-0.0165949482 0.0369842276 -0.0008619821
-0.0155817326 0.0367453620 -0.0006537458
-0.0489156693 0.0509780496 0.0400092937
-0.0483322963 0.0508070588 0.0395407714
-0.0111038368 0.0375887454 0.0018763000
-0.0073897969 0.0336193964 0.0008165443
-0.0479638278 0.0507676527 0.0394783057
-0.0474288315 0.0507189408 0.0394158252
-0.0093366336 0.0374351367 0.0017180347
-0.0083232354 0.0374197140 0.0016290077
0.0106554991 0.0365915447 0.0003119388
0.0116353026 0.0365176424 0.0001094097
-0.0024286734 0.0373208448 0.0012620145
-0.0053686425 0.0356448069 0.0011357719
-0.0510498509 0.0517153963 0.0421020575
-0.0507557541 0.0517256334 0.0421957709
-0.0181410480 0.0372414514 -0.0009713119
-0.0173249673 0.0371879414 -0.0010275340
-0.0165982191 0.0372008458 -0.0008775985
-0.0154513065 0.0373865142 -0.0000967255
-0.0079694781 0.0359876901 0.0013557130
0.0004279499 0.0368976891 0.0010746026
0.0004054920 0.0372490808 0.0011370683
0.0135995224 0.0363902003 -0.0001859686
-0.0073341597 0.0366466343 0.0013900676
-0.0063636061 0.0366989225 0.0013276020
-0.0124043059 0.0378584191 0.0021157691
-0.0483064726 0.0511933193 0.0397750326
-0.0492488369 0.0494121090 0.0411806144
-0.0173271019 0.0374035910 -0.0010462722
-0.0154608097 0.0376095027 -0.0000967255
-0.0103676822 0.0375677496 0.0017773935
-0.0093955565 0.0379494950 0.0017773935
-0.0083555374 0.0378859490 0.0016836876
0.0096951593 0.0366336852 0.0002721378
0.0106472289 0.0370346159 0.0003327632
0.0116020450 0.0370232314 0.0003343278
-0.0499155521 0.0514021888 0.0412587114
-0.0492647886 0.0515025631 0.0406339951
0.0027840303 0.0367014036 0.0008153373
0.0036410128 0.0366179124 0.0007416436
0.0002877915 0.0374781787 0.0011526847
0.0136625506 0.0368617922 -0.0001123419
-0.0053528044 0.0366574526 0.0013162100
-0.0119779762 0.0381269529 0.0020585039
-0.0033748115 0.0347119868 0.0008646378
-0.0527907163 0.0507487580 0.0429141708
0.0075980844 0.0356182754 0.0002501437
0.0086638667 0.0357193127 0.0002197900
0.0166946761 0.0325528011 -0.0022707006
0.0161082838 0.0359702259 -0.0029078966
0.0163126644 0.0359686986 -0.0029078966
0.0017065683 0.0376525894 0.0011058280
-0.0173320007 0.0376213416 -0.0010587669
-0.0470919982 0.0513123274 0.0393377431
-0.0098740291 0.0382103175 0.0018398592
-0.0092960354 0.0381759703 0.0017930099
-0.0087191854 0.0381419361 0.0017461532
0.0087737748 0.0364722982 0.0002655962
0.0103334468 0.0372401923 0.0002780983
0.0046065599 0.0357401595 0.0005566233
0.0059657227 0.0356116742 0.0004498938
0.0036141051 0.0337134451 0.0001925954
-0.0154218730 0.0337696820 -0.0003778434
-0.0188842360 0.0361687392 -0.0009713119
-0.0182487350 0.0370279923 -0.0009609035
-0.0117174331 0.0380887985 0.0019647980
0.0158759244 0.0336706415 -0.0021332672
0.0165119655 0.0336879641 -0.0022698066
0.0161198564 0.0361322016 -0.0030640683
-0.0043420568 0.0357315466 0.0011381188
-0.0116805006 0.0384820849 0.0021444017
-0.0090685580 0.0383836925 0.0017617696
-0.0087267440 0.0383672044 0.0017461532
0.0081835780 0.0375295430 0.0004030371
0.0099086184 0.0372459888 0.0002780983
0.0057975817 0.0366778597 0.0005904564
0.0055853240 0.0358244479 0.0005784386
-0.0082509462 0.0381070971 0.0016836876
-0.0075953137 0.0376299545 0.0015379169
-0.0485967770 0.0522844568 0.0412274785
0.0175970532 0.0355284661 -0.0037455580
-0.0155064370 0.0348457322 -0.0000759012
-0.0434723273 0.0457023457 0.0380905606
-0.0023216812 0.0339693651 0.0006091872
-0.0072107557 0.0373881310 0.0014572272
-0.0064189117 0.0373979360 0.0014268511
-0.0053738933 0.0372718945 0.0014416107
-0.0051951613 0.0377656519 0.0015399957
-0.0003660361 0.0376016125 0.0011417621
-0.0013802538 0.0346255153 0.0006861219
-0.0543262810 0.0466094986 0.0390320756
0.0161077883 0.0363825858 -0.0029391295
0.0173697434 0.0358058438 -0.0034076592
-0.0013813025 0.0376474857 0.0011839250
0.0195878372 0.0346749201 -0.0037403649
-0.0063158106 0.0383317769 0.0015235969
-0.0460988954 0.0476083532 0.0404465832
-0.0132980105 0.0385622084 0.0022049376
-0.0475809723 0.0521422401 0.0398843624
0.0167090036 0.0321125016 -0.0024237430
0.0081802122 0.0377488583 0.0004030371
0.0186136775 0.0349517167 -0.0037824681
-0.0160052385 0.0376283303 -0.0015647805
-0.0516430214 0.0478988588 0.0389707275
-0.0153070865 0.0356895402 -0.0000811091
-0.0181917120 0.0378246158 -0.0010060167
-0.0173487607 0.0379553661 -0.0010556376
-0.0164417196 0.0376723707 -0.0010905734
-0.0453441292 0.0516294166 0.0393623002
-0.0445951447 0.0517833382 0.0392596461
-0.0113705862 0.0316555649 0.0007952207
-0.0043478291 0.0374429896 0.0014204213
-0.0033614917 0.0356683508 0.0010855400
0.0152125265 0.0316891670 -0.0016834831
0.0163052715 0.0363051966 -0.0028454161
0.0027003156 0.0382488146 0.0009590292
-0.0465590730 0.0479441509 0.0410088189
-0.0068572611 0.0384426266 0.0014650354
-0.0117042158 0.0389324203 0.0024958008
0.0066281892 0.0364240929 0.0004144066
0.0073184073 0.0368201286 0.0005435997
-0.0013932234 0.0382203981 0.0012620070
0.0000390781 0.0381695107 0.0012151578
-0.0132674696 0.0391811430 0.0023708621
-0.0125011411 0.0391480550 0.0023604461
0.0044852830 0.0366669297 0.0007346177
-0.0068598408 0.0382283032 0.0014962757
-0.0119409133 0.0391690508 0.0024958008
0.0172991473 0.0363846421 -0.0038996136
-0.0139768478 0.0339747369 0.0014181861
-0.0442885533 0.0436351225 0.0381629504
-0.0013128447 0.0356266871 0.0008702257
0.0006250551 0.0356800780 0.0007581466
-0.0113185029 0.0346096307 0.0013053918
0.0116998218 0.0372547060 0.0003796124
-0.0020752198 0.0382678732 0.0013557130
-0.0114346351 0.0358408391 0.0015632042
-0.0468051136 0.0491442755 0.0406964757
-0.0495523885 0.0521846041 0.0417896993
-0.0487629324 0.0527019575 0.0415085889
-0.0473336652 0.0529975668 0.0406339951
0.0078928769 0.0376171172 0.0004342773
0.0158613976 0.0350394398 -0.0010806343
0.0163776726 0.0350496620 -0.0010337776
0.0162302479 0.0381538346 0.0005904490
-0.0043080021 0.0379321948 0.0015118921
-0.0036443605 0.0380201489 0.0014962757
0.0146426409 0.0355920941 -0.0003403521
0.0153034478 0.0367637500 -0.0002060479
0.0167197697 0.0369207710 -0.0001904315
0.0186085254 0.0356913134 -0.0037537387
-0.0432951897 0.0523362607 0.0392284133
-0.0426671132 0.0523211434 0.0392908938
-0.0189459343 0.0385732949 -0.0010962507
-0.0183940697 0.0384512991 -0.0010454899
-0.0503455922 0.0487398058 0.0391294993
-0.0153250527 0.0370361432 0.0000516453
-0.0173894893 0.0384154394 -0.0010087884
-0.0165470000 0.0384225994 -0.0008619970
0.0016419680 0.0356325433 0.0006119364
-0.0052927639 0.0385166183 0.0016450861
0.0026216393 0.0355986878 0.0005654895
-0.0037393721 0.0383924916 0.0016055980
-0.0157827381 0.0330864340 0.0011839175
-0.0133427288 0.0379575640 0.0020772496
-0.0444170237 0.0520716235 0.0391971804
-0.0450951681 0.0521192104 0.0392284133
0.0066686310 0.0346500501 0.0001750046
-0.0117238220 0.0391706675 0.0025270337
0.0164607428 0.0345333442 -0.0020606390
-0.0123664793 0.0385990888 0.0022018382
0.0167047456 0.0381467864 -0.0000967255
0.0056734812 0.0374784246 0.0008687356
0.0195636861 0.0356654748 -0.0037313497
-0.0433082730 0.0526509732 0.0392179973
-0.0425357446 0.0526407808 0.0393221267
-0.0173046310 0.0387540683 -0.0009791201
-0.0165948998 0.0387826413 -0.0007838926
-0.0033315627 0.0366136506 0.0012912953
0.0126581173 0.0368027762 0.0000724623
-0.0481689647 0.0516068786 0.0401186086
-0.0501963869 0.0494041294 0.0391534604
-0.0043600909 0.0384864062 0.0016435066
0.0036967525 0.0356831849 0.0005529800
0.0066134296 0.0359074548 0.0003796124
0.0173815135 0.0368760154 -0.0036731607
0.0157251991 0.0357107073 -0.0007526597
0.0166507848 0.0356761217 -0.0012602306
0.0165279210 0.0355818570 -0.0019583425
0.0034347994 0.0380532965 0.0010902190
-0.0390976965 0.0527043641 0.0397698320
0.0154864974 0.0377412811 -0.0000998548
0.0164202489 0.0376703814 -0.0000030121
0.0186014883 0.0366465002 -0.0037121868
0.0196133554 0.0366479084 -0.0036934412
-0.0496226847 0.0527376086 0.0425393470
-0.0154266264 0.0378831998 0.0000750700
0.0159367397 0.0346390381 -0.0019552133
-0.0013777188 0.0366391689 0.0010573545
0.0017150862 0.0362099409 0.0007154027
0.0155699439 0.0367196128 -0.0008619821
0.0017781777 0.0379381180 0.0010798031
-0.0408706218 0.0532539263 0.0395407714
0.0174777322 0.0373584554 -0.0036419204
0.0003368554 0.0378661603 0.0012151578
-0.0424024910 0.0532651171 0.0393117107
-0.0406534299 0.0533683226 0.0419771113
-0.0164510254 0.0391815528 -0.0009088388
0.0158871263 0.0365528762 -0.0022706932
-0.0408882648 0.0535725579 0.0395407714
-0.0404410735 0.0535783321 0.0396344699
0.0074146064 0.0365965664 0.0004134530
0.0175795890 0.0376115665 -0.0036700389
0.0185948554 0.0373980105 -0.0036616942
0.0136571340 0.0370889753 -0.0000811091
0.0146178491 0.0366184562 -0.0001691675
0.0165135786 0.0365383923 -0.0009010306
0.0165999923 0.0366095603 -0.0020411185
0.0170228519 0.0369094089 -0.0029235131
0.0034270526 0.0382799581 0.0011058354
0.0156396069 0.0381995142 0.0000407153
0.0167009048 0.0383751094 -0.0000654852
-0.0457616150 0.0542130694 0.0406964757
-0.0472069755 0.0485943630 0.0411649831
-0.0494022816 0.0497453511 0.0393970944
-0.0093961786 0.0356249660 0.0013757923
-0.0443393588 0.0535107851 0.0393408723
-0.0433646888 0.0534548759 0.0392388143
-0.0424106717 0.0535767674 0.0392908938
-0.0414709821 0.0534024388 0.0394054241
0.0160179660 0.0360980108 -0.0018146581
0.0066466723 0.0374914855 0.0008130053
0.0126112457 0.0372878537 0.0002200881
0.0148805231 0.0374500901 -0.0000498763
0.0164622404 0.0375359729 -0.0009869284
-0.0409060493 0.0538914576 0.0395407714
-0.0403047726 0.0538956374 0.0396552868
0.0156364813 0.0390596017 -0.0000030196
0.0185906254 0.0378307477 -0.0036263040
-0.0387377292 0.0528605431 0.0406652428
0.0004614366 0.0382852703 0.0012620070
0.0014157908 0.0381911248 0.0013869458
-0.0477289259 0.0511185899 0.0396344699
-0.0173251946 0.0389849097 -0.0009556955
-0.0500839651 0.0533454120 0.0433827080
0.0025897825 0.0379034728 0.0009479278
0.0165034290 0.0385727808 -0.0009556955
0.0200052038 0.0380770192 -0.0035013652
-0.0409092456 0.0541997626 0.0395095386
-0.0403078794 0.0542039350 0.0396240540
-0.0393707603 0.0541838557 0.0397177823
0.0162530765 0.0393365026 0.0001843923
-0.0073681418 0.0346903056 0.0010755265
-0.0470891297 0.0510036275 0.0393689759
-0.0412076563 0.0541960597 0.0394470580
-0.0406491011 0.0532787442 0.0427267589
-0.0452544019 0.0540749207 0.0403528847
0.0185859073 0.0382672846 -0.0035825765
-0.0590575114 0.0441597626 0.0411025323
-0.0472046435 0.0492006615 0.0408214070
-0.0163562950 0.0402292311 -0.0004194847
-0.0190304946 0.0395741090 -0.0009088388
