# .PCD v0.7 - Point Cloud Data file format
VERSION 0.7
FIELDS x y z
SIZE 4 4 4
TYPE F F F
COUNT 1 1 1
WIDTH 1250
HEIGHT 1
VIEWPOINT 0 0 0 1 0 0 0
POINTS 1250
DATA ascii
0.011744762 0.030388867 -0.0019454956
0.016486665 0.040675782 -0.0047925711
-0.017438283 0.041918445 0.0031784326
-0.004440017 0.032331686 -0.00072595477
-0.015491825 0.038925216 0.0012946874
0.012580084 0.029912002 -0.0018936694
-0.0063511357 0.032325409 -0.00069575012
-0.0073034763 0.03232149 -0.00065974891
0.01068054 0.030430503 -0.0019511282
0.0095760692 0.030335978 -0.0019549876
0.0063663665 0.032709055 -0.0012188405
0.015466249 0.030304702 0.0023584515
0.014366215 0.029675344 0.001899913
-0.0053953789 0.032328341 -0.00070738792
-0.0082564 0.032318026 -0.00063067675
-0.0093664918 0.032313559 -0.00058397651
-0.014292963 0.032302625 -0.00052504241
-0.015354373 0.032267176 -0.00041152537
0.014925675 0.034736529 -0.0035084933
-0.018746575 0.031991571 -0.00073714554
0.017367406 0.031585183 -0.0041931868
0.015624935 0.031640328 -0.0042189062
0.014914615 0.031618781 -0.0038845837
0.015322203 0.032079514 -0.00049638748
0.014978485 0.031125018 -0.00066263974
0.0067235213 0.034284323 -0.00088398159
-0.020096587 0.036758829 -0.0026948154
0.016455466 0.039439812 -0.0050171018
-0.012391398 0.031362899 -0.00070343912
-0.013345259 0.031361725 -0.00070558488
0.015632542 0.030705128 -0.0042956918
0.0056614317 0.029569974 -0.0018696338
0.0047095362 0.02956377 -0.0018164217
0.0036043115 0.029555002 -0.0017291903
0.0076252352 0.032405153 -0.0013900995
0.0066699479 0.032083049 -0.0013746619
0.012578836 0.02959659 -0.0019349009
0.00060041994 0.029533617 -0.0015197992
-0.0003500171 0.029527899 -0.0014665425
-0.0013068654 0.029525004 -0.0014549047
-0.0179727 0.030881122 0.0021720529
-0.0024116077 0.039131701 0.00070849061
0.010763699 0.029600129 -0.0020838231
0.0096358005 0.029596109 -0.002079919
-0.021507453 0.03044128 -0.0023844838
-0.015990421 0.029256187 -0.00091013312
-0.01776618 0.029433893 -0.00041157007
-0.017792247 0.029154273 -0.00098359585
0.0075672921 0.029425053 -0.0019913614
0.0066155102 0.029418318 -0.0019329786
0.0056582876 0.029256167 -0.0019211471
0.0015433244 0.0293849 -0.0016352683
0.00059247203 0.029221807 -0.0016025603
-0.0003559757 0.029215377 -0.0015388876
-0.0013092719 0.029211145 -0.0015064329
-0.0022633336 0.029364966 -0.0014638156
0.015277205 0.029010251 0.0021265149
0.0028176103 0.029862843 -0.0016168058
0.014058368 0.029108286 0.00062923133
-0.0034994297 0.031393774 -0.00095508993
-0.0044546258 0.031390425 -0.00093650818
-0.015435432 0.037940245 0.0010811388
0.012569768 0.029283311 -0.0020073652
-0.0063605122 0.031382807 -0.00087495148
-0.0073127877 0.031379074 -0.00084242225
-0.00826676 0.031376384 -0.00082726777
0.011738317 0.029444344 -0.0020794868
-0.021010071 0.029891107 -0.0026147068
-0.021357721 0.029527564 -0.0024529845
0.008578049 0.032254487 -0.0014708042
-0.026122015 0.028175436 0.013423681
-0.027515464 0.028154541 0.013738185
0.015199842 0.031148532 -0.0010589212
-0.0063874293 0.029190563 -0.0013400167
0.01492537 0.030681157 -0.0039494485
0.0075646024 0.028953601 -0.0020582527
0.0066117998 0.028947249 -0.0020050555
0.0056530535 0.028943157 -0.0019830614
0.00058807619 0.028908748 -0.0016644895
-0.00036017969 0.028902289 -0.0016008019
-0.0013149679 0.028898813 -0.0015787482
0.015759988 0.028692072 0.0020211488
0.014833206 0.028831342 0.0023243576
0.016795186 0.036046509 -0.0052722842
-0.012398256 0.030264409 -0.00090746582
-0.013351129 0.030263051 -0.00090348721
0.016614692 0.029771097 -0.0043318719
0.011727573 0.028974414 -0.0021776706
-0.018337421 0.032528501 0.0014114827
-0.018160496 0.028916027 -0.002116695
-0.018137019 0.029194338 -0.0015763342
-0.018052556 0.029388513 0.00027598441
0.016773714 0.0291887 -0.0049717724
0.0076005999 0.031306539 -0.0016246736
-0.0084421132 0.039900865 0.0013550371
-0.017979406 0.02992663 0.0019212812
-0.01138996 0.037226245 0.00043322146
0.0171549 0.028356802 0.0021956116
0.014441477 0.028358992 0.0020427108
-0.0093748458 0.031371158 -0.00076757371
-0.010487215 0.031210661 -0.00076839328
-0.011438941 0.031365313 -0.00072216988
-0.014296902 0.031359375 -0.00068336725
-0.01524685 0.031355858 -0.00063681602
-0.015879583 0.031352971 -0.0005941838
0.017312137 0.03079194 -0.0043062568
0.016628092 0.030702585 -0.0041785985
-0.026825801 0.027767757 0.014285043
0.0026395097 0.028609766 -0.0018590838
-0.0054376051 0.02919504 -0.0013829619
0.0075636264 0.028639112 -0.002099365
0.0066130515 0.02863203 -0.0020357668
0.0056521315 0.028628767 -0.0020241588
-0.022122504 0.028114242 0.0046205372
0.004698433 0.02862335 -0.0019813627
-0.0063778423 0.029972631 -0.0011730492
0.016773542 0.035916802 -0.0042391568
-0.0073245671 0.030281592 -0.0010655373
0.012551738 0.028657239 -0.0021521896
-0.0054288786 0.029977741 -0.0012263805
-0.0082802698 0.030122772 -0.0010891408
0.011726471 0.028659552 -0.0022188276
0.016956216 0.028319879 0.0026951134
0.009510735 0.031477489 -0.0017103702
-0.0044871289 0.029199366 -0.0014224201
-0.0072356686 0.037365768 0.00044065714
0.0026387144 0.028295435 -0.0019001812
0.015810186 0.027741242 0.005991891
0.0075626988 0.028324647 -0.0021404773
0.0066121463 0.028317563 -0.0020768791
0.0056512561 0.028314406 -0.0020652562
0.00058250129 0.028439011 -0.0017521381
-0.00036557019 0.028432509 -0.0016884953
-0.0022757389 0.028426562 -0.0016547292
0.017187493 0.034457993 -0.0040630251
0.0085188318 0.028487522 -0.0021626949
0.015987454 0.028764363 0.0010064691
0.014212264 0.029390551 0.0012644082
0.014041083 0.028791649 0.0005248636
-0.021777842 0.027732529 0.0053261071
0.016940346 0.034833111 -0.0059981644
-0.027331321 0.027929038 0.0087627321
-0.012406219 0.029168207 -0.0011268556
-0.013357637 0.029166218 -0.0011116117
-0.0033594705 0.030298576 -0.0012153238
-0.0044784751 0.029982282 -0.0012692809
-0.018125895 0.028549865 -0.0014085919
-0.018075321 0.028155141 -0.00035774708
-0.021209273 0.028722808 -0.0023680925
0.0075788144 0.030209124 -0.0018486083
0.012558518 0.028339833 -0.0021621883
0.0047146678 0.029876975 -0.0017544925
0.017540472 0.028019253 0.0023398846
0.003609769 0.029868085 -0.0016646236
-0.0022707619 0.028896153 -0.0015670657
-0.022595625 0.027655605 0.0094124824
0.0026350524 0.027982319 -0.0019568801
-0.012415347 0.028231904 -0.0013437718
0.0026050843 0.029207053 -0.0017394274
-0.0054484755 0.028257087 -0.0015755892
-0.0063977782 0.02825259 -0.0015326291
-0.00054756738 0.039427571 0.00072267652
0.0075618122 0.028010208 -0.0021815896
0.0066090878 0.028003916 -0.0021283776
0.0056504197 0.028000068 -0.0021063536
0.00057875924 0.027968667 -0.0018293709
-0.00037432835 0.027964491 -0.0017969161
-0.021132139 0.027450118 0.0046896338
0.001534665 0.028916016 -0.0017385483
0.0085150767 0.028016573 -0.0022347718
0.016457094 0.036816794 -0.0052655339
-0.021411082 0.02728584 0.0068421811
0.018445758 0.027814206 0.00076808035
0.018245706 0.027777635 0.0012361109
-0.018121997 0.027915305 -0.0013970584
0.0066263136 0.030202486 -0.0017919689
0.017997282 0.027568543 0.0039497614
0.01794243 0.027820267 0.0050223023
-0.022373352 0.027447714 0.0091644377
0.016003435 0.027351871 0.006696716
-0.02321079 0.027729111 0.0099638551
-0.0073366798 0.02918594 -0.0012936294
-0.0082890112 0.029183272 -0.0012749583
0.018070104 0.027733967 0.0017977059
0.017900957 0.027687935 0.002390489
0.0096047129 0.040079392 0.00044712424
0.014105221 0.027385905 0.0019160211
-0.0093887616 0.030118104 -0.001041621
-0.010496971 0.030113444 -0.00099232793
-0.011447074 0.030267291 -0.00093483925
-0.014303058 0.030261343 -0.00089168549
-0.015253541 0.030258596 -0.00086165965
-0.015885381 0.030254956 -0.00081121922
0.017196128 0.029943131 -0.0045273006
0.015648322 0.029767871 -0.0043447465
0.015000252 0.029825561 -0.004066661
-0.0044975597 0.028260898 -0.0016081184
-0.015886135 0.027578168 -0.0011296868
0.0075609628 0.02769579 -0.002222687
0.0066060368 0.027690329 -0.0021798611
0.0056496281 0.027685754 -0.0021474361
-0.015859088 0.033231903 -5.4568052e-05
-0.02203615 0.027116749 0.0090576261
0.017180016 0.033836216 -0.0041548014
-0.023210945 0.026884854 0.0098639578
-0.0073481575 0.028248917 -0.0015001148
-0.00037497282 0.027650246 -0.0018379986
0.016954651 0.033909254 -0.0060454607
0.0075648781 0.039990116 0.00059570372
0.013381442 0.037111305 -0.00039616227
0.011736309 0.027711065 -0.0022903383
0.012824902 0.027677143 -0.0018239915
0.018519362 0.027161978 0.0070616454
-0.0033751 0.029203206 -0.0014490783
0.016722651 0.027679708 0.0068539381
0.016682556 0.027138237 0.0072977245
0.012406377 0.027705481 -0.0021976233
0.018125767 0.027203303 0.0043743253
0.01608335 0.026993442 0.0069647431
0.0047029164 0.029093828 -0.0019041002
0.0037546381 0.029086661 -0.0018352866
-0.020778975 0.027055224 0.0055194646
-0.023717297 0.026852272 0.010285765
-0.018719492 0.033857886 0.00010533631
-0.022437466 0.026892519 0.0093250573
-0.026823252 0.02640219 0.013854504
0.015690019 0.026672821 0.0067344457
0.021656251 0.026319809 0.011293709
-0.015886392 0.027263597 -0.001170814
-0.014307064 0.029162666 -0.0010720789
0.0085564908 0.031470552 -0.0016537607
0.0075578671 0.02738223 -0.0022741854
0.0066030789 0.027376812 -0.0022313446
0.0056467354 0.027372297 -0.0021989197
-0.019404132 0.032585956 -0.0033596009
-0.022065289 0.027565811 0.0075728297
-0.023210369 0.026373863 0.009860158
0.021047236 0.026339488 0.011029482
-0.019152042 0.032720007 -0.0028778315
-0.011464623 0.028234147 -0.0013624728
0.013005557 0.027303625 -0.0011485964
-0.023717798 0.027703881 0.010313094
-0.028001022 0.0265048 0.013441369
0.012745207 0.028964587 -0.0019915551
-0.021374056 0.026998367 0.0083953291
-0.02236533 0.02640114 0.0095211118
-0.0083010681 0.028247133 -0.0014918149
-0.0064057168 0.027471434 -0.0016890019
-0.0073563345 0.027468197 -0.0016616881
0.022103677 0.026000932 0.010952041
0.020585721 0.026025251 0.010611117
-0.026822301 0.026064025 0.013715789
-0.0033983681 0.027327858 -0.001830712
-0.0045058541 0.027322326 -0.0017797947
-0.0054568313 0.02731883 -0.0017507374
-0.0064109154 0.027003415 -0.0017869473
0.021592608 0.025993053 0.01103057
0.015069405 0.0320643 -0.00021445751
-0.021941341 0.028927654 -0.0022981614
-0.026511075 0.027474992 0.018467411
-0.019377148 0.031777259 -0.0039583594
-0.015863208 0.032602567 -0.00018933415
-0.019151518 0.033650514 -0.0027666986
-0.023209697 0.026031286 0.0098783672
-0.0073606968 0.026999777 -0.0017543882
0.021046171 0.025995441 0.01098451
0.0183673 0.027105499 0.0077711493
-0.01768633 0.035079461 0.001848951
-0.00046068057 0.027259873 -0.0019203871
0.016994139 0.03282747 -0.0060242116
0.019408638 0.026214857 0.0082909614
0.013386326 0.036064528 -0.00061018765
-0.011472685 0.027297828 -0.0015618801
-0.012421094 0.027293935 -0.001522392
0.00056737661 0.027344905 -0.0019704103
-0.0013246275 0.028273907 -0.0017129481
-0.0022822358 0.027957937 -0.0017527193
-0.0033868663 0.028264994 -0.0016399622
-0.021414846 0.026536919 0.0095226318
0.016570481 0.026447427 0.0074490905
-0.023717156 0.026342457 0.010250628
0.015200743 0.029559918 -0.0012351125
0.0046961512 0.028152265 -0.0020481944
-0.02236389 0.026056688 0.0095705688
-0.0083086286 0.02730931 -0.0016704351
0.013635436 0.026458098 0.0012599528
0.019016864 0.027146988 0.0051215738
-0.009354258 0.029207658 -0.0012306422
-0.010441719 0.029142883 -0.0011889488
-0.011456111 0.029171435 -0.0011594445
-0.015256613 0.029159203 -0.0010324866
-0.016037207 0.028828928 -0.00085566938
-0.017806165 0.028859425 -0.0013056397
0.01664432 0.028880965 -0.0043292791
0.015906068 0.029121604 -0.0040656328
-0.026821353 0.025726272 0.013577133
0.022545008 0.025684463 0.010594949
0.021705108 0.025668133 0.010762155
-0.015884958 0.026631873 -0.0012219101
-0.017660383 0.029932 0.0018374622
-0.026494374 0.028318696 0.016530111
0.017651537 0.027249098 0.0075429827
-0.023039671 0.025695082 0.0098184049
0.020628871 0.02566893 0.010721967
0.018625671 0.026016057 0.0085969716
0.019102959 0.025808327 0.0090415776
-0.00022687949 0.02702721 -0.0019826889
-0.011379098 0.037827086 0.00061257184
0.0015300401 0.028288571 -0.001838088
0.011736298 0.026765635 -0.002403453
0.01660694 0.025931377 0.0075285882
-0.027509516 0.025428649 0.01297228
-0.027280606 0.025642466 0.013188899
-0.027858064 0.025765087 0.013111323
-0.022362072 0.025710106 0.0096407831
0.019747114 0.025719766 0.010100007
0.011728751 0.028186139 -0.0022649616
-0.026818151 0.025407417 0.013220415
0.02251195 0.025350325 0.010441065
0.021668224 0.025335152 0.010592684
-0.026140504 0.028671529 0.016544178
-0.015885178 0.026317293 -0.0012630373
-0.023038564 0.025349483 0.0098677129
0.020607257 0.025331741 0.010604411
0.018207824 0.025529029 0.0082819611
-0.020550009 0.030533303 -0.0028727353
-0.021945111 0.029407809 -0.0024243891
-0.026468134 0.025089838 0.012863323
-0.027509529 0.025084572 0.012927309
-0.027162945 0.025081813 0.012957886
-0.0016580336 0.026708495 -0.0019905716
0.0037465077 0.028302971 -0.0019692183
0.010759445 0.029128667 -0.0021559447
-0.026808726 0.028912306 0.01276511
-0.027154401 0.028912392 0.012765661
-0.011476797 0.026516058 -0.0017008185
-0.012425085 0.026512265 -0.001663059
-0.00038898364 0.026556797 -0.002054438
0.016496977 0.02826095 0.0034861714
-0.021957723 0.035351094 -0.0024033934
0.0026293434 0.027355749 -0.0020624101
-0.0013347417 0.027335351 -0.001888141
-0.0022881441 0.027332207 -0.0018660277
-0.020669041 0.025731513 0.0093888789
-0.021343268 0.025714034 0.0095941722
0.016614212 0.025592498 0.0075157583
-0.02236045 0.025363967 0.0097005218
0.015715865 0.025602341 0.0073819906
-0.023581222 0.025599984 0.010134444
0.019660329 0.025349015 0.010382429
-0.0092565771 0.027304666 -0.001624018
0.011737524 0.027237922 -0.0023416877
0.0046884082 0.027368991 -0.0021803379
-0.0054629371 0.026537146 -0.0018914044
-0.006414786 0.026534805 -0.0018744469
-0.0073643755 0.026531175 -0.0018419176
-0.0083131175 0.026527151 -0.001804173
0.022588907 0.025037317 0.010058761
0.021649318 0.024997201 0.01048553
0.020577198 0.024997637 0.010455802
0.019771257 0.02502742 0.010103941
-0.026815919 0.025081765 0.01295732
-0.0032480117 0.026390517 -0.0020051152
-0.0043549016 0.026384819 -0.0019524693
-0.0054635331 0.026066355 -0.0019529611
-0.0064186081 0.026066381 -0.0019619167
-0.027205601 0.028294213 0.016906053
-0.015256682 0.028214786 -0.0011419654
-0.016008046 0.028264761 -0.00096413493
0.017651608 0.026268777 0.0075885206
0.015913477 0.026098631 0.0075410306
0.014648696 0.033455096 -0.0028775632
-0.023208566 0.025009042 0.0098549724
-0.026134601 0.028384363 0.015530095
0.018436687 0.025173351 0.0084398389
0.015862582 0.025215417 0.0079139173
0.017155455 0.028864287 -0.0047942698
-0.026504135 0.02788729 0.017670766
-0.027509999 0.024737744 0.012913451
0.016979979 0.028373076 -0.00025907159
-0.0023577176 0.026455382 -0.0020099431
-0.020669598 0.02505919 0.0092904717
0.0037355758 0.027363766 -0.0021374971
0.015885672 0.028195133 0.0043658167
-0.01147864 0.026046693 -0.0017779469
0.00055677444 0.026407111 -0.002145499
-0.0013078507 0.026360163 -0.0020878613
0.0015211906 0.02734879 -0.001999408
0.016616164 0.025255345 0.007482186
-0.027162192 0.024743233 0.012850627
0.016745003 0.028636228 -0.0016733259
0.0075525958 0.027069591 -0.0023360401
0.0066023488 0.027062504 -0.002272442
-0.022360198 0.025024803 0.0096771717
-0.0073655266 0.026060915 -0.001908645
-0.0083136354 0.02605642 -0.0018656999
-0.0092613325 0.02636583 -0.0017817616
0.020640986 0.026624907 0.0096183866
-0.0092494357 0.028242584 -0.0014454126
-0.010355054 0.02823678 -0.0013831705
-0.013362027 0.028226119 -0.0012764931
-0.014308363 0.028219648 -0.001198858
-0.017789723 0.0285208 -0.0010034144
-0.021440838 0.028373085 -0.001174435
0.0096198898 0.025824301 -0.0025966316
0.022414012 0.024693383 0.010024577
0.021639502 0.024656698 0.010409534
0.0086848792 0.036191881 -0.00057820976
-0.015258449 0.027272627 -0.0012791306
-0.015886638 0.026949044 -0.0012119263
-0.021342941 0.02486885 0.0095134079
0.022825668 0.024731237 0.0096193552
0.017491831 0.03197211 -0.0043884963
-0.023038346 0.024671338 0.009810552
-0.025658187 0.024535231 0.012579516
-0.026466951 0.024588913 0.012629822
0.018349634 0.024804795 0.0087225586
-0.022360122 0.024686512 0.0096434504
-0.027510474 0.0243908 0.012899607
0.0085006002 0.025819683 -0.0025639683
0.018774228 0.026505664 0.0074951947
0.0152252 0.026043041 0.0061803162
-0.0026154611 0.025765633 -0.0021123141
-0.0035662316 0.025761846 -0.0020797998
0.003725009 0.026425332 -0.0023056567
0.014640572 0.027814265 0.0027586967
0.005641751 0.02705976 -0.0022607595
-0.00039659254 0.026089473 -0.0021574944
-0.020502312 0.024729744 0.0091684014
-0.018716387 0.032431141 2.9057264e-05
-0.020696279 0.028956398 -0.0027059019
-0.027162218 0.02439926 0.012805656
0.020579269 0.024653627 0.010421306
0.019298358 0.025065344 0.0096686482
0.018996859 0.024706485 0.0098112226
0.011744177 0.026290203 -0.0024288595
0.004680248 0.026429256 -0.0023346692
-0.027137285 0.027979702 0.011257648
0.0096175019 0.025510704 -0.0026455075
-0.00357108 0.025450934 -0.0021519363
-0.0043598525 0.025602793 -0.0020835847
-0.005466789 0.025597528 -0.0020352453
0.02240861 0.024352239 0.0099642277
0.02164772 0.024310563 0.010395765
0.017463965 0.025263036 0.0074135959
0.016593786 0.024926651 0.0073552579
0.015813882 0.024895385 0.0076831579
-0.026492059 0.028687503 0.016294837
-0.021343198 0.024363758 0.0094421208
-0.022189893 0.024348203 0.0096094459
-0.0064191166 0.025595777 -0.0020234585
-0.0073666386 0.025590738 -0.0019753724
-0.025600959 0.024066772 0.012633696
-0.026467007 0.024072638 0.01257284
-0.026796792 0.027623884 0.011431098
-0.017550485 0.031639844 0.0020710677
-0.020690048 0.02847394 -0.0025484711
-0.021514416 0.027945541 0.0024554282
0.003718026 0.025643077 -0.0024376661
0.0026089288 0.025636692 -0.0023816228
-0.020501543 0.024390459 0.0091555268
0.015201153 0.027155576 0.0048767775
0.016612379 0.024583856 0.0073838979
-0.022699278 0.024342364 0.0096725076
0.015753305 0.024580499 0.0074058324
0.013359578 0.03047771 -0.0006711632
0.013580499 0.029946182 0.00014100969
-0.021364786 0.027985612 0.0019091517
0.0075497162 0.026441656 -0.0024251342
-0.0083141029 0.025585731 -0.0019272566
0.014327208 0.026991947 0.0027461946
0.0065958705 0.026436068 -0.0023788363
0.0056361873 0.026433237 -0.0023636669
-0.0092631951 0.025582202 -0.0018946975
0.022421667 0.024005257 0.0099660903
0.021647008 0.023967268 0.010350883
0.020604087 0.023958609 0.010424912
0.019924561 0.023947598 0.010529563
0.018770067 0.023978479 0.010188907
0.0096133407 0.025197895 -0.0027021468
-0.0035714135 0.025137199 -0.0021929443
-0.0043625236 0.025133613 -0.0021606535
-0.005468633 0.025127847 -0.0021071434
-0.0064195786 0.025125198 -0.0020849705
0.015225897 0.03018962 -0.0010688156
0.014941985 0.029860109 -0.00094343722
0.01689771 0.029276155 -0.0062048435
-0.018356742 0.031274702 0.00083805621
-0.022359449 0.024006875 0.0096071064
-0.023038119 0.023992999 0.0097533762
-0.026467176 0.023727113 0.01254867
-0.017649837 0.030881969 0.0021611601
-0.020681079 0.026440762 0.0090300888
-0.000404872 0.025465917 -0.0022845417
-0.0013557542 0.02546173 -0.0022485405
-0.020501198 0.024052538 0.0091270953
-0.021343548 0.024027724 0.0093877017
0.016587371 0.024256554 0.0072466284
-0.027335335 0.023714345 0.012684882
-0.0073677078 0.025120609 -0.00204207
-0.02194785 0.031285983 -0.0023520887
-0.0083156861 0.025116056 -0.0019991398
0.019491853 0.023912722 0.010887921
0.011731071 0.025507411 -0.0025784224
0.013929999 0.02570843 0.0023427755
0.0056252871 0.025495131 -0.0025318116
-0.0092635956 0.025111537 -0.0019562244
0.017294528 0.032316126 -0.0050362498
0.009747779 0.039051831 0.00010202825
0.015322728 0.035906285 -9.0584159e-05
0.018879423 0.025427353 0.0094646215
-0.010362386 0.027299259 -0.0015687197
-0.013366535 0.027287059 -0.0014447719
-0.014311522 0.027279112 -0.0013533086
-0.027342057 0.026425289 0.013564348
0.015194016 0.030440524 7.7068806e-05
0.015067974 0.030149311 -0.00043331087
0.022607541 0.023659874 0.0099521279
0.021619486 0.023633061 0.010212734
0.017359504 0.024397289 0.0075683296
0.017701821 0.02418988 0.0079606771
0.016592273 0.023918565 0.0072234273
0.015748711 0.024155313 0.007108748
-0.022359543 0.02366944 0.009562999
-0.023038203 0.023655266 0.0097092241
-0.026467115 0.023384549 0.012493387
0.008496305 0.025349826 -0.0026411265
0.0037099496 0.024861911 -0.0025765598
0.0026006438 0.024855809 -0.0025230646
0.010759046 0.027396327 -0.0023614317
-0.020500418 0.023713047 0.0091142058
-0.021343652 0.023690734 0.009343639
0.013279194 0.029385034 -0.0011131614
0.0075396504 0.025502533 -0.0025863796
-0.0054675732 0.024813101 -0.0021377802
-0.0064185541 0.024810486 -0.0021156222
-0.0073667169 0.024805879 -0.0020727217
0.014083905 0.025655162 0.0029498339
0.014820741 0.034250416 -0.0004259795
0.01733022 0.030605935 -0.005102396
-0.0035717227 0.024823477 -0.0022339672
-0.0044316947 0.024685843 -0.0022235811
-0.005467834 0.024499357 -0.0021788031
-0.02235963 0.023332017 0.0095188767
-0.02320805 0.023312893 0.0097119808
0.014976436 0.029349178 -0.001283288
0.015380329 0.023983767 0.0065408796
-0.023038033 0.024330745 0.0097975284
0.020598968 0.024303798 0.010449037
0.019599268 0.024441995 0.010437191
-0.027180757 0.028082401 0.014799252
0.010758398 0.026451878 -0.0024778992
-0.0022663642 0.025418362 -0.0022173226
0.016556272 0.023595953 0.0070448369
0.015852144 0.023600299 0.006994009
-0.0038946532 0.024512665 -0.0023055971
-0.0064188018 0.024496771 -0.0021566302
-0.0073669553 0.02449215 -0.0021137297
-0.0083154701 0.024644939 -0.002055496
0.011707963 0.024729192 -0.0027693659
0.013934655 0.024731252 0.0022412539
0.0056184977 0.024712939 -0.0026620626
0.014758481 0.033362858 -0.00063221157
-0.021343751 0.023353755 0.0092995912
0.022474883 0.022958463 0.010018155
0.021555727 0.022969026 0.0099055022
0.020654792 0.022973822 0.0098498017
0.019764585 0.022975489 0.0098251849
-0.00452381 0.024193462 -0.0022938102
-0.0054680668 0.02418562 -0.002219826
0.017337112 0.023395028 0.0073585659
0.017901322 0.023314347 0.0081661493
0.016566707 0.023256034 0.0070423633
-0.023207961 0.022973504 0.0096833557
-0.025601337 0.022687417 0.012500614
-0.026467212 0.022697471 0.012403563
-0.027161626 0.022685926 0.012518644
0.016132409 0.028856181 -0.00028905272
0.0075292308 0.024564341 -0.0027510375
0.0065745208 0.024559645 -0.002711609
-0.00041219592 0.024528412 -0.0024455935
-0.0013639051 0.024525 -0.0024165213
-0.0023135096 0.024520574 -0.002377063
-0.020498991 0.023202766 0.0091026127
-0.021343118 0.023013625 0.0092866123
0.013208518 0.028610695 -0.0014820397
0.013481637 0.02805499 -0.0004683435
-0.012427251 0.026043322 -0.0017453581
-0.014312829 0.026337044 -0.0014834553
-0.015257611 0.026327526 -0.0013781935
0.011695778 0.024262112 -0.0028776824
0.0056115557 0.024245277 -0.0027547032
-0.022359185 0.022991441 0.0095058531
-0.0064190272 0.024183067 -0.0021976531
-0.0073671713 0.02417843 -0.0021547526
-0.0083152112 0.024173819 -0.0021118373
0.002618853 0.026417397 -0.0022323281
0.0015101973 0.026410863 -0.0021745414
0.013788896 0.024137527 0.0015863329
-0.0022223908 0.026318764 -0.0020799935
0.022824882 0.024389405 0.0095746666
0.018627314 0.024370126 0.0097048134
-0.013369843 0.026347514 -0.0015990883
-0.015885388 0.026002729 -0.0013041645
0.022351773 0.022595964 0.010159969
0.017365536 0.022878934 0.0074013174
-0.010372943 0.02385406 -0.00209786
-0.011482969 0.023853749 -0.0020961314
-0.014948661 0.023823908 -0.0018110126
-0.026467266 0.022353945 0.012358651
-0.027161675 0.022342155 0.012473702
0.012360377 0.024570094 -0.0027649701
-0.0030988827 0.02545476 -0.0021889508
0.02263142 0.023308918 0.0099902004
0.021589087 0.023300294 0.010064259
0.020537386 0.023466773 0.01012446
0.01959051 0.023484441 0.010286823
0.018899007 0.023481954 0.0099505484
-0.020497121 0.02269063 0.0091065466
-0.02134175 0.022670144 0.0093047172
-0.003895117 0.023885453 -0.0023875833
-0.0054682717 0.023871889 -0.002260834
-0.0073686168 0.023865793 -0.0022061169
-0.0092644338 0.023856549 -0.0021203011
0.011687735 0.02395091 -0.0029498637
0.013377996 0.02397779 -7.1942806e-05
0.0046505593 0.023930859 -0.0027942806
0.0096350256 0.02912391 -0.0021377057
-0.014317323 0.023828337 -0.0018534362
-0.0064205229 0.023870442 -0.0022490025
-0.0083153956 0.023860086 -0.0021528453
-0.022359069 0.022652898 0.0094720721
0.021446323 0.022258503 0.01005429
0.020522768 0.022272082 0.0099210441
0.01956016 0.022301577 0.0096376687
-0.010368004 0.026361335 -0.0017385781
-0.0045212619 0.023720808 -0.0023346096
-0.0054657068 0.023555974 -0.0022811592
0.008521365 0.029273905 -0.0020599067
0.012833813 0.031789396 -0.0013178885
0.022870423 0.024032796 0.0096854717
0.015005639 0.023794698 0.0050362051
0.01857491 0.023364725 0.0093844533
0.01807362 0.023759607 0.0088698715
-0.015886404 0.02537464 -0.0013967603
-0.027510144 0.023017351 0.012688532
0.012469927 0.023729829 -0.0028644949
0.011679744 0.023639845 -0.0030220151
0.010724967 0.023790881 -0.0029482543
-0.020550843 0.031311549 -0.0028156042
-0.021948598 0.031755261 -0.0023379922
-0.025601363 0.022172671 0.012425438
-0.00041712821 0.02374698 -0.0025739819
-0.0013689436 0.023743831 -0.0025466383
-0.020494966 0.022345655 0.0091401786
-0.022358617 0.02231212 0.0094590336
0.018317858 0.027245672 0.0038440526
0.0075246226 0.023781162 -0.0028709024
0.0065685753 0.023777314 -0.0028383881
-0.011478204 0.025418198 -0.0018496066
-0.012428319 0.025416423 -0.001834318
-0.014313496 0.025394578 -0.001606673
0.0056068581 0.023776751 -0.0028369278
-0.023377322 0.022284675 0.0097195655
0.016884698 0.028455041 -0.0035243183
-0.0073687844 0.023552109 -0.0022471398
-0.0083155576 0.02354636 -0.0021938682
-0.021340379 0.022326414 0.0093227774
0.020497007 0.02187123 0.01041469
0.019603016 0.021942955 0.0097482204
-0.0045215134 0.023250274 -0.0023961216
-0.0054658614 0.023242213 -0.0023221672
0.021602595 0.021856751 0.010552779
0.017398385 0.022529028 0.0074815154
0.01674947 0.022425938 0.0076423138
0.0095361043 0.032418713 -0.0014963746
0.016032988 0.028965831 -0.0018496215
0.022394096 0.021761468 0.01143685
0.007524265 0.023310252 -0.0029324889
-0.026467403 0.021668034 0.01225847
-0.027510786 0.021637866 0.0125397
-0.0032230355 0.024476992 -0.0023428202
-0.0038948953 0.024199056 -0.0023465902
0.018766364 0.022926342 0.0091693252
-0.020584747 0.027735855 0.00094597042
-0.015258235 0.025384525 -0.0015014857
-0.025774054 0.021678083 0.012164176
-0.027162557 0.021647921 0.012445956
0.0046710651 0.025490701 -0.0024958551
0.0037143324 0.025173727 -0.0025147796
0.0026053898 0.025167357 -0.0024587214
0.0015007481 0.025473092 -0.0023426116
0.014835915 0.026501955 0.0046973974
0.015706448 0.022653064 0.0063033849
0.021685926 0.022525495 0.0099943131
0.020645553 0.022634733 0.0097739995
0.019746976 0.022639833 0.0097183287
0.014931878 0.02954844 -0.0034570098
-0.021235192 0.031494714 -0.0024856776
-0.021633906 0.031285256 -0.0023369491
-0.00042000227 0.023278274 -0.0026509911
-0.0013692267 0.023273513 -0.0026081204
-0.020495515 0.022010427 0.0090806037
-0.02235936 0.021979049 0.009373486
0.013517858 0.02681933 0.00083486736
0.0065660421 0.023307618 -0.002910316
0.014327781 0.023080431 0.0022663027
0.017804449 0.022843782 0.0077425241
0.010757638 0.028341644 -0.0022553355
0.01677225 0.028398737 -0.0027754754
-0.0083156973 0.023232639 -0.0022348762
-0.021339469 0.021984665 0.0093200952
0.019650256 0.021581968 0.0098741949
-0.0045245253 0.022938872 -0.0024578273
-0.0054687392 0.022930736 -0.0023838878
-0.006421281 0.023243494 -0.0023344904
-0.010371569 0.024480468 -0.0020054728
-0.027510231 0.022329276 0.012598574
0.012398427 0.02550073 -0.0024963468
0.016260451 0.022063876 0.0070444942
0.00054707937 0.025469813 -0.0023170412
0.013555268 0.023080176 -0.00078809261
0.020093137 0.026946193 0.0077082068
-0.003267711 0.023421662 -0.0025096089
-0.0038984045 0.023260526 -0.0024902821
0.018791566 0.022054078 0.0087192506
0.016998021 0.021731621 0.0085119456
-0.013373029 0.024466285 -0.0018695444
-0.014315276 0.024453968 -0.0017471462
-0.015289609 0.024330407 -0.0016698092
-0.026467269 0.023039971 0.012458846
-0.015890146 0.024279187 -0.0015924722
-0.02727744 0.023256889 0.012614474
0.023877582 0.020854373 0.01648207
-0.020536765 0.027290018 0.0025256723
0.00053944811 0.024532204 -0.0024780929
0.015015701 0.022607302 0.0035894066
0.017021751 0.029900383 -0.006254673
0.018354708 0.022766734 0.0084875971
-0.010369626 0.025420524 -0.001869455
-0.011481687 0.024480032 -0.002003774
-0.027335726 0.024055324 0.012760967
-0.013371098 0.025406294 -0.0017291456
-0.027337801 0.021290356 0.012525484
-0.0045260377 0.022626396 -0.0025091767
-0.0054701827 0.022618188 -0.0024352372
-0.006422393 0.022616956 -0.0024233907
0.017059272 0.029508363 -0.0050564408
-0.026643304 0.020949684 0.012448341
0.01930085 0.02663473 0.0073222369
-0.0032714494 0.022640448 -0.00263533
0.019335913 0.021295179 0.0093331933
0.01755883 0.021376783 0.008606419
0.022421924 0.020919135 0.012681231
0.021651035 0.020938728 0.0125065
-0.014320706 0.022577029 -0.0020590276
-0.015266214 0.022567701 -0.0019747317
-0.014319539 0.023203351 -0.0019631386
-0.015265133 0.023194298 -0.0018788278
-0.026467044 0.022014815 0.012272313
-0.027162114 0.021995101 0.012459829
0.014924245 0.029295955 0.0027314574
0.0037064143 0.024392813 -0.0026536286
0.0027550869 0.024387907 -0.002610743
0.0016055107 0.024508825 -0.0025267601
-0.0023199525 0.023426944 -0.0025576651
-0.021339325 0.021646166 0.0092863441
-0.022359766 0.021643877 0.009308666
-0.023039063 0.021632468 0.0094132572
-0.0073689912 0.023081589 -0.0023086518
0.00053234957 0.023438185 -0.0026578754
-0.00042198226 0.022652341 -0.0027433336
-0.02049881 0.021348896 0.0088838786
-0.022360522 0.021311117 0.009223178
-0.023547435 0.021265214 0.0096338242
0.0065853763 0.025497362 -0.0025435537
0.01402778 0.022378884 -0.00031350553
0.007517131 0.022685871 -0.0030456036
0.0065546837 0.022685733 -0.0030440837
-0.012430977 0.024477607 -0.0019815713
-0.0213394 0.021308791 0.0092422366
0.0046622455 0.02455277 -0.0026569813
-0.0073703807 0.022612242 -0.0023804903
-0.0083170757 0.022606371 -0.0023272485
-0.0092682298 0.022605153 -0.002315402
-0.010374976 0.022601023 -0.002277419
-0.011485324 0.02260155 -0.0022808462
-0.012434391 0.022599183 -0.0022586286
-0.023039535 0.021298338 0.0093380809
0.019903997 0.020864941 0.010063574
0.012856631 0.023870027 -0.0021642745
-0.0048455149 0.022313969 -0.0025600195
-0.0054730047 0.022306867 -0.0024969429
-0.0064224694 0.022303322 -0.0024643838
-0.020101186 0.037380785 -0.002771005
0.012403024 0.026444886 -0.0023624152
-0.026819438 0.020577198 0.012651935
-0.025601182 0.02337588 0.012580112
0.021516455 0.02057193 0.012621537
0.020885004 0.020609204 0.012296632
0.0085329916 0.030373119 -0.0018820614
-0.027047521 0.028009737 0.018506661
-0.012434461 0.02228561 -0.0022996366
-0.013377581 0.022431824 -0.0021845102
-0.014320776 0.022263134 -0.0021000654
-0.01510875 0.022255445 -0.0020315498
-0.026467489 0.021325691 0.012203202
0.012565354 0.028022321 -0.0021722168
0.015489252 0.028629545 0.0028954446
-0.017795049 0.022394588 -0.0018516034
0.01515534 0.028254963 0.0035085231
-0.020495132 0.021671847 0.0090520829
-0.023445396 0.021809299 0.0096764416
0.020827016 0.021639768 0.010935172
-0.00042014942 0.022964723 -0.0026919842
0.017995799 0.021244012 0.0082575977
-0.020546602 0.029593982 -0.0028643012
-0.0083158184 0.022918923 -0.0022758842
0.017574577 0.022043914 0.0078993291
-0.0092640501 0.024484029 -0.0020382851
-0.0083194785 0.022295047 -0.0023889542
-0.021338519 0.020966681 0.0092395097
-0.02235953 0.020966694 0.0092411339
-0.023039201 0.02095723 0.0093249828
0.019826187 0.020554349 0.0097395629
-0.0045275763 0.022000374 -0.0026015192
-0.0054730568 0.021993224 -0.0025379509
0.01074818 0.025511373 -0.0026358515
-0.019604545 0.033728532 -0.0031862855
0.020859005 0.020967621 0.012249038
-0.010377368 0.022133239 -0.0023622364
-0.012434518 0.021972036 -0.0023406297
-0.013377671 0.021961242 -0.0022460371
-0.014320832 0.021949237 -0.0021411031
-0.027340485 0.020752069 0.012651995
-0.01913855 0.02184232 0.0044888109
0.0016404185 0.023444023 -0.0027100593
-0.00042122602 0.022181455 -0.0027996451
0.014592147 0.021632858 0.00050158799
-0.011483554 0.023226861 -0.0021815896
0.0056021586 0.0231515 -0.0029396713
-0.0013693664 0.022959974 -0.0026491135
0.015766302 0.021514861 0.0043904185
0.0096254069 0.026451424 -0.0024962723
-0.0032700617 0.022169057 -0.0026864707
-0.0045275968 0.021686781 -0.0026425272
0.0086278748 0.021751042 -0.0032299608
0.0075101759 0.021747962 -0.0031997114
-0.019136835 0.021639731 0.0027801692
0.0036971308 0.023456367 -0.0028206557
-0.018462583 0.021748863 0.00097891688
-0.018891044 0.021426147 0.0023549497
-0.021337613 0.020624399 0.0092367679
-0.023445657 0.020728119 0.0095287859
0.020025054 0.021159288 0.01054287
0.00053092837 0.021714026 -0.0028885305
-0.00042041019 0.021710543 -0.0028559566
-0.0013696291 0.021705827 -0.0028130859
-0.020664021 0.020318737 0.0089227259
-0.0064237956 0.021990895 -0.0025157332
-0.0083206985 0.021982605 -0.0024403036
0.017335379 0.020795198 0.0076802075
-0.0092647206 0.023229102 -0.0022023469
-0.010373219 0.023226667 -0.0021799058
-0.018153487 0.022651326 -0.00271523
-0.018020116 0.021693792 5.7473779e-05
0.013224738 0.02178565 -0.0035398901
0.012639785 0.021757597 -0.0033011287
0.0065545384 0.021744525 -0.0031671375
0.017727939 0.020851208 0.0071986318
-0.01589375 0.023184536 -0.0017880946
0.009609459 0.024570718 -0.002797246
0.0027465951 0.023451257 -0.0027751774
-0.02070762 0.032244336 -0.0027327836
-0.020997606 0.020289293 0.0091713965
-0.0045275912 0.021373184 -0.0026835203
0.019198636 0.020840533 0.0087699443
0.017604085 0.021017609 0.0087326467
0.020963719 0.021414714 0.011393785
-0.017745845 0.021805916 -0.00090484321
0.015494814 0.020878831 0.001315102
0.0065545682 0.022215128 -0.0031055957
-0.017582126 0.020768467 0.0023613721
-0.018232401 0.02092375 0.0024378449
-0.019204536 0.021063728 0.002644062
-0.012431921 0.023380373 -0.00213027
-0.018219044 0.022108067 -0.00073859096
0.0065614302 0.022996049 -0.0029720217
0.014826091 0.021032711 4.4733286e-05
-0.015267681 0.021942051 -0.0020775199
0.0085141938 0.027387455 -0.0023135096
0.0016378574 0.022347696 -0.0028651804
-0.02337742 0.020084072 0.0094581246
0.0084877927 0.02456769 -0.0027766079
-0.021170599 0.019964905 0.0090190172
0.012611529 0.023125313 -0.0029794574
0.016631579 0.022894457 0.0072470158
-0.0039002616 0.021380512 -0.0027465671
-0.0045275632 0.021059586 -0.0027245283
0.021571295 0.019384541 0.0107494
-0.021676613 0.019602869 0.0091772527
-0.021561408 0.020157043 0.0093230158
-0.022356173 0.019971542 0.009321034
-0.023377214 0.019573711 0.0094176531
-0.0073723178 0.022143565 -0.0024575293
0.015619425 0.02112224 -0.00070083141
0.014934363 0.020737551 -0.00021453202
0.010719491 0.02316466 -0.0030511022
0.0027373973 0.022358948 -0.0029652268
-0.0013695527 0.022332899 -0.0027310997
0.0075195488 0.022998597 -0.0029942095
0.0005310066 0.022341184 -0.0028065294
0.0046473667 0.023305023 -0.0028900951
0.016676841 0.020946948 0.00074459612
0.015546797 0.021006158 0.00026063621
-0.013376086 0.023371369 -0.0020459592
0.013301032 0.022222809 -0.0031836033
0.012642527 0.022385173 -0.0032085627
0.0027405955 0.02141634 -0.0030709654
-0.0045275036 0.02074598 -0.0027655214
0.0086210947 0.020813219 -0.0033840686
0.0065503512 0.020805882 -0.0033108443
-0.023208037 0.022635669 0.0096391886
-0.019452522 0.020901326 -0.0039499849
-0.0064251106 0.021364914 -0.0026080906
-0.0073742252 0.021361386 -0.0025755316
-0.0092694368 0.022135887 -0.0023872703
-0.011487335 0.022133572 -0.0023630261
-0.0032669418 0.020755759 -0.0028502494
-0.01866143 0.020734947 -3.5375357e-05
0.014720051 0.02043963 -0.00044213235
0.015063139 0.020276628 0.00085903704
-0.011488976 0.021351825 -0.0024827272
-0.012436029 0.02134699 -0.0024398565
0.0085065346 0.026446406 -0.0024610311
0.010716667 0.022380346 -0.0031641275
0.00053453818 0.021241119 -0.0029293448
-0.0013695937 0.021235516 -0.0028745681
0.016180752 0.021294395 -0.0034513175
0.014471592 0.023511469 0.0028894544
-0.021681301 0.019292306 0.0089161396
-0.015268673 0.021315744 -0.0021734089
-0.018176045 0.020749321 0.0018479228
-0.01924289 0.020861046 0.0015991032
-0.0032668486 0.02044221 -0.0028912425
0.0075113382 0.022218069 -0.0031330138
0.014584603 0.020024303 0.00025980175
-0.0004169289 0.021237688 -0.0028967857
0.01849599 0.021084767 0.008146733
-0.0054729152 0.02042496 -0.0027429909
0.020698478 0.01908087 0.0076239705
-0.0073745046 0.020421039 -0.002701968
-0.0054730717 0.021365931 -0.0026199818
-0.0083230566 0.021357847 -0.0025429875
-0.0092724264 0.021355147 -0.0025173426
-0.010380001 0.021352353 -0.0024905652
-0.018132729 0.020116374 -0.00026407838
-0.0180014 0.020369897 0.0002938658
0.0065535065 0.02127455 -0.0032338202
-0.021453276 0.01988945 0.0041426867
0.0016396679 0.021405684 -0.0029778481
0.020136831 0.019664221 0.0057165623
-0.011490193 0.020413015 -0.00261949
-0.00041498616 0.020452376 -0.0029889643
-0.0013649687 0.020448128 -0.0029495209
-0.019376449 0.020967586 -0.0019253939
0.021628635 0.021365333 0.011843055
0.0055968761 0.022370022 -0.0030663311
0.0046435203 0.022366062 -0.0030303299
0.0036921501 0.022361321 -0.0029874444
-0.0023215618 0.022330536 -0.0027088821
0.01783636 0.020841878 0.0043936521
-0.0040892586 0.022319648 -0.0026108921
0.013916174 0.021301372 -0.0021710098
-0.015268011 0.02037248 -0.0022862405
-0.021154959 0.020044535 0.0029024333
0.0096355211 0.027391983 -0.0023391992
0.016591894 0.021337513 -0.0040700585
0.012646144 0.019868629 -0.00352709
0.011675639 0.022384321 -0.0032001287
0.0055968575 0.02142906 -0.0031893402
0.010710848 0.021440759 -0.0033114403
0.0016436819 0.020462226 -0.0030802041
-0.014321903 0.020381441 -0.0023600608
0.020761615 0.018870061 0.0065882653
-0.0073738415 0.019636549 -0.0028010309
-0.0092768539 0.019636309 -0.0027875304
-0.0064249691 0.020424102 -0.0027310848
-0.0083252694 0.020419706 -0.0026866347
-0.0092759822 0.02041878 -0.0026747435
-0.010384279 0.020417251 -0.0026574284
-0.013378272 0.020393455 -0.0024580061
0.012642538 0.02128478 -0.0033524185
0.011675669 0.02144157 -0.0033233762
0.0027434807 0.020473961 -0.003180176
0.00053716265 0.020455275 -0.0030180961
-0.011490033 0.019629251 -0.0027219355
-0.01526365 0.019578798 -0.0023235083
0.015509302 0.021147404 -0.003553465
0.0016483273 0.01967494 -0.0031595081
-0.0013648383 0.019664302 -0.0030537397
0.01240111 0.027234022 -0.002275005
-0.015895434 0.020359037 -0.0021784902
-0.021209624 0.020152094 0.0007430315
-0.0064237453 0.019482294 -0.0028472245
-0.0083253458 0.01947942 -0.002813071
-0.020535186 0.020191833 0.001723662
-0.021147165 0.020150745 -0.0030216277
0.011679398 0.023168422 -0.0030836314
-0.019022835 0.020856988 -0.0010268688
0.017205684 0.020315312 -0.0045574903
0.016583374 0.020617958 -0.0044294298
0.015663328 0.020596685 -0.004252255
-0.007373618 0.019166091 -0.002862528
-0.020550122 0.019358492 -0.0042129606
-0.011489884 0.019158963 -0.0027834326
0.010735033 0.024572756 -0.0028075129
0.0016501304 0.019203275 -0.0032133162
-0.0013669655 0.019195937 -0.0031307191
0.0075102542 0.021277256 -0.0032612532
0.0046434943 0.021425258 -0.0031533241
0.0036921222 0.021420607 -0.0031104237
-0.0023189597 0.021387978 -0.0028146207
-0.0032685716 0.021384086 -0.0027786046
-0.02136948 0.019778227 0.0077506304
-0.013379107 0.021335881 -0.0023452938
-0.0143224 0.021323953 -0.0022438616
0.013383193 0.020452276 -0.0030949563
0.016842676 0.02128987 0.007855922
-0.0054725241 0.01948392 -0.0028660297
-0.014316916 0.018802885 -0.002499938
-0.015883148 0.018760912 -0.0021879375
0.009637 0.028336029 -0.002221033
0.0097595919 0.023475595 -0.002982676
0.014926659 0.020516651 -0.0041180402
-0.0073734354 0.018852437 -0.002903536
0.0046438333 0.020484425 -0.0032763332
0.021599708 0.017631661 0.0081260949
-0.0092766639 0.019166017 -0.0028490126
-0.010386095 0.019479485 -0.0028010458
-0.020399019 0.01907105 -0.0044187754
0.012673834 0.020483386 -0.0033347607
0.0065498259 0.019551903 -0.0034817904
0.0027486384 0.019529929 -0.0032791197
0.00054073147 0.019511921 -0.003123939
-0.01148976 0.018845422 -0.0028244108
-0.015260129 0.018786253 -0.0023746192
0.0086395089 0.023472311 -0.0029557198
-0.020666001 0.020378659 0.002866596
-0.00041733868 0.018886946 -0.0032146275
-0.001368368 0.018883731 -0.0031820387
-0.015258004 0.018467609 -0.0023847967
-0.015881162 0.018441901 -0.0021981448
-0.017703526 0.020113628 -0.00024412572
0.0097481031 0.022381511 -0.0031729341
0.015637664 0.019669671 -0.0044713914
0.0086291227 0.022378247 -0.0031426996
0.014884124 0.019644674 -0.004273966
-0.0073732324 0.018538769 -0.002944544
0.020947767 0.018270561 0.0059425831
-0.012434361 0.019463297 -0.0026686341
-0.020399015 0.018761206 -0.0044592917
-0.018005671 0.01814808 -9.11057e-05
-0.0179912 0.018424492 0.00026002526
-0.01148962 0.018531866 -0.0028654039
0.0055995192 0.018762283 -0.0035344958
0.0016471185 0.018735299 -0.0032941699
-0.015261537 0.01910335 -0.00235416
-0.015888028 0.019400468 -0.0021830648
0.01465497 0.020580215 -0.003487125
-0.0073717535 0.018223621 -0.0029752553
-0.008324448 0.01853814 -0.0029326379
-0.005470993 0.018541804 -0.0029821992
0.014513524 0.019587252 -0.0033568293
0.017248491 0.020875186 0.0041154325
0.016252616 0.020939903 0.0035742074
0.0046445243 0.019543521 -0.0033993423
0.021690769 0.01724845 0.0083908588
-0.0064223036 0.018540306 -0.002963379
-0.0092763267 0.018538911 -0.0029310137
-0.010385175 0.018538306 -0.0029188246
-0.013374866 0.018505584 -0.0026663393
0.012621706 0.019410184 -0.0036867261
0.006557567 0.018606311 -0.0035739243
-0.020544641 0.020193465 0.0071263313
0.0016455818 0.018266294 -0.0033673048
0.00053802133 0.018573537 -0.0032676011
-0.018730074 0.020618167 -0.0016885847
-0.0039000772 0.020439921 -0.0028695315
0.0075068045 0.020494923 -0.0033810139
0.0055950601 0.020489411 -0.0033226907
0.0036924407 0.020479862 -0.0032334179
-0.0023140106 0.020443408 -0.0029066056
-0.0032651871 0.020127317 -0.0029219091
-0.012436602 0.020407185 -0.0025697201
-0.021132579 0.020392142 -0.0024230778
0.0097472947 0.021439914 -0.0032995343
-0.0045258589 0.018550003 -0.0030491203
-0.019111887 0.020815974 -0.0032686591
-0.013373784 0.017876331 -0.0027381033
-0.0004168544 0.018416464 -0.0032761395
0.014902288 0.018069498 -0.0044221878
-0.017626159 0.018947996 0.0012099296
-0.01797601 0.019020399 0.00066865981
-0.02402393 0.015399741 0.014459178
0.0086253155 0.021281622 -0.0033031404
0.014887018 0.018703781 -0.0043917149
-0.0064209513 0.01791187 -0.0030385256
-0.0092748441 0.017910261 -0.0030026883
-0.0180491 0.017643753 -0.0011019856
-0.011489287 0.017904708 -0.002947405
-0.0045273602 0.020275559 -0.0028270185
0.001645999 0.017952533 -0.0034083128
-0.00041630305 0.017945951 -0.0033376515
-0.0013723318 0.017947296 -0.0033359528
-0.015257229 0.018151751 -0.0024155825
-0.015881078 0.018127143 -0.0022392869
-0.018576844 0.021458693 0.0020751804
-0.0092735123 0.01759512 -0.0030333847
-0.010381604 0.017749947 -0.0029904097
0.015248006 0.021667626 0.0030566752
-0.02051552 0.020300994 -0.0029557496
-0.01794917 0.018943943 0.0012414008
0.011675818 0.018614458 -0.0037035048
-0.0064193401 0.017596591 -0.0030692369
-0.007370133 0.017751532 -0.0030264854
-0.0083215758 0.017751018 -0.0030145347
-0.026776925 0.016023481 0.0077723861
-0.027460866 0.015961487 0.0081958622
-0.017755101 0.020247757 -0.0012975335
-0.012432351 0.0177359 -0.0028787106
0.017391892 0.019677954 -0.0045571029
0.012683121 0.018591318 -0.0035541207
0.0075206477 0.017820332 -0.0036816895
0.021499204 0.018357377 0.0078746229
0.015670655 0.018714393 -0.0044808537
0.011672715 0.020500541 -0.0034604222
0.010707127 0.020500543 -0.0034518689
-0.010377439 0.017273758 -0.003013283
-0.021012461 0.017771354 -0.0041677058
-0.0073684901 0.017279336 -0.0030777156
-0.0083188415 0.01727736 -0.0030554682
-0.0092699584 0.017276853 -0.0030435175
-0.027463159 0.01560325 0.0082960427
-0.013373541 0.017405406 -0.0027996451
0.0016460009 0.01748243 -0.003473714
0.0005356539 0.017635295 -0.003411293
-0.00042081997 0.01747996 -0.0034300685
-0.0013742 0.017479179 -0.0034128875
-0.020532114 0.019746967 -0.0035715401
-0.02127276 0.01952388 -0.003382951
-0.018023036 0.017881749 -0.00050389767
0.018183881 0.017330237 -0.0038152784
0.017741011 0.017391052 -0.0042161345
0.0097436812 0.020500064 -0.0034398884
0.0086204875 0.020342937 -0.0034494847
0.014534542 0.017728465 -0.0037180334
0.0065484401 0.020336641 -0.0033826977
0.012514396 0.017652521 -0.0037115961
0.011687873 0.017665423 -0.0037855953
-0.019306259 0.018301252 -0.0045579076
-0.0064190235 0.017282784 -0.0031102598
-0.0045269895 0.019491481 -0.0029295385
0.010706319 0.019559132 -0.003581956
0.0075090956 0.019552602 -0.0034972131
0.0086226817 0.019557424 -0.0035455972
-0.007365685 0.016962407 -0.00309816
-0.0083173774 0.016962007 -0.0030861944
-0.026776394 0.015696771 0.0076666474
-0.012430627 0.017106075 -0.0029453039
-0.013372457 0.016932892 -0.0028509349
-0.014313976 0.017384399 -0.002651304
0.016648551 0.020989485 0.0031547844
0.015430173 0.021081878 0.0023812801
-0.02337827 0.024496742 0.0098512769
0.013706299 0.017478742 -0.0018041581
0.019846359 0.017465681 0.0019959807
0.0027544405 0.017488256 -0.0035285205
0.0016460735 0.017012304 -0.0035391301
0.00053481199 0.017009316 -0.0035036206
-0.00042011775 0.017009459 -0.0034915805
-0.0013760105 0.017011091 -0.003489852
-0.027295828 0.015235096 0.0084576607
0.012672482 0.017025642 -0.0038148314
0.01072325 0.017508749 -0.0037931651
-0.0064173825 0.016967403 -0.0031410158
-0.0092675053 0.016959991 -0.0030639321
-0.0032663792 0.019501509 -0.0030142218
-0.018385764 0.018013831 -0.0014310926
0.016654896 0.017608861 -0.0045849681
-0.015254564 0.017360305 -0.002482295
0.0055950619 0.019548876 -0.0034491569
0.0036950912 0.019537665 -0.0033461004
-0.000414446 0.019511439 -0.0031119734
-0.0023156293 0.019504417 -0.0030433685
-0.0038996395 0.019499263 -0.0029925108
0.023635997 0.014938165 0.0086685121
0.022644745 0.014863936 0.0086052418
-0.013376232 0.019449007 -0.0025569946
-0.014318301 0.019433295 -0.0024350435
-0.02937351 0.015712732 0.0098937154
-0.010373073 0.016640333 -0.003056705
-0.0064157378 0.016651955 -0.0031717569
-0.0073653404 0.01664852 -0.0031391978
-0.025590003 0.015275318 0.0070584118
-0.012427664 0.01663061 -0.0029759556
-0.013370628 0.016615715 -0.0028714091
-0.014311513 0.016594449 -0.0027256906
-0.015252481 0.016569968 -0.0025593787
0.0027596671 0.016700538 -0.0036105067
0.0016480181 0.016697299 -0.0035724342
0.00053534657 0.016695542 -0.0035446435
-0.00041960925 0.016695764 -0.0035326034
-0.0013705716 0.016692763 -0.0034999698
-0.021447796 0.018544195 -0.0035529435
-0.017653456 0.019022416 0.00065267086
0.011671016 0.019559214 -0.0035939813
0.017488135 0.017039942 -0.0040096045
0.0097453389 0.019557605 -0.0035596043
0.014611749 0.016865151 -0.0038546473
0.013315788 0.016869042 -0.0038520694
0.012646874 0.016726656 -0.0039588809
-0.020555075 0.02089824 0.0088407993
0.010738173 0.016714603 -0.0038418919
0.0097506512 0.01861307 -0.0036656111
0.021805273 0.014803376 0.0084490329
-0.0083147231 0.016645016 -0.0031066239
-0.0092660859 0.016644593 -0.0030946732
-0.027697157 0.014970768 0.0086862445
-0.028413633 0.014898015 0.0089745075
-0.029190848 0.014760034 0.0093120933
0.017415868 0.018727427 -0.0046026558
0.0056286883 0.016703706 -0.003677696
0.0046736114 0.016701141 -0.0036450028
0.0037152246 0.016701663 -0.0036328882
-0.0023178421 0.01668654 -0.0034467727
-0.0045214351 0.016664924 -0.0032780766
-0.005464511 0.016653746 -0.0031940192
0.0046504084 0.018599126 -0.0034983307
0.026759746 0.014451578 0.0083426535
0.02607361 0.014441414 0.0084264129
0.023626728 0.014429567 0.008565262
0.022547623 0.01444128 0.0085160136
0.02183353 0.014446909 0.0084968954
-0.027126875 0.014883377 0.0085059106
-0.0092646442 0.016329132 -0.0031254292
-0.010372781 0.016326461 -0.0030977428
-0.012427422 0.01631669 -0.0030169934
-0.01337041 0.016301624 -0.0029124618
-0.014310551 0.0162785 -0.0027564913
