# .PCD v0.7 - Point Cloud Data file format
VERSION 0.7
FIELDS x y z
SIZE 4 4 4
TYPE F F F
COUNT 1 1 1
WIDTH 1317
HEIGHT 1
VIEWPOINT 0 0 0 1 0 0 0
POINTS 1317
DATA ascii
-0.033485718 0.010873226 0.023298554
0.037217595 0.012185602 0.014451183
0.032383252 0.011863336 0.018870965
-0.036555737 0.0094868988 0.023445174
0.029726304 0.010739887 0.02303566
0.042851627 0.011369574 0.01714053
0.049256649 0.011902933 0.016059794
0.0086434465 0.012450717 0.016044177
0.0090139247 0.012462148 0.015966088
-0.030193662 0.011489272 0.020838782
-0.030648885 0.011436096 0.021213606
-0.028227547 0.010080023 0.023009628
-0.026791627 0.011251632 0.02108866
-0.025650891 0.011576591 0.02065137
0.030152392 0.0086218156 0.023108542
-0.021687774 0.011417134 0.022327662
0.032676481 0.011356508 0.01923798
-0.005856635 0.012460297 0.015278913
0.04425576 0.011909097 0.018121317
0.015579916 0.012952408 0.01228033
0.016590258 0.012924647 0.012514599
0.010495724 0.01240804 0.016434617
-0.026391359 0.011584138 0.020510815
-0.0059864651 0.0095639303 0.038143091
0.039329968 0.011595267 0.017215505
-0.019038001 0.0096388385 0.026226856
0.04744079 0.0094074607 0.017440379
-0.01804396 0.010714902 0.026148766
0.0034847185 0.012567022 0.014935322
0.0042219143 0.012585568 0.014820792
0.043441333 0.012106919 0.017564282
0.044527665 0.012075826 0.017621554
0.04509126 0.012021263 0.017215498
0.047715276 0.012266055 0.016582981
0.048124865 0.012214073 0.016497083
0.0033317674 0.011934428 0.017996378
0.0082942471 0.012212723 0.015802108
0.021570491 0.012427511 0.016455442
0.021134086 0.012525679 0.01568497
-0.035284624 0.011112764 0.023243897
0.030866379 0.012322092 0.017215498
-0.022895435 0.011637999 0.021807075
0.036508147 0.009319583 0.018779851
0.018586477 0.011669061 0.014997795
0.03928433 0.012167118 0.017262347
0.036821604 0.01225106 0.01396703
0.039916128 0.012649059 0.014404327
0.022044403 0.01171145 0.01646585
-0.02358661 0.010278629 0.022987761
-0.016450683 0.011720784 0.020370252
-0.016524741 0.01156109 0.021635279
0.039799333 0.012145637 0.016481467
0.040665787 0.01225996 0.01630342
0.041463308 0.012273366 0.016352616
0.050086379 0.012534519 0.014810383
0.0041392781 0.011987215 0.017621554
0.01081573 0.01226589 0.017559089
-0.016744481 0.0083880629 0.033554979
-0.016396264 0.0085769631 0.034238689
-0.030933959 0.011684688 0.021244839
-0.030507958 0.011728963 0.020932488
-0.029704573 0.011552037 0.020388998
-0.02921438 0.011615878 0.019932963
-0.036628701 0.011216512 0.022213131
-0.028272005 0.011225954 0.022293448
-0.027667535 0.011694862 0.021541573
-0.026500264 0.011842309 0.020463958
-0.025671678 0.011860108 0.020407736
-0.021930249 0.011677055 0.022275604
0.040461764 0.0093131308 0.018206112
0.0012849495 0.01295463 0.013623446
-0.012116233 0.011699948 0.022900306
0.032511964 0.012273912 0.018194199
0.0026904214 0.012957033 0.013670295
0.0031888317 0.012975438 0.013545357
-0.018155074 0.009370802 0.030271821
0.012265251 0.013080674 0.013019562
0.014789018 0.013194077 0.012171008
0.014195057 0.01304568 0.013342328
0.016358964 0.01315148 0.012538023
0.028784137 0.011358919 0.021853924
-0.016539546 0.011455877 0.023493774
0.043138169 0.009759089 0.017902665
0.03053022 0.011720462 0.021932013
0.038471512 0.012317308 0.016868785
0.045478288 0.0096890144 0.017795578
0.039256908 0.012557774 0.017028086
0.040738352 0.012638998 0.016325288
-0.0066784788 0.0094266813 0.039189465
0.042318776 0.012374317 0.016462386
0.042886265 0.012292572 0.017080143
0.043438584 0.012470256 0.017559081
0.044494517 0.012462949 0.01756949
0.030357653 0.010866376 0.024618246
0.047650117 0.012568421 0.016569972
0.048365556 0.012572709 0.016497083
0.049998082 0.012604161 0.016153499
0.0083644204 0.012746794 0.015572526
0.015439001 0.013149545 0.012538016
0.011058167 0.012828829 0.014997795
-0.029677043 0.0088283271 0.023415685
-0.035587832 0.01114185 0.022258244
-0.034788847 0.011138173 0.023103334
-0.03268674 0.01117092 0.023108542
0.036475018 0.010687694 0.016746961
-0.02064679 0.0087607577 0.025758326
0.032539554 0.009459151 0.019444928
0.040499561 0.010561939 0.016647018
0.040183239 0.010348994 0.017304003
-0.021459514 0.011743994 0.021775834
0.030753588 0.012532992 0.017449759
0.036054149 0.0095179658 0.018964671
0.043280814 0.010462167 0.017681621
0.029150557 0.011339451 0.022409469
0.050089262 0.010290399 0.016111851
0.01865275 0.012318788 0.014383495
-0.019505134 0.0099454094 0.027866706
0.0080074035 0.011893759 0.014841616
0.041416638 0.0091765579 0.018076211
0.039753895 0.012931624 0.014029503
0.040681005 0.0097999815 0.017730877
0.03309527 0.012387965 0.018558607
-0.010253878 0.012382768 0.019526899
-0.017386863 0.0094903428 0.032536365
-0.016699223 0.0093771424 0.03345
0.044293687 0.012291237 0.017980754
-0.020140452 0.0099094268 0.028085358
-0.011662787 0.011777566 0.022306837
0.041451871 0.012641318 0.016278431
-0.017366732 0.0092507936 0.031229697
-0.039077595 0.011028094 0.023400068
-0.03866113 0.011268875 0.023406997
-0.030534038 0.012010668 0.020713843
-0.037758648 0.011155657 0.023264714
-0.029310925 0.012162731 0.019589372
-0.028318582 0.012257125 0.018917814
-0.028014893 0.011812155 0.020542048
-0.025650615 0.012225453 0.01948005
-0.031810835 0.011263806 0.022463009
0.022011032 0.012206667 0.017246731
-0.014631899 0.012502787 0.018215023
-0.0035130866 0.01297121 0.01514148
0.033487715 0.012566185 0.019074
0.0026113838 0.013211477 0.0134985
0.0031700823 0.013197294 0.013639063
0.0041428525 0.013079617 0.014638588
0.0057660099 0.013064547 0.014826
-0.00074806251 0.012428866 0.019714311
0.0065296721 0.013103594 0.014537074
0.01237944 0.013310263 0.013037778
0.01451226 0.013370955 0.012592681
0.015490399 0.013303855 0.013154924
0.016214412 0.013343875 0.012842566
-0.0096637364 0.012517354 0.018464908
-0.015873903 0.01186379 0.021291696
0.037535317 0.0081780758 0.020417102
0.038514521 0.012824253 0.016840674
0.039208286 0.012692733 0.016590789
0.040733419 0.012881726 0.016294055
-0.0037095677 0.012591687 0.015075892
-0.0028965734 0.012807197 0.015544407
-0.0059384275 0.0094374828 0.039142616
-0.0025385153 0.012811895 0.016497083
0.042880721 0.012776557 0.017059319
0.04343725 0.01271198 0.017559081
0.047656137 0.012803425 0.016611613
-0.018688282 0.0094486363 0.028644986
0.048495807 0.012805222 0.016551755
0.011474131 0.013181446 0.013430819
-0.0057053547 0.011295814 0.024493307
-0.0032424666 0.011796478 0.024743184
-0.0025773346 0.011693523 0.02436211
0.020756401 0.01057093 0.016091026
-0.031299226 0.0091536399 0.022759743
-0.0061052088 0.010900514 0.029709585
0.021696929 0.010785094 0.016262822
-0.035758175 0.0087331347 0.02519089
-0.026532242 0.0095187947 0.022747256
-0.015362171 0.0084990039 0.037330978
-0.015726274 0.0088849869 0.03619089
0.02126899 0.013039688 0.015356995
0.022146778 0.013196264 0.014091976
0.023108633 0.013308278 0.013186149
-0.034638472 0.011570708 0.022428304
-0.033457883 0.011265891 0.023087718
-0.032726973 0.011574918 0.022640005
0.034530524 0.0094579272 0.018998504
-0.023493296 0.011651193 0.021640487
0.031409383 0.012080057 0.017590322
0.018274985 0.012696927 0.013592206
0.035441302 0.0095251333 0.01893343
0.040282954 0.012978224 0.015528791
0.041463315 0.0096908715 0.017733112
0.034081209 0.012597257 0.018808492
-0.015707148 0.012570707 0.017231114
-0.015507577 0.012124259 0.019214548
0.037357677 0.0095996372 0.018175974
0.038462993 0.0092865769 0.018226184
-0.01034517 0.012689902 0.019027136
-0.016262615 0.011498748 0.024212182
0.029690048 0.011291061 0.023327187
-0.015918808 0.011601247 0.025524065
0.030078093 0.010990562 0.023681186
0.030547386 0.011150546 0.022463009
0.041444693 0.012885952 0.016231582
-0.0015382562 0.012772552 0.018870965
0.044143416 0.012727328 0.01740291
0.047173642 0.012599742 0.017309196
0.05010812 0.012848767 0.016106643
-0.039277218 0.01119894 0.022275604
-0.038788177 0.011645541 0.022681653
-0.030595681 0.012282374 0.020568073
-0.028470041 0.012533778 0.018683545
-0.026679745 0.012116252 0.020276546
-0.025530061 0.01249753 0.01931867
-0.01373378 0.012971531 0.016424209
0.030276278 0.0097645111 0.021619663
-0.011430634 0.012467267 0.020807549
-0.0036165435 0.013215139 0.015083693
0.0073921252 0.011595133 0.013223626
-0.012492837 0.012353337 0.021682136
-0.0055753719 0.013072659 0.01516179
0.033493884 0.012795016 0.019198932
-0.017362548 0.011032341 0.025773942
0.049426369 0.010697275 0.016345367
-0.016780792 0.011219308 0.026429884
-0.015823277 0.011541304 0.026023827
0.0064276308 0.013348263 0.014454305
-0.017807694 0.010238776 0.02947221
-0.039504275 0.0090260226 0.022525482
-0.039225101 0.012023529 0.021619663
-0.03897465 0.012020649 0.021682136
-0.037339054 0.012033889 0.021807075
-0.036601163 0.012083595 0.021484315
-0.016374132 0.0084068067 0.035488106
-0.025316374 0.012227535 0.020339012
-0.024509171 0.012243322 0.020503014
-0.0075853635 0.013149979 0.01538042
0.03070458 0.011409157 0.019573756
0.00054999627 0.013282364 0.01474791
0.0023862347 0.013448664 0.013456859
0.040195368 0.012354556 0.015770867
-0.010711623 0.012102815 0.020422317
-0.002705114 0.013120498 0.015591271
-0.015627807 0.011797871 0.023931071
-0.0018145796 0.013053173 0.016528316
0.0054063406 0.013295528 0.014852025
0.043977752 0.012905351 0.017933905
0.047643155 0.013051274 0.016549148
-0.018449424 0.010199782 0.028466411
-0.01782945 0.010538092 0.02860073
0.048497323 0.013043524 0.016567364
-0.017423389 0.010388685 0.030452989
0.010540286 0.01323983 0.014513649
0.04952991 0.013074031 0.016257621
0.021164944 0.013307838 0.015091501
0.023227165 0.01355104 0.013092451
-0.033750698 0.011508757 0.022577539
0.034280911 0.0097143035 0.018925622
-0.023277799 0.01228295 0.021359369
0.027340662 0.010419482 0.038861506
-0.019733557 0.012139245 0.020776309
-0.019280436 0.012247864 0.020963721
0.039433159 0.010687863 0.017617099
0.040726528 0.013126174 0.016247205
0.040307794 0.013188698 0.015747443
0.03408628 0.012829361 0.018902197
0.039869133 0.013398956 0.014029503
0.039696611 0.013261645 0.01388374
-0.011032058 0.012864883 0.019589372
-0.037376709 0.011617223 0.022390135
-0.028550161 0.012795402 0.018579431
-0.022462254 0.011927187 0.022275604
-0.020507855 0.0095352214 0.02282612
-0.027320744 0.012115261 0.020214073
-0.027793026 0.012194153 0.019503474
0.010534352 0.011651551 0.020432726
0.04247202 0.010307644 0.017285772
0.0050782021 0.011893758 0.016528323
-0.01456173 0.012248881 0.022400543
0.026189223 0.010411447 0.041329078
-0.018582465 0.0086913966 0.02843786
-0.005712701 0.013421016 0.015226848
-0.01145024 0.012802524 0.020089135
-0.01200466 0.012691175 0.020994954
0.0047199968 0.013232652 0.015064739
0.0083199963 0.013222337 0.015408657
0.0093757585 0.013169255 0.01519414
-0.039150544 0.012299274 0.021494724
-0.038870387 0.012273788 0.021760218
-0.037533149 0.012308476 0.021650895
-0.036563069 0.012350353 0.021421835
-0.035627767 0.012226067 0.021506436
-0.034631275 0.012214443 0.021740697
-0.032248355 0.012254883 0.021697752
-0.030745646 0.012531214 0.020604514
0.027326616 0.011237774 0.034394868
-0.025189428 0.012645002 0.020245314
-0.024500908 0.012624143 0.020495199
-0.019495247 0.011342856 0.02126307
-0.006629115 0.013268856 0.015446797
0.030577369 0.012156331 0.01948005
0.030230854 0.012679401 0.020214073
0.030270919 0.012754098 0.021650895
0.039031222 0.013268764 0.016445026
0.04031042 0.013422473 0.015778676
-0.003610583 0.013454565 0.015068077
-0.001581667 0.01340308 0.015614688
-0.0015141536 0.012964728 0.017277963
0.043438964 0.013071346 0.017585106
0.044449382 0.013108785 0.017564297
0.047634043 0.013296316 0.016507491
0.048462771 0.013304351 0.016395569
0.018608578 0.011709454 0.014701061
0.01013758 0.013093903 0.015372612
-0.029602492 0.0091528818 0.022973187
-0.028817309 0.0095175561 0.022779278
-0.03412085 0.012309169 0.022109009
-0.033610724 0.012274122 0.02247864
-0.03283301 0.012303954 0.022317246
-0.025578359 0.0090523753 0.023037747
-0.016487235 0.013032238 0.017746493
-0.023249628 0.012798439 0.021307312
0.030921854 0.009704588 0.018652312
0.03328665 0.0095654689 0.019128658
-0.017228832 0.012874726 0.019027136
0.039875366 0.013625353 0.014091976
-0.010264916 0.012814199 0.017996378
0.04072161 0.013368513 0.016215973
0.049028445 0.01332572 0.016184732
0.05023123 0.013204635 0.016127475
-0.017197905 0.009339571 0.033064254
-0.0028481055 0.011668721 0.025805183
-0.038571119 0.012189629 0.022213139
-0.037774868 0.011993945 0.022088192
-0.0296025 0.0097895898 0.022119425
-0.036536269 0.012614267 0.021380186
-0.035594456 0.012620298 0.021455675
-0.02842561 0.0130445 0.018605463
0.01743285 0.013391012 0.013416529
0.049813695 0.010979256 0.015778676
0.0040938128 0.012814443 0.014872856
0.0051385704 0.012804156 0.014997795
0.0064817518 0.012493797 0.012367785
0.03276404 0.012671208 0.019230165
-0.0052142944 0.013621001 0.014904089
-0.0058245305 0.013661381 0.015200824
0.0027186815 0.014028599 0.012498975
0.0022075437 0.013942176 0.01321739
0.010803215 0.013942325 0.01352974
0.011396415 0.013953292 0.013451651
0.013411712 0.013996538 0.013129927
0.01443467 0.013979624 0.013295479
0.015357176 0.013977034 0.01333452
0.019396245 0.01396535 0.01348602
0.021246485 0.010853779 0.015778676
-0.037483253 0.012578243 0.021567598
0.022772046 0.014031585 0.012936272
0.0232329 0.014033429 0.012920655
0.027581489 0.011967388 0.030521698
-0.032188006 0.012654973 0.02158843
-0.031312801 0.01274145 0.020932488
-0.030734228 0.012788337 0.020588897
-0.025193164 0.012895981 0.02026093
-0.0066135842 0.013632107 0.015403844
-0.0026468392 0.013525248 0.015531912
0.042888407 0.013248974 0.0171322
0.043439299 0.013431976 0.01760073
0.044413246 0.013426282 0.017605938
0.048441783 0.013556117 0.016294055
0.020437444 0.013965677 0.013490692
-0.02759975 0.013029735 0.018829316
-0.026516078 0.013081398 0.018496141
0.023575688 0.014024252 0.012998737
-0.034102038 0.012830388 0.022088192
-0.033563338 0.012803258 0.022400536
0.036300316 0.011189405 0.016590782
0.039877973 0.013855645 0.014123209
-0.012536516 0.013035974 0.018027611
-0.01861508 0.012007281 0.021963246
0.041344736 0.01011272 0.017223299
0.040279709 0.013689385 0.015528791
0.04144042 0.013365143 0.01621598
0.047132619 0.012989009 0.017090552
0.048996378 0.013583576 0.016028561
-0.038437955 0.012772111 0.022025719
-0.035573766 0.012882541 0.021424443
-0.029619036 0.012615979 0.019570626
-0.028538069 0.013297522 0.018569022
0.0021280553 0.012903091 0.01407636
0.035318919 0.010132371 0.018964671
0.042333398 0.011537 0.016698703
0.0054838415 0.012686373 0.014609575
0.0064984094 0.012762456 0.014341846
0.0071223937 0.012168787 0.012405276
0.032763168 0.013158433 0.01923798
-0.0053523313 0.013944847 0.014831215
0.033112068 0.013559115 0.01893343
0.0030335393 0.014118324 0.013748385
0.0043941233 0.014028233 0.014591731
0.0053246897 0.014022572 0.014677636
0.0063232891 0.014059063 0.014396518
0.013412292 0.014228012 0.013129927
-0.039141022 0.01281921 0.021494724
-0.036520794 0.012875466 0.021359362
0.023463 0.014264115 0.012920655
-0.032184198 0.012912612 0.02158843
-0.024511451 0.012873571 0.020526432
-0.0075567644 0.013637044 0.015299737
0.03892925 0.013610998 0.016247205
-0.0041896235 0.012987793 0.014966562
-0.015192134 0.01213267 0.021213606
0.030226121 0.01126733 0.024485491
0.044412017 0.013668035 0.017605938
0.0069512222 0.014085816 0.014185682
0.048417844 0.013809221 0.016176924
0.012436305 0.014062131 0.013206966
-0.014600301 0.01130888 0.028022878
-0.01719298 0.010348473 0.032687329
-0.017170036 0.010175789 0.031505607
-0.017010653 0.010644831 0.031052701
-0.0154381 0.010512127 0.032239638
-0.0313816 0.010462144 0.022692069
-0.030656075 0.010850823 0.021775834
-0.0059507359 0.01110396 0.028085358
-0.028948372 0.01076634 0.021635287
-0.026440343 0.010172868 0.022319332
0.025961742 0.011966898 0.03286434
0.037786178 0.011527382 0.016700111
0.038108792 0.01155437 0.01693438
0.027154801 0.013708176 0.017730877
0.036721054 0.011544864 0.014570922
0.037106533 0.011592401 0.014498033
0.032481931 0.010332927 0.019148603
0.040090833 0.011747074 0.015872382
0.027640805 0.013612335 0.018558614
0.025907204 0.010534681 0.04029832
0.030702587 0.013368377 0.017163441
0.030424094 0.013130224 0.018496141
0.032602217 0.013615482 0.018454492
0.039499953 0.014116332 0.013904564
0.029209597 0.012737812 0.022504658
-0.014826318 0.012155532 0.023160592
0.040708613 0.013737097 0.016122259
0.041434135 0.013845838 0.016184732
0.042888898 0.013727741 0.017153025
0.043439593 0.013672405 0.017611146
0.0087293405 0.013785535 0.014810383
-0.0047405865 0.012358113 0.014904097
-0.010449057 0.014064586 0.015549615
0.0054904092 0.012490713 0.013779618
0.0064133424 0.012564984 0.013240814
-0.0075129699 0.01412913 0.015169591
-0.0065938961 0.014115554 0.015349187
-0.0059286412 0.014141995 0.015153974
0.039028984 0.013996183 0.014966562
0.028301654 0.012797698 0.023431301
-0.0026111435 0.014134649 0.015410103
0.031862687 0.013890233 0.01818379
0.0072943997 0.012143143 0.013529733
0.03275032 0.013794681 0.01901152
0.032248326 0.013832903 0.018683553
0.033510387 0.013410588 0.019083343
-0.018233089 0.0086642634 0.029483132
0.048873141 0.011238793 0.016559556
0.011752456 0.012802364 0.013373561
0.0053333398 0.01426237 0.014638588
0.0064316634 0.014287665 0.014454305
0.017431572 0.012810586 0.01342041
-0.016171353 0.01139302 0.02942846
-0.016247472 0.011195064 0.028834991
-0.017070739 0.010692911 0.032895572
-0.039206073 0.013064497 0.021619663
-0.0155186 0.0097594205 0.036019094
-0.019654846 0.010648306 0.021682128
-0.025198968 0.013272482 0.020284355
-0.024534175 0.013246128 0.020588905
-0.015506839 0.011932054 0.022837833
-0.001504302 0.014150675 0.015325762
-0.00030162744 0.014267948 0.014341854
0.038662847 0.013455348 0.016559556
0.039119188 0.014136263 0.015809909
-0.0039279386 0.014062898 0.014919706
0.028782712 0.012726785 0.02190078
0.030087603 0.012581655 0.024165332
0.0071541984 0.014299672 0.014373094
0.047841601 0.014033441 0.016340911
0.04863026 0.014063877 0.016028561
-0.016450593 0.011021996 0.030240588
0.049251929 0.014050678 0.016111851
0.019644294 0.011790298 0.014982179
0.027274614 0.013964715 0.017590322
-0.023620816 0.013314116 0.021441616
0.025934927 0.011265935 0.036518864
0.027759811 0.013875909 0.018371202
0.026483284 0.010575181 0.039954729
0.030410431 0.013903714 0.018090084
0.038271397 0.014287614 0.014498033
0.039523281 0.014325008 0.014123209
0.040194787 0.014125193 0.014826
0.035536215 0.013813638 0.018777259
-0.012335854 0.012143157 0.022384919
0.043577231 0.01389984 0.017730877
0.044265039 0.01389817 0.01771526
-0.0053791422 0.012276865 0.014880665
-0.025204891 0.013649025 0.020307779
-0.01718975 0.013949716 0.018277496
0.030151844 0.010709636 0.023254305
-0.019463686 0.0098951012 0.028251939
0.049552675 0.012023726 0.015122734
0.028692253 0.0131142 0.021432251
0.028208423 0.013641753 0.019570626
0.038451605 0.010598749 0.017306596
-0.0059178565 0.014383399 0.015122734
-0.039346814 0.013348782 0.021369785
0.026206383 0.014414053 0.015716203
-0.0247085 0.013612707 0.020693019
-0.024275029 0.013559239 0.021229222
0.035688274 0.014188066 0.017590322
0.029399142 0.013502857 0.021650903
0.030269127 0.013256015 0.021619663
0.038666796 0.014230458 0.016044177
0.039263565 0.01446649 0.014966562
0.035194337 0.013777607 0.019105226
0.048193261 0.014205286 0.01693438
0.047955438 0.014203209 0.016965613
0.050072834 0.014299175 0.015981704
-0.028663451 0.010409949 0.022643492
-0.034131654 0.013340523 0.022161074
-0.033577807 0.013355917 0.022491649
-0.015424551 0.0090554468 0.0370811
-0.016575428 0.014021666 0.017668404
0.036629908 0.01118158 0.015778676
-0.022779698 0.01233232 0.021635272
0.039911404 0.014522733 0.01443556
0.050365977 0.014154858 0.015830733
-0.036359452 0.010511478 0.022463016
-0.035819717 0.010640204 0.022759743
-0.017097162 0.010130877 0.032958053
-0.038002424 0.013299809 0.022025719
-0.036488295 0.013397767 0.021314256
-0.035524495 0.01340815 0.02134636
-0.025307311 0.013907312 0.020245314
0.01140072 0.01360951 0.013412617
-0.0095054377 0.014219792 0.015294529
-0.022939218 0.013031557 0.021525957
-0.0084914919 0.014400902 0.014799967
0.0125006 0.01493089 0.013029978
0.01276429 0.014958685 0.012780093
0.013252438 0.014982468 0.012571856
0.015730929 0.014930944 0.013092443
0.016505016 0.014936728 0.013050795
0.016326528 0.014952311 0.012905039
-0.039342411 0.013608384 0.021369785
-0.037394062 0.013319686 0.021575034
0.0226622 0.014969011 0.012800917
0.026675746 0.014412669 0.016801633
0.026207257 0.014667509 0.015560023
-0.024430672 0.013805909 0.021286488
0.041432615 0.014322104 0.016189948
0.034365524 0.013637303 0.019019336
0.048663326 0.014521167 0.016215973
0.04936675 0.014411003 0.016091026
0.050071336 0.014538174 0.015981704
0.050425448 0.014541075 0.015934855
-0.028466864 0.011358986 0.021401018
-0.02761394 0.014055334 0.018605463
-0.026898248 0.014045403 0.018777259
-0.024675613 0.011377355 0.021439187
0.031306993 0.0088947322 0.019152083
-0.019768083 0.011813398 0.020854399
0.033559583 0.0087745972 0.019201174
0.034461342 0.0087864753 0.019103006
-0.010176161 0.012604474 0.01771526
-0.0063612852 0.01009286 0.036175273
0.0029919371 0.013642039 0.012842566
-0.02374067 0.013785289 0.021546781
-0.02112597 0.013290945 0.021650895
0.030626554 0.014297668 0.017331518
0.0073370971 0.012741739 0.014638588
0.03899971 0.014253155 0.016184732
0.040826857 0.01433104 0.016132668
0.040433034 0.014434352 0.015641235
0.042874962 0.014218076 0.017069735
0.043401204 0.014225665 0.01760371
0.044471413 0.014225819 0.017659724
0.045112967 0.014287597 0.017434143
0.048148297 0.014400532 0.017356053
0.04447845 0.013497137 0.018035419
-0.037077844 0.010866275 0.022869073
-0.016689116 0.010329518 0.03334067
-0.038671002 0.01342238 0.022360384
-0.036600128 0.013916872 0.021276079
-0.026673114 0.014137815 0.020318195
-0.025323106 0.014155427 0.020286955
-0.0075005386 0.014970724 0.01396703
0.0046866089 0.012692462 0.01511649
0.028122976 0.014349276 0.018464901
0.030626109 0.014707985 0.017340437
0.0025245845 0.015143397 0.012873799
0.0025568381 0.015083858 0.013436034
0.0044124294 0.014976705 0.014521457
0.0053407643 0.014970506 0.014615163
0.0064242594 0.014985775 0.014510527
0.0074910857 0.014992611 0.014482416
0.010648895 0.01507404 0.013810851
0.01140281 0.015116841 0.013428226
0.012256973 0.015151476 0.013123676
0.013465033 0.015197577 0.012717627
0.015238148 0.015130109 0.013383985
0.016107067 0.015194306 0.012795709
0.018366225 0.015138208 0.013350137
0.019398607 0.015126694 0.013467275
-0.039379016 0.013859896 0.021442659
-0.038975187 0.013446643 0.021728985
-0.037323438 0.013876371 0.021572806
0.022661008 0.015195974 0.012832165
-0.01632894 0.0095501672 0.035383977
0.029250659 0.013801361 0.020463958
0.030111395 0.013764573 0.020417102
0.0018371064 0.015037416 0.013842091
0.040412579 0.01485662 0.01568497
0.041439734 0.014790881 0.016262822
0.042297158 0.014416805 0.01637736
-0.017234461 0.010959798 0.028491415
0.018365204 0.013393497 0.013525844
0.019392703 0.013611643 0.01353287
0.044544466 0.014399651 0.018097892
0.019571256 0.012536723 0.015035287
-0.032324485 0.011850041 0.021838307
-0.031479061 0.011632146 0.021609247
0.021350728 0.012712845 0.016080618
-0.027825804 0.01132095 0.022470824
-0.020528236 0.011552576 0.021350257
-0.013901448 0.012744592 0.018308729
0.030623076 0.012813007 0.0171322
0.0258561 0.014933859 0.015278913
0.026091583 0.014940363 0.01521644
-0.0039346162 0.013705302 0.014935322
-0.023397075 0.013613274 0.021994479
0.036299367 0.015054016 0.012530215
-0.0074958075 0.012763072 0.015376516
0.039827161 0.01248618 0.01568497
-0.017331747 0.014082517 0.019329078
0.035909563 0.015012105 0.014373094
0.037039425 0.015058558 0.013904564
0.03017321 0.014608747 0.018277496
0.031745877 0.014361775 0.018298313
0.032194816 0.014238459 0.018863149
0.0016508345 0.01289834 0.014091976
0.026542621 0.013428327 0.021244839
0.0036710277 0.012536298 0.015185207
0.034994595 0.014624878 0.018027611
0.0294156 0.013167709 0.022400551
0.030157667 0.013201983 0.022088192
0.040835105 0.014798353 0.016215965
0.042862564 0.014706593 0.016996846
0.043441162 0.014634139 0.017652787
0.044084154 0.014606243 0.017887048
0.045056053 0.014604941 0.017855816
0.048345007 0.014735617 0.016465843
0.049363017 0.014770498 0.016083218
0.050198644 0.014772492 0.016018152
-0.026659468 0.014363465 0.020588897
-0.025334263 0.014404787 0.020318188
-0.0045528058 0.013373702 0.014893696
-0.024221888 0.01423806 0.022056952
-0.0097311493 0.015057996 0.015255488
-0.0073862802 0.015082032 0.015174791
-0.007576419 0.015179972 0.014216915
-0.00027002953 0.013521185 0.014685445
0.00047052279 0.013635497 0.014419951
-0.0065734554 0.015073984 0.015302338
-0.0059131999 0.015096698 0.015122734
-0.0036023837 0.015115179 0.015075885
-0.0025499556 0.015108369 0.015197709
0.0042994861 0.013567987 0.014697947
0.029292524 0.014417174 0.019508675
0.029695675 0.014825195 0.018527374
-0.015846351 0.014787182 0.017434143
0.030157853 0.014906184 0.017746493
0.03349822 0.014365689 0.019349262
0.026020927 0.013146743 0.02483689
0.010686304 0.013600675 0.013790041
0.03559101 0.014260983 0.02065137
0.0053386465 0.015203951 0.01463078
0.0064353514 0.015226424 0.014454305
0.016495347 0.013543207 0.013253428
0.027835654 0.012175802 0.028741293
-0.036383957 0.011605401 0.021721177
-0.035660781 0.011663391 0.021758482
0.027406901 0.011756925 0.031552471
-0.02646512 0.012846 0.01837901
-0.025586935 0.012766493 0.01862108
-0.037327982 0.014133829 0.021588422
-0.036370121 0.014116853 0.021244839
0.026206916 0.015138019 0.015575647
-0.024413204 0.014154499 0.021432251
0.032919753 0.014177844 0.019964196
0.040411651 0.015093726 0.01568497
0.040826485 0.015043167 0.016153499
0.041424811 0.015040775 0.016153499
0.042430397 0.015001535 0.016489275
0.03530135 0.014200291 0.021224022
0.029810095 0.013073419 0.023212656
0.012355378 0.013634886 0.013225183
0.013414122 0.01353699 0.013100795
0.014429951 0.013627678 0.013330616
0.015341637 0.013612282 0.013475083
0.047853433 0.014981211 0.016434617
0.048406359 0.015007517 0.016153492
0.028215155 0.012220819 0.027241997
0.049350828 0.015015282 0.016028561
0.025620814 0.015169466 0.015278913
0.027272776 0.014943698 0.017423734
0.030626683 0.014944621 0.017371669
0.031110872 0.014930695 0.017496616
-0.012138715 0.014944755 0.016184732
-0.0055894572 0.012710533 0.015200824
0.026675276 0.014388522 0.017020278
0.026674371 0.014969309 0.017184258
-0.024481127 0.014555207 0.021421835
-0.010458754 0.015055318 0.015232064
0.028122643 0.014832197 0.018480524
-0.023827875 0.014144728 0.021760218
-0.019734388 0.014722588 0.020182841
0.0027379561 0.013745608 0.012936272
-0.017730532 0.014786477 0.019714311
-0.017071253 0.014829604 0.019339487
0.036231633 0.015281061 0.014029503
0.03646788 0.015174021 0.013381369
0.037041523 0.01528837 0.013935797
0.029926345 0.014870599 0.018090084
0.031747952 0.014837984 0.018371202
0.032131802 0.014788202 0.018839724
0.034784034 0.014818 0.018496141
0.035382643 0.014829457 0.018371202
0.043300383 0.014889342 0.017527841
0.044202726 0.014849433 0.017871432
-0.015995255 0.011383777 0.027304471
-0.026663819 0.014615473 0.020604514
-0.025340846 0.014655325 0.02033902
-0.019046387 0.011863424 0.021026194
-0.018083317 0.014959881 0.017965138
-0.024246143 0.014487485 0.022119425
-0.0026601106 0.013875723 0.015591264
-0.0021637958 0.013058455 0.01646585
-0.0015812572 0.013766159 0.015417241
-0.00065464713 0.013331053 0.015601672
-0.021353761 0.014501146 0.022244364
-0.020986693 0.014529477 0.021994486
0.000476107 0.013244265 0.015060268
-0.012750851 0.011907831 0.023243897
-0.019652499 0.010225486 0.02827277
0.049005903 0.01348542 0.014841616
0.04940629 0.013710093 0.015535034
-0.0085059572 0.015383152 0.014482416
0.034402132 0.01431208 0.019216947
-0.039229371 0.012383252 0.019612797
0.020547608 0.010878814 0.015599072
0.0203811 0.013620817 0.013601147
-0.039480329 0.014261627 0.021490254
-0.039042577 0.014081654 0.02186954
-0.038723126 0.014145046 0.022587955
-0.036430016 0.014439628 0.02123443
-0.016477959 0.012790523 0.01771526
-0.022521285 0.011390734 0.022457816
0.026090089 0.015394974 0.015372619
-0.017730346 0.014987999 0.01771526
0.040283039 0.015338735 0.015612081
0.04082172 0.015284471 0.016122259
0.041180551 0.015283084 0.016122259
0.042425118 0.015243709 0.016458042
0.047794547 0.015252931 0.016122259
0.048375547 0.015262621 0.015997328
0.04934027 0.015258994 0.015981704
0.050219126 0.015119615 0.016127467
-0.015341299 0.013643208 0.015716203
-0.014888523 0.013866927 0.014841616
-0.014627712 0.013639063 0.015809916
0.031658661 0.0099141747 0.018870965
0.025622329 0.015418766 0.015143551
-0.033033229 0.014329371 0.022775367
0.033699185 0.0094808731 0.018867061
-0.011611963 0.013594946 0.016426809
0.027392693 0.015184053 0.017418526
-0.016214957 0.014997158 0.017746493
-0.015832657 0.01503486 0.01740291
0.030510223 0.015171131 0.017504416
0.031237086 0.015153067 0.017668404
0.039131235 0.013650396 0.015903614
-0.0059394632 0.01390042 0.015185207
0.026674528 0.015226355 0.017012469
-0.024465034 0.014813079 0.021390595
-0.024230244 0.014746712 0.022088192
-0.0034382585 0.013748031 0.015107125
-0.023332754 0.014776338 0.02186954
-0.022947183 0.014807433 0.02158843
0.036244743 0.0087143462 0.01901152
-0.0066065472 0.012600658 0.01547078
-0.0044747759 0.012452018 0.015011683
0.036284257 0.01559097 0.013279855
0.044398896 0.014825701 0.018090077
0.0063328277 0.015585723 0.014377005
-0.026668245 0.014867504 0.02062013
-0.025260599 0.01489654 0.020463958
-0.01742631 0.015149434 0.018589847
-0.021575799 0.01476504 0.02214025
-0.020971855 0.014787605 0.021963246
0.047667168 0.013640377 0.01643461
0.011335993 0.014596643 0.01344806
-0.0097223204 0.015417965 0.015235968
-0.015784016 0.015291899 0.017277963
0.013318297 0.016046571 0.01114025
0.0084142704 0.015334756 0.014605425
-0.039516218 0.014635392 0.021455675
-0.038747311 0.01453173 0.02264262
-0.016566185 0.013535255 0.017631963
0.026088538 0.015611733 0.015560031
-0.017728264 0.015233406 0.01771526
0.040282033 0.015575604 0.015612081
0.041407067 0.015529624 0.016028561
0.042425215 0.015481777 0.01646585
0.047781788 0.015498056 0.016059794
0.05020098 0.015486277 0.016049385
0.026498128 0.011258142 0.035394393
-0.025432846 0.015060229 0.018777259
-0.02370221 0.012471461 0.020797148
-0.013542833 0.013443219 0.016386569
-0.0076221284 0.014725311 0.013321504
0.038181547 0.01461939 0.013623446
-0.012697445 0.013520119 0.016646326
-0.017861167 0.012422462 0.020682603
0.041522935 0.010542275 0.016743071
0.042223491 0.010703929 0.01675947
-0.00032070838 0.014611424 0.014427751
0.027392127 0.015434931 0.017309196
0.035950657 0.015945833 0.012061685
0.03590754 0.015713938 0.014373094
0.0063290279 0.013711553 0.01435747
0.0074125789 0.013414866 0.014585488
0.025501765 0.013058848 0.025617771
0.040805474 0.015535044 0.01599732
0.010191146 0.013592514 0.014498033
0.013362071 0.016081125 0.010796659
0.044261925 0.015266198 0.017736085
0.048348993 0.015435438 0.015861973
0.0059460029 0.015918065 0.014560498
0.021364942 0.013738912 0.013451651
0.022504112 0.01349533 0.013294443
0.023345146 0.013792117 0.013009146
-0.027544672 0.012670024 0.018575966
-0.039088584 0.014462299 0.021963246
-0.038601957 0.014819479 0.022384919
-0.036426395 0.014697674 0.02123443
-0.035548463 0.014292548 0.021232836
0.0073847268 0.015934985 0.014435552
-0.017738385 0.015475662 0.017746493
-0.017448472 0.015390297 0.018652312
-0.023731986 0.014366193 0.022240892
0.0026023444 0.016103242 0.012540624
0.0064509492 0.015937094 0.014383502
0.010371428 0.016050698 0.013342328
0.011410852 0.016048655 0.013389178
0.012145445 0.016077932 0.013108067
0.012613769 0.016169406 0.012186624
0.0137013 0.01612255 0.012686387
0.016232474 0.016124688 0.012707211
0.016773382 0.016089095 0.013076834
-0.039456189 0.014881306 0.021609247
0.019399703 0.016053952 0.013461016
0.020440968 0.016055517 0.013451651
-0.030552706 0.015087618 0.020557664
-0.03903085 0.014862466 0.02186954
0.022084966 0.012782441 0.015528791
-0.034700766 0.014371863 0.021398783
0.00016219169 0.015956286 0.013935797
0.041470211 0.015542398 0.015898414
0.042424254 0.015720615 0.01646585
0.035316806 0.014019481 0.01912085
0.047714092 0.015707953 0.016356528
0.017474066 0.014401712 0.013253838
0.018362418 0.014438986 0.013389193
0.019397225 0.014545808 0.013479769
-0.038878173 0.012652427 0.02163215
-0.037461825 0.012841404 0.021536365
0.022662604 0.014739832 0.012790509
0.023355197 0.014750234 0.012696803
0.018650811 0.012952338 0.014154442
-0.031506062 0.012274336 0.02115114
-0.024544714 0.0094391666 0.022840686
-0.024592234 0.0089729428 0.022973187
0.027053209 0.01102189 0.036206506
-0.005622847 0.01180052 0.014872856
-0.012698391 0.013108041 0.01740291
0.027031947 0.015720982 0.016840674
0.027511423 0.015672402 0.017330028
0.027995421 0.015612517 0.017933905
-0.0065956134 0.013877082 0.015349187
0.0026293155 0.014549516 0.012386523
-0.018837007 0.015570802 0.019245788
-0.017712971 0.015343097 0.019486748
0.028144963 0.015279721 0.018364958
0.029633408 0.015253017 0.018488333
0.030509302 0.015532501 0.017492712
0.029925071 0.015355379 0.018069267
0.031745493 0.015325705 0.018334754
0.032128967 0.015278467 0.018798083
0.0013609845 0.013414321 0.014293782
0.0020285845 0.01314682 0.01399827
-0.01893069 0.010406533 0.027445033
-0.017881604 0.010713911 0.027210765
0.034988925 0.015114401 0.017965138
0.0052343477 0.013025525 0.015122734
0.044473819 0.012751743 0.017977633
0.040409073 0.015804823 0.01568497
0.03570224 0.014795594 0.021057427
0.043300562 0.015370166 0.017543465
0.044300422 0.015588818 0.017730877
0.04837304 0.015739864 0.015997328
0.049345404 0.015732579 0.016020752
0.050061218 0.015734155 0.015966088
0.050418414 0.015735291 0.015934855
0.043728579 0.014841793 0.017965138
0.0075044874 0.016170453 0.014427751
-0.026610581 0.015208052 0.020599313
-0.025524696 0.015234437 0.020432726
-0.018851509 0.012247745 0.021213606
-0.024395002 0.015211456 0.021414392
-0.024187582 0.015012017 0.021994486
-0.017698901 0.015668135 0.018308729
-0.016545875 0.015709236 0.017965138
-0.0097247008 0.016012447 0.015255488
-0.0074741337 0.016042197 0.015083693
-0.0080168303 0.01605914 0.014872856
-0.0066116843 0.016012095 0.015450701
-0.0059715826 0.016026048 0.015341379
-0.0044260565 0.01606505 0.01501862
0.033548415 0.015296599 0.019193724
0.010764373 0.014608498 0.013810851
0.034197539 0.015415591 0.01912085
0.0353752 0.015275318 0.019979812
0.0053345021 0.016140295 0.014669828
0.0064374041 0.016163995 0.014460556
0.016413659 0.014342987 0.013189279
0.0084216613 0.016158888 0.014576115
-0.034588471 0.012740018 0.02167432
-0.027636511 0.013550968 0.018639304
-0.025625257 0.013457114 0.018579431
-0.02534377 0.012741223 0.01940196
0.020441532 0.016287785 0.013443843
-0.0305651 0.01533917 0.020588897
0.021373011 0.016185708 0.013307199
-0.037330203 0.015166942 0.021619663
-0.029822526 0.012095627 0.020089135
-0.035570353 0.015096876 0.021213606
0.035712853 0.015274895 0.019239537
0.012355097 0.014660151 0.013151444
0.013542563 0.014588996 0.013123676
0.014433756 0.014556772 0.013315007
0.015334576 0.014532856 0.013338178
0.047718674 0.015944153 0.016387761
0.048392598 0.015967848 0.016106643
0.04935807 0.015964529 0.016091026
-0.020673713 0.012083491 0.021151133
0.025622277 0.016126968 0.015112318
0.026206639 0.016088014 0.015513174
0.027031742 0.015959587 0.016840674
-0.011271751 0.015947025 0.015841149
-0.024358926 0.015570085 0.021471299
0.027270693 0.01593833 0.017059319
-0.010569734 0.01601089 0.015216447
0.027994877 0.015856441 0.017902672
-0.023489868 0.015308918 0.021619655
-0.022719501 0.015308552 0.021692544
0.0072132125 0.011794946 0.01266557
-0.019695176 0.015420979 0.020318188
-0.018957948 0.015789673 0.019558139
-0.017662464 0.015799157 0.019558139
0.028241511 0.015805062 0.018433668
0.030506209 0.015900556 0.01741071
0.029933054 0.015805949 0.018402435
0.03174023 0.015819605 0.018230639
0.032127112 0.0157663 0.018777259
0.033837248 0.015747849 0.01893343
0.043298576 0.015852515 0.017543465
0.044430096 0.015824435 0.017788142
0.025684528 0.011902375 0.033426575
0.0075105745 0.016407698 0.014396518
-0.026646452 0.015631257 0.020588897
-0.025714705 0.015638437 0.020601392
-0.017758818 0.015960466 0.017808966
-0.017624507 0.015932526 0.018121317
-0.002563566 0.014629043 0.01523935
0.029687483 0.01268208 0.023321979
-0.00080356374 0.014603323 0.015128985
-0.02168986 0.015278201 0.022103801
0.00037972443 0.014619974 0.014115393
0.0084966384 0.011575893 0.015461117
0.015758596 0.012889055 0.012780093
0.016383445 0.012903626 0.012675978
0.049701288 0.014067779 0.015934855
-0.0065910425 0.010258781 0.034832157
-0.01517172 0.015392326 0.016309671
0.033049431 0.015508955 0.020155512
-0.039443441 0.013389071 0.019360311
0.020556971 0.011818454 0.015153974
0.021346856 0.01156681 0.015552215
0.020364303 0.014640271 0.013489991
0.021396574 0.014462714 0.013356745
0.022134755 0.014289267 0.013301723
-0.03950353 0.01522033 0.021447867
-0.038982049 0.015260385 0.021791451
-0.038718469 0.01519714 0.022520274
-0.037343703 0.01542292 0.021650895
-0.023788488 0.0095473714 0.022880793
0.025653308 0.01124052 0.036737509
-0.036432497 0.015211234 0.021258727
-0.035581946 0.015480229 0.021244839
0.02759923 0.011297097 0.033895098
0.026674869 0.01610516 0.016567364
0.027031541 0.016198162 0.016840674
-0.024878571 0.015372435 0.02081795
0.028241606 0.016044058 0.018464908
0.047723264 0.016180454 0.016419001
0.048418134 0.016193299 0.016247205
0.04937385 0.01619526 0.016176924
0.050386451 0.016069453 0.016049378
-0.015345981 0.014254583 0.015632913
-0.014767425 0.014266967 0.015566975
0.031518456 0.010586914 0.018429764
0.025622288 0.016362883 0.01510191
-0.0053676944 0.011752944 0.01524768
-0.0049328115 0.011789729 0.014997795
0.026207855 0.016345855 0.015278913
0.027994629 0.016097261 0.017902672
-0.016148658 0.01599231 0.017590322
-0.015673453 0.016050667 0.016996846
0.030504426 0.016144838 0.017363861
0.031229496 0.01612974 0.017512232
-0.0043120831 0.014643132 0.015013412
-0.004713716 0.01437242 0.014813878
-0.024363408 0.015823219 0.021486916
0.027510894 0.016152633 0.01731962
-0.0035796575 0.014475422 0.015056603
-0.023899099 0.015784057 0.021963246
-0.015239825 0.012204397 0.020620137
0.0035647508 0.01350982 0.014252596
0.04373052 0.015444051 0.017996378
0.0063759536 0.016497392 0.014515378
0.044318661 0.015345654 0.018047146
0.0074062701 0.016648334 0.014323115
-0.026849074 0.015868867 0.020745076
-0.02558385 0.015891761 0.020612329
-0.017595282 0.016125042 0.018714786
-0.021592727 0.015780374 0.022202715
-0.020976013 0.015803814 0.021994486
0.011409698 0.015584883 0.0133892
0.01912627 0.01257187 0.014849424
0.0044120029 0.014507463 0.014513649
-0.016886393 0.015868384 0.018870965
-0.0065523181 0.010138324 0.03580045
-0.039308555 0.015661385 0.021619663
-0.038950801 0.015654702 0.021744601
-0.038687147 0.015593509 0.022473425
-0.023379022 0.0092465095 0.022994012
-0.037399597 0.015671596 0.021760218
-0.036474288 0.01571857 0.021348953
0.016798437 0.016506137 0.013061203
0.01627437 0.016603481 0.012755111
0.017459333 0.016428839 0.013154924
0.026674163 0.016444173 0.016762584
-0.017647574 0.016202465 0.017855816
-0.010471052 0.013698432 0.01560688
-0.024889978 0.015875844 0.020854399
-0.023345077 0.015820876 0.021604039
0.013092402 0.014713263 0.012920655
0.047687635 0.016437093 0.016231589
0.048414268 0.016433775 0.016231589
0.049381964 0.016429942 0.016223773
0.050341919 0.016430285 0.016169116
-0.034515031 0.013465756 0.021630809
-0.020197244 0.010467026 0.02190078
0.031245362 0.011657342 0.017691828
0.025475932 0.014335081 0.017512225
-0.023681192 0.013109053 0.020765901
-0.020684658 0.013343789 0.021213606
0.031305023 0.014378496 0.017659731
-0.012639591 0.014400997 0.01648394
-0.011671441 0.014037313 0.016247198
0.041486118 0.011416825 0.016493969
0.0035954118 0.01286904 0.014414743
0.035461422 0.014647867 0.017801151
0.028632771 0.013541575 0.02022969
-0.0003295131 0.01545666 0.014551573
0.00047904253 0.015381935 0.01417648
0.027391041 0.016396845 0.017270155
0.028119376 0.016299095 0.018324345
-0.022706507 0.015819794 0.02167172
-0.028079594 0.014122362 0.0228066
0.040815927 0.016356653 0.016106643
0.040331174 0.016259044 0.015644349
0.041402258 0.015770521 0.015997328
0.013135189 0.016984282 0.010812275
0.006307438 0.016860083 0.014537074
-0.029682269 0.013425224 0.019558139
-0.028518086 0.013676588 0.01853779
-0.026492706 0.013584743 0.018459693
-0.038842492 0.015842939 0.022587955
-0.03755644 0.015880859 0.022317246
0.0074047744 0.016881235 0.01433561
-0.017485393 0.016397912 0.018433668
-0.016990131 0.016276725 0.019839257
0.010587079 0.015576575 0.01344645
0.042304527 0.013458773 0.016398177
0.0053370763 0.014616502 0.014626876
-0.0097446907 0.016482964 0.015325762
-0.009512959 0.013645418 0.015303902
0.0026492905 0.0169972 0.012873799
0.0025252365 0.01694642 0.013436034
0.010373663 0.016977742 0.013342328
0.011416202 0.016977873 0.013365753
0.012025365 0.016998032 0.013154916
0.013771551 0.017008185 0.013076827
0.014436192 0.01698608 0.01333452
0.015375684 0.016966138 0.013571389
0.016337737 0.017034966 0.012819134
0.017453931 0.016999669 0.013225198
-0.039197519 0.015916929 0.021682136
-0.038856916 0.015907442 0.021838307
0.022776823 0.017039485 0.012811325
-0.028715959 0.012013702 0.019323878
0.016885543 0.017008217 0.013123684
0.035844758 0.014866611 0.013560973
-0.031064676 0.015545938 0.021057427
-0.0080875251 0.014778031 0.01352974
-0.017633671 0.016450815 0.017824583
-0.016311204 0.016196191 0.018027611
0.013780465 0.015354113 0.01311475
0.013635178 0.015671846 0.012592681
0.014434709 0.015482529 0.013322823
0.015233767 0.015588607 0.01343257
0.016657487 0.015511907 0.013074227
0.017423071 0.015414709 0.013167791
0.018366206 0.015600371 0.013357945
0.019398076 0.015588802 0.013479777
0.022661388 0.015657613 0.012821749
0.023431832 0.015440643 0.012693316
-0.031462103 0.013397216 0.021161541
-0.024674928 0.010416646 0.022635728
-0.024200717 0.010525988 0.023009636
-0.023520576 0.01052035 0.022837833
-0.016195638 0.014513558 0.017684028
0.037383899 0.011881081 0.014966562
-0.013422677 0.01437008 0.016542532
-0.0076718014 0.015251235 0.013199531
0.038319968 0.013998971 0.014966562
0.027391117 0.01662783 0.017363861
-0.0078234095 0.014447804 0.014412135
-0.0074032899 0.014600815 0.015219919
-0.006578235 0.014596908 0.015307546
-0.017779531 0.016143879 0.01987049
0.02812035 0.016530897 0.018433668
-0.0015048999 0.014624317 0.015338778
-0.022259189 0.015487409 0.02200073
0.030674271 0.0164732 0.017440394
0.030174175 0.016288184 0.018412843
0.031737436 0.016307198 0.018183783
0.032124843 0.016254779 0.018746018
0.0013334416 0.014671354 0.014173187
0.0024102293 0.014739585 0.013381369
-0.01180896 0.01207222 0.021963246
0.0093644094 0.011622017 0.015733548
0.0034913439 0.01443942 0.014216907
0.0099929404 0.011777027 0.015778676
0.012898779 0.015756257 0.011749335
0.013349268 0.015610022 0.011280797
0.0064217169 0.014632885 0.014516786
0.0074857827 0.014638077 0.014505841
0.0084504765 0.014424343 0.014752731
0.040828157 0.016703442 0.016215965
0.040400177 0.016756721 0.01563812
0.041419692 0.01640135 0.016153514
0.010501159 0.014701909 0.014013886
0.043290772 0.016338533 0.017501816
0.044424891 0.016309869 0.017767318
-0.037375815 0.0094918013 0.0237827
-0.0060651656 0.011039849 0.026492357
0.047464095 0.016127426 0.016996846
-0.0036310088 0.011341543 0.026304945
0.048416093 0.016671326 0.016247205
0.049382377 0.016668323 0.016231582
0.050345644 0.016667282 0.016192541
-0.035459794 0.015735667 0.021283887
-0.026788594 0.016260838 0.020620137
-0.02544578 0.016272843 0.020609722
-0.018238613 0.016396355 0.018392026
-0.017603802 0.016616724 0.018746018
-0.0097470339 0.016958751 0.015341379
-0.0073593017 0.016990162 0.015122741
-0.0078899357 0.017009228 0.014872856
-0.0065788869 0.016973615 0.015356995
-0.0058934968 0.017000034 0.015091501
0.012683375 0.01556221 0.012522407
0.029350152 0.016314268 0.019470297
0.035444342 0.0095188785 0.018975817
-0.01585588 0.016614027 0.017496616
0.033635311 0.016290288 0.019294053
0.033107638 0.016391953 0.020289928
0.0030066539 0.017184872 0.013389178
0.034281302 0.016361319 0.020214073
0.03565269 0.016092278 0.020432726
0.0053224899 0.017073337 0.01474791
0.0074032675 0.017114159 0.014348105
-0.028787913 0.010670189 0.02042491
0.010378856 0.017212171 0.013311096
0.011418866 0.017210897 0.013350137
0.012149952 0.017234908 0.013092443
0.013771922 0.017239071 0.013076827
0.014429503 0.01721197 0.013396993
0.015327762 0.017189907 0.013662487
0.01633954 0.017266547 0.012803517
0.017454151 0.017230676 0.013225198
-0.035510808 0.01611248 0.021389306
0.025615977 0.01480733 0.015726626
0.025722517 0.014410796 0.016825058
0.036004663 0.017006733 0.015622497
0.030056348 0.016487561 0.0194332
0.047780789 0.0169267 0.016091026
0.048022449 0.01692567 0.016091026
-0.016448027 0.010090346 0.034441717
-0.028536906 0.014428231 0.018659249
-0.034150921 0.013853304 0.022213131
0.030871775 0.01182529 0.017340437
-0.014415888 0.015520191 0.015421689
-0.013972128 0.015575675 0.015763059
-0.015648628 0.014514685 0.016559556
0.025622265 0.01707017 0.015070677
0.026206329 0.01703506 0.015466325
0.026673011 0.016889252 0.017121792
-0.024441013 0.016342141 0.021366306
-0.010399552 0.016976912 0.015091501
-0.020297317 0.016592931 0.020755485
-0.019694624 0.016330291 0.02044443
-0.017710252 0.016839553 0.019027136
0.027995957 0.016800307 0.018121317
0.030420009 0.016759085 0.018558607
0.031739946 0.016783217 0.018261872
0.0018671919 0.014702125 0.013701536
0.041393399 0.016014282 0.015934855
0.041229781 0.016910011 0.016559556
0.043427914 0.016809475 0.017621554
0.045166127 0.016783953 0.017840199
0.048539966 0.016907932 0.01626803
0.049379729 0.016908087 0.016223773
0.050342858 0.016907111 0.016184732
-0.02678529 0.016641017 0.020620137
-0.025633084 0.016640209 0.020737268
0.040553138 0.011373867 0.016432799
-0.0048429091 0.015494456 0.01477395
-0.024181044 0.016289171 0.022004902
-0.0025751181 0.015568404 0.015171826
0.030059613 0.013083781 0.02311895
-0.00079472363 0.015410943 0.015110247
-0.021629846 0.016173411 0.022082984
-0.020974064 0.016058575 0.021994486
0.0078133401 0.012385264 0.015203051
0.015101675 0.013387764 0.012467742
0.040831231 0.016938675 0.016247205
0.010790415 0.016444154 0.012869902
0.049326561 0.015504051 0.015919231
-0.015636714 0.016302723 0.01690314
0.033178035 0.01684694 0.020307787
0.035947345 0.016034095 0.021057427
0.020448003 0.01257332 0.015308067
-0.03857132 0.010725891 0.0237827
-0.037646003 0.010311265 0.023609787
-0.028625926 0.011600837 0.019714311
0.020439969 0.015475332 0.013463378
0.021393199 0.015458138 0.01330559
0.02207372 0.015396113 0.013120547
-0.039166532 0.016310625 0.021635279
-0.035611227 0.016481515 0.02158843
-0.034704864 0.016040007 0.021580614
-0.031026075 0.016318582 0.020994954
0.03630466 0.015582451 0.012613505
0.042334035 0.017076951 0.016429409
0.012184679 0.015575476 0.013177231
0.047750443 0.017122619 0.016590796
0.048422597 0.017145194 0.016294055
0.049377136 0.017147791 0.016215965
0.050341748 0.017146202 0.016184732
-0.031043628 0.013509337 0.020963721
-0.01853594 0.014905742 0.018464908
-0.0082915928 0.012797376 0.015286721
0.025622142 0.017304894 0.015070677
-0.011290038 0.015582145 0.015887998
0.026089326 0.017284092 0.015310146
0.026556302 0.017180616 0.016512699
-0.017606059 0.01694702 0.01776211
0.027390651 0.017108303 0.017348245
-0.013294717 0.017064175 0.016684495
0.00035967864 0.012883989 0.016059794
0.032644693 0.014415131 0.019361354
-0.0043136925 0.015470991 0.015036844
0.026553949 0.017141765 0.016965613
-0.02456514 0.016850781 0.021354161
-0.0035976414 0.015590341 0.015068084
-0.022628723 0.01639748 0.021724515
-0.021068433 0.016909342 0.020932488
0.030747697 0.016851954 0.017496608
-0.026797457 0.016891763 0.02065137
-0.02566264 0.01688754 0.020807542
-0.025760094 0.016868936 0.021026187
-0.024226265 0.016790453 0.022119425
-0.023967342 0.016407462 0.022135042
0.04745397 0.015892981 0.01693438
