# .PCD v0.7 - Point Cloud Data file format
VERSION 0.7
FIELDS x y z
SIZE 4 4 4
TYPE F F F
COUNT 1 1 1
WIDTH 1204
HEIGHT 1
VIEWPOINT 0 0 0 1 0 0 0
POINTS 1204
DATA ascii
0.0810436755 0.0118342070 0.0024663508
0.0747415423 0.0141711812 -0.0000116453
0.1137826815 0.0131592751 0.0044862255
0.0772019029 0.0141395275 0.0005401745
0.1175730973 0.0137347858 0.0030806363
0.1181889027 0.0136560602 0.0036428720
0.1191382334 0.0136217428 0.0038302839
0.0822370723 0.0143062826 0.0000976771
0.1211290434 0.0130894873 0.0044133440
0.1273677796 0.0137412576 -0.0003656447
0.1281291246 0.0135269379 0.0003840029
0.0932600945 0.0137524083 0.0007567406
0.0955085307 0.0122046387 0.0054974556
0.1032276526 0.0137707554 0.0021201521
0.0664814562 0.0143238530 -0.0004177094
0.0964081362 0.0132262651 0.0033227131
0.1145021468 0.0141609507 0.0000091791
0.0696177334 0.0142242508 -0.0004221648
0.0666823611 0.0124049513 -0.0007821172
0.1097821966 0.0127812279 0.0033305138
0.0688434318 0.0145463860 -0.0020419359
0.0694476813 0.0145493746 -0.0020419359
0.0715028569 0.0142778587 -0.0006571710
0.0734051242 0.0141649079 -0.0004043281
0.0742786974 0.0142416442 -0.0001901388
0.1064695865 0.0120897610 0.0061468929
0.1143285334 0.0136544025 0.0016688034
0.0778018981 0.0143636018 -0.0003864691
0.0782484338 0.0144231990 -0.0008393824
0.0790287405 0.0145400232 -0.0017295852
0.1170379668 0.0137805194 0.0027682856
0.1190092266 0.0138074830 0.0023934618
0.0826558396 0.0143409148 -0.0001678243
0.0830406845 0.0141756646 -0.0001490787
0.0886415690 0.0143462857 -0.0002407059
0.0891472846 0.0143561950 -0.0003240034
0.0852423236 0.0131020295 0.0020364970
0.0863591358 0.0135569731 0.0017031729
0.0967844278 0.0143198306 -0.0002302974
0.0969953239 0.0143107893 -0.0001678243
0.0988029614 0.0135022346 0.0012065247
0.1065834165 0.0139102042 0.0008785501
0.1194730029 0.0141306464 -0.0001678243
0.1225853264 0.0141028119 -0.0002407059
0.1165472716 0.0139019927 0.0018624663
0.1254552454 0.0141272601 -0.0007238165
0.1264719516 0.0141042387 -0.0006519780
0.1273542941 0.0140581513 -0.0003864691
0.0918496847 0.0130781289 0.0029869303
0.1092414334 0.0130059225 0.0043300465
0.0803214908 0.0118718613 0.0013002306
0.1255606264 0.0116418898 -0.0003725886
0.0748144835 0.0145157669 -0.0000428855
0.0752734393 0.0141831404 0.0001679510
0.0764917135 0.0141620347 0.0006692708
0.0772262663 0.0144780213 0.0003007054
0.0804988593 0.0144919585 0.0002319887
0.0815027356 0.0144593362 0.0004943684
0.0822402164 0.0145184100 0.0000352040
0.0823808312 0.0132326586 0.0013900399
0.1290189028 0.0133779002 0.0014189184
0.0664760098 0.0145239867 -0.0003864691
0.1126616672 0.0143308397 -0.0002115518
0.0674611032 0.0144408392 -0.0004038215
0.1043811366 0.0142192394 0.0005318448
0.1145957708 0.0143716373 -0.0000272617
0.1140970737 0.0143254083 -0.0001678169
0.1182208210 0.0129227675 0.0059230402
0.0961068571 0.0118021527 0.0058293343
0.1214177907 0.0137164071 0.0004350170
0.0760139748 0.0137292864 0.0007692352
0.0694027096 0.0147177866 -0.0017920583
0.0692903697 0.0143493563 -0.0025930107
0.1013231575 0.0128571894 0.0042738244
0.0670589358 0.0145941898 -0.0017061606
0.0695634931 0.0145463524 -0.0004385337
0.0700240582 0.0144098643 -0.0001522079
0.0715057701 0.0145838829 -0.0006675869
0.0724158734 0.0142490054 -0.0004083291
0.0734365359 0.0145583916 -0.0004114583
0.0743215010 0.0145312017 -0.0001756325
0.0777039751 0.0145706590 -0.0004177094
0.0781462789 0.0146233113 -0.0008237660
0.0790316463 0.0147444084 -0.0017608181
0.0795269012 0.0145697249 -0.0003864765
0.0826545358 0.0145405093 -0.0001365915
0.0830605552 0.0145406164 -0.0001365915
0.0885355547 0.0145795336 -0.0004723668
0.0891451910 0.0145695014 -0.0004020855
0.0904049352 0.0142965242 0.0005449131
0.0917956084 0.0145275369 -0.0001209751
0.0965790898 0.0145246899 -0.0002302974
0.0974044576 0.0145122660 -0.0001615807
0.1064175218 0.0142601533 0.0005849451
0.1074271128 0.0142590581 0.0006234646
0.1094181463 0.0142621994 0.0003850460
0.1194898337 0.0143712014 -0.0004301965
0.1214094311 0.0143179940 -0.0001834407
0.1224279031 0.0143286986 -0.0003656447
0.1161627918 0.0139782066 0.0013002306
0.1254423559 0.0143385986 -0.0007487983
0.1264657527 0.0143137639 -0.0006597862
0.1273468733 0.0142688109 -0.0003968775
0.1190286428 0.0131748682 0.0056106895
0.0689107627 0.0149905868 -0.0023855269
0.0692614913 0.0150254741 -0.0026510283
0.0718806982 0.0149761681 -0.0021668822
0.0661462471 0.0143460240 0.0001913831
0.1094298810 0.0130888531 0.0037053451
0.0744068325 0.0147186834 -0.0000428855
0.0767891780 0.0146465087 0.0005818233
0.0771264583 0.0146844629 0.0002850816
0.0806054175 0.0147055127 0.0001601502
0.0814113691 0.0146875689 0.0003085062
0.0821403936 0.0147269098 -0.0000012368
0.0915850177 0.0147485826 -0.0002537221
0.0933525413 0.0143647073 0.0003131777
0.0954726711 0.0131307952 0.0031654164
0.1034172177 0.0144411596 0.0001361966
0.0747466460 0.0126605798 0.0010087043
0.0741807595 0.0125927320 0.0006442815
0.1234935075 0.0113611883 0.0030516237
0.0866037011 0.0127744880 0.0032264069
0.0874478221 0.0127342716 0.0040052012
0.1124078184 0.0146308225 -0.0002849624
0.1185472831 0.0131923314 0.0055169910
0.0795326382 0.0147822974 -0.0004614368
0.0715066418 0.0147869335 -0.0006675869
0.1280974597 0.0141672259 0.0003319383
0.0993341357 0.0132692754 0.0021279678
0.0992792323 0.0134345796 0.0016854703
0.1004427671 0.0133106038 0.0025496408
0.0664705411 0.0147242127 -0.0003552362
0.0670816302 0.0149090104 -0.0018076748
0.0685117468 0.0148597341 -0.0013547614
0.0695738643 0.0147566227 -0.0004905909
0.0701252371 0.0147147598 -0.0001365840
0.0724182576 0.0147582898 -0.0004114583
0.0734346807 0.0147594651 -0.0003927127
0.0744158253 0.0147275031 -0.0001131594
0.0776012987 0.0147716543 -0.0004020855
0.0779362991 0.0148134548 -0.0007300600
0.0801188350 0.0147461826 -0.0001678243
0.0826545954 0.0147441197 -0.0001365915
0.0882318616 0.0147813344 -0.0004593581
0.0893482640 0.0147712603 -0.0003942847
0.0904829279 0.0147004481 0.0001507774
0.1193158329 0.0123843821 0.0087550357
0.0965658054 0.0147443386 -0.0003552362
0.0973960757 0.0147250537 -0.0002302900
0.0911394656 0.0140547547 0.0011674836
0.0993466303 0.0147108650 -0.0001912490
0.1195951030 0.0111371065 0.0133466125
0.0954747498 0.0140437782 0.0011440516
0.1118145436 0.0146175791 -0.0001365915
0.1074087769 0.0145955589 0.0003257021
0.1027481928 0.0129444627 0.0051421598
0.1094159782 0.0146291535 -0.0000678673
0.1194432229 0.0145950839 -0.0005613938
0.1224528328 0.0145636471 -0.0005863830
0.0804188699 0.0109372642 0.0046111643
0.1254295260 0.0145497853 -0.0007737875
0.1264531910 0.0145252198 -0.0006832108
0.0814790800 0.0117766513 0.0047361031
0.1196388006 0.0130092800 0.0068288669
0.1199284270 0.0130753051 0.0062978640
0.1208105534 0.0121961283 0.0100356787
0.0692465752 0.0152139142 -0.0025651306
0.0654691905 0.0144123463 0.0004468709
0.0661458001 0.0148575762 0.0002069995
0.0706235766 0.0144424653 0.0001462474
0.1243764311 0.0116335796 -0.0002728924
0.0741951317 0.0149144474 0.0000195876
0.0770485997 0.0149178281 0.0000508204
0.0809156820 0.0149196768 0.0000820532
0.0812209249 0.0149199227 0.0000820532
0.0923077911 0.0149241202 -0.0000428855
0.0834216177 0.0134936832 0.0003779605
0.0924351513 0.0144072259 0.0001809523
0.1033831537 0.0148750897 -0.0000491291
0.0664782599 0.0149322730 -0.0003864691
0.0674158931 0.0149448253 -0.0004489422
0.0764231384 0.0127052804 0.0015709400
0.0773926452 0.0149666974 -0.0003396198
0.0855169147 0.0125461780 0.0015590414
0.1134028584 0.0145195955 -0.0002927706
0.0973863006 0.0149390632 -0.0003115088
0.0886656865 0.0150788361 -0.0016358867
0.1163873002 0.0147540169 -0.0001938567
0.1280781329 0.0145930285 0.0003007054
0.0914807245 0.0149579346 -0.0002990142
0.1084556282 0.0148518272 -0.0001443997
0.0699210465 0.0149181401 -0.0001365915
0.0702259094 0.0149175096 -0.0001209751
0.1174986735 0.0132564669 0.0042831972
0.0905814618 0.0149130234 0.0000820532
0.0920995772 0.0147324996 -0.0001365915
0.0864035413 0.0139713092 0.0010815784
0.1187174469 0.0120454105 0.0090778023
0.1197832823 0.0122526828 0.0091324598
0.0966732949 0.0149398036 -0.0002927706
0.1214815527 0.0120645892 0.0093714073
0.0992129669 0.0149449464 -0.0004281253
0.1202664375 0.0110791307 0.0134247020
0.0974694788 0.0141724395 0.0000056997
0.0984880179 0.0142056411 0.0000139028
0.0736543238 0.0124933748 0.0000924692
0.1063639671 0.0147054344 0.0003319457
0.1073690727 0.0148244342 0.0001445264
0.0935253054 0.0113770096 0.0044237524
0.0693424791 0.0134860892 -0.0026604012
0.0706617832 0.0122198761 0.0000164509
0.0654774308 0.0150329303 0.0004256442
0.0661469102 0.0150629412 0.0002069995
0.0707103983 0.0151028978 0.0000508204
0.1238873899 0.0127387866 -0.0003083870
0.1244662032 0.0127584497 -0.0005082786
0.1253906190 0.0124089168 -0.0005511492
0.0741902292 0.0151135828 0.0000612289
0.0756236985 0.0151212271 0.0000299960
0.1224493086 0.0115126064 0.0031743422
0.0806776062 0.0150532834 -0.0000116453
0.0814975649 0.0150675271 -0.0000116453
0.0821432844 0.0150189241 -0.0000553727
0.0914794356 0.0151635669 -0.0003177598
0.0927136391 0.0151294461 -0.0000637099
0.0934972689 0.0113339080 0.0056523383
0.0715981126 0.0133487657 -0.0016983524
0.1273683459 0.0146609191 -0.0003981814
0.1283062547 0.0147673544 0.0005818233
0.1285988390 0.0134440167 0.0009628832
0.0933363810 0.0149041088 0.0000945479
0.1027524769 0.0150905903 -0.0001053512
0.0664793402 0.0151363593 -0.0003864691
0.1124513596 0.0150687192 -0.0005051643
0.0674216375 0.0151515203 -0.0004723668
0.1044530571 0.0147424508 0.0001382753
0.0839449689 0.0136989960 0.0008160844
0.0972867459 0.0131797642 0.0036350638
0.1144299433 0.0147081148 -0.0002271757
0.1153853983 0.0143534597 0.0001887754
0.0886141062 0.0153382933 -0.0017087609
0.0803554058 0.0118143326 0.0023622215
0.0688563138 0.0147548653 -0.0021044090
0.1217317805 0.0108257178 0.0078596249
0.0829459727 0.0118909841 0.0054232776
0.1158638373 0.0140173975 0.0010191128
0.0790003762 0.0150977550 -0.0013755858
0.0794386938 0.0150979646 -0.0005543604
0.0801259130 0.0150629478 -0.0002615303
0.0823488161 0.0150455246 -0.0001053512
0.1177586466 0.0130313355 0.0051421598
0.0878293440 0.0150562730 -0.0002146736
0.0881288648 0.0151017290 -0.0005895048
0.0894475356 0.0150827607 -0.0004520714
0.0908833221 0.0149239078 -0.0000116453
0.0921642855 0.0150769856 -0.0001782328
0.0964673385 0.0151452916 -0.0003005713
0.0973745063 0.0151549708 -0.0004114583
0.0994070172 0.0151569964 -0.0005051643
0.1002729833 0.0151105244 -0.0001574084
0.1078229100 0.0150647946 -0.0001678243
0.1093547568 0.0150713846 -0.0003177598
0.1104083434 0.0150593249 -0.0002865270
0.1114412397 0.0150584318 -0.0003489926
0.1154631600 0.0150183085 -0.0003115088
0.1193755120 0.0150317848 -0.0007487983
0.1204457805 0.0150210746 -0.0007550493
0.1214118600 0.0150111988 -0.0007612929
0.1264314801 0.0149467317 -0.0007222518
0.1270299554 0.0149251400 -0.0006051213
0.0654702783 0.0152343018 0.0004631206
0.0661546588 0.0152720036 0.0001757592
0.0706086829 0.0153070111 0.0000508204
0.0742761791 0.0153025687 0.0001913756
0.0756266192 0.0153278029 0.0000091791
0.0761317909 0.0153240263 0.0000508204
0.0813319460 0.0153466025 -0.0000741184
0.0820428357 0.0153470272 -0.0000741184
0.0925023407 0.0153485537 -0.0001865700
0.1264407188 0.0147365332 -0.0007066354
0.0835893750 0.0144083360 0.0002330244
0.1285743862 0.0142972982 0.0009358227
0.1290489435 0.0145134619 0.0014407784
0.1114142165 0.0152759999 -0.0004489347
0.1044899970 0.0151046989 -0.0000272691
0.1218327582 0.0128623266 0.0012689978
0.1143816710 0.0151399309 -0.0003833473
0.0773777366 0.0127671324 0.0014162511
0.0885121599 0.0126870070 0.0043300465
0.1053994074 0.0144620752 0.0004950389
0.0670816153 0.0153099205 -0.0017972738
0.0684306324 0.0152560631 -0.0017139688
0.0803279206 0.0153658735 -0.0002427995
0.1273177415 0.0151105728 -0.0004385263
0.0935143679 0.0123981694 0.0051421598
0.1039718390 0.0139228869 0.0009254068
0.0687063560 0.0154851358 -0.0023542866
0.0694566965 0.0152544444 -0.0020731762
0.0695832297 0.0151687814 -0.0005322397
0.0701273903 0.0152253006 -0.0001365989
0.0714548156 0.0152110057 -0.0005783439
0.0724221915 0.0151671963 -0.0004281104
0.0734319687 0.0151627203 -0.0003635660
0.0747501254 0.0151021751 -0.0001678243
0.0751225352 0.0151899867 -0.0002115518
0.0793486163 0.0154176336 -0.0006863251
0.0823489353 0.0153508857 -0.0001053512
0.0877271667 0.0153652411 -0.0002459139
0.0881280378 0.0154094296 -0.0006207302
0.0894452706 0.0153935142 -0.0005051643
0.0914748609 0.0153772905 -0.0004052073
0.0964550897 0.0153629426 -0.0004177019
0.0973640680 0.0153689235 -0.0004989281
0.0993955880 0.0153702088 -0.0005863681
0.1003690287 0.0153192990 -0.0001990572
0.1076062173 0.0152753154 -0.0001990646
0.1093401015 0.0152833760 -0.0003739744
0.1103900075 0.0152730718 -0.0003552362
0.1154446080 0.0152314808 -0.0003677309
0.1164151728 0.0151139479 -0.0003240034
0.1193396300 0.0152502321 -0.0008487478
0.1204152331 0.0152374990 -0.0008362606
0.1213954836 0.0152227264 -0.0008003339
0.1264191419 0.0151577750 -0.0007456765
0.0654713809 0.0154402070 0.0004631206
0.0661557168 0.0154772261 0.0001757592
0.0706094652 0.0155114904 0.0000508204
0.0709377378 0.0155273238 -0.0000741184
0.0743649304 0.0154944919 0.0003007054
0.0756198838 0.0155244851 0.0000716448
0.0763134360 0.0155038014 0.0002616569
0.0814336464 0.0155502819 -0.0000741184
0.0822456479 0.0155497855 -0.0000663102
0.0915511325 0.0126112262 0.0033110008
0.0914700031 0.0155913411 -0.0004989207
0.0924953148 0.0155653199 -0.0002990142
0.1021674201 0.0152439307 -0.0000290051
0.1064639837 0.0151637746 0.0000369325
0.1224415675 0.0137071740 0.0002476051
0.0962653160 0.0144488681 0.0003717020
0.0695791766 0.0155718671 -0.0005009994
0.1153851002 0.0148017816 -0.0002224818
0.0670729131 0.0157057848 -0.0017452016
0.0684108213 0.0156646892 -0.0013391450
0.0694129840 0.0157255773 -0.0018232912
0.0701322556 0.0155339669 -0.0001574084
0.0715361238 0.0155933611 -0.0006207302
0.0724341571 0.0155822076 -0.0004989207
0.0734355375 0.0155714871 -0.0003802255
0.0751385093 0.0155513417 -0.0001678243
0.0795377046 0.0156009821 -0.0005218238
0.0803281218 0.0155691504 -0.0002427995
0.0809277669 0.0155535862 -0.0001053512
0.0876255482 0.0155667877 -0.0002302974
0.0881262794 0.0156247271 -0.0007300600
0.0894449428 0.0155955432 -0.0004989132
0.0904315561 0.0153110223 -0.0002321377
0.0931154341 0.0155445803 -0.0001365915
0.0964426845 0.0155800655 -0.0005348399
0.0973578468 0.0155780688 -0.0005488992
0.0993905514 0.0155771673 -0.0006176084
0.1004673168 0.0155259203 -0.0002240613
0.1053356677 0.0154854637 -0.0001131594
0.1064720005 0.0154815763 -0.0001428425
0.1074740887 0.0154959392 -0.0003240034
0.1094073430 0.0155057739 -0.0005270317
0.1103717089 0.0154864881 -0.0004239529
0.1113983393 0.0154879279 -0.0005051643
0.1072159111 0.0150875961 0.0000195876
0.1154371873 0.0154399239 -0.0003864691
0.1164976284 0.0154309571 -0.0003927127
0.1193974167 0.0154717918 -0.0009877458
0.1203804314 0.0154550252 -0.0009299591
0.1214746013 0.0154369958 -0.0008737370
0.1223701313 0.0152058611 -0.0008750707
0.1264100373 0.0153677389 -0.0007612929
0.1273106486 0.0153207975 -0.0004489347
0.0654640347 0.0156417377 0.0005006120
0.0661634132 0.0156860165 0.0001445264
0.0706102401 0.0157159325 0.0000508204
0.0709281936 0.0157242659 -0.0000116453
0.0743448809 0.0156804360 0.0004631281
0.0756107345 0.0157189891 0.0001549423
0.0764024183 0.0156938992 0.0003881603
0.0771456435 0.0157269686 0.0001132935
0.0794416368 0.0158104300 -0.0005816892
0.0814337730 0.0157538466 -0.0000741184
0.0823470205 0.0157528482 -0.0000616238
0.0924911574 0.0157758147 -0.0003614798
0.1211751029 0.0132906418 0.0012898222
0.1054265425 0.0156968310 -0.0001740754
0.0961347893 0.0137453629 0.0015501156
0.1164042279 0.0144361714 0.0000473410
0.0788453519 0.0149640040 -0.0019169971
0.1004609391 0.0144586666 0.0001351461
0.0670608878 0.0158996359 -0.0016827360
0.0687965602 0.0159164593 -0.0017608181
0.0695875958 0.0157800633 -0.0005426556
0.0701330528 0.0157380197 -0.0001574084
0.0715157986 0.0158052109 -0.0006988272
0.0724404305 0.0157896616 -0.0005364046
0.0734387264 0.0157769509 -0.0003989637
0.0751352161 0.0157513730 -0.0001365915
0.0775277987 0.0158174634 -0.0006675869
0.1234375685 0.0156486053 -0.0011048838
0.1239790618 0.0156426020 -0.0011048838
0.0803283155 0.0157723874 -0.0002427995
0.0809279308 0.0157570988 -0.0001053512
0.0894444212 0.0157990027 -0.0005051568
0.0904641524 0.0157726277 -0.0002927706
0.0914624631 0.0158114377 -0.0006488487
0.0931108743 0.0157554541 -0.0001990572
0.0967435390 0.0157864932 -0.0005738810
0.0971552134 0.0157800950 -0.0005322397
0.0993814915 0.0157875605 -0.0006800815
0.1004567221 0.0157379787 -0.0002927706
0.1014076024 0.0157126039 -0.0001131594
0.0667175055 0.0134638827 -0.0015629977
0.0670669526 0.0134958103 -0.0017764419
0.1064606011 0.0156924315 -0.0001928136
0.1074580476 0.0157087445 -0.0003927127
0.1093858331 0.0157204717 -0.0006129220
0.1103534326 0.0156995766 -0.0004926696
0.1113872975 0.0156974010 -0.0005426481
0.1228327900 0.0138818827 -0.0001678243
0.1154223680 0.0156511627 -0.0004302040
0.1194773018 0.0156850815 -0.0010611489
0.1204570010 0.0156695656 -0.0010111704
0.1214499325 0.0156508125 -0.0009362176
0.1224908233 0.0156511199 -0.0010361671
0.1237985566 0.0126893315 0.0005006120
0.0886160508 0.0137878070 0.0005818233
0.0893049464 0.0137632200 0.0005505830
0.1222085133 0.0114245759 0.0075680986
0.0904772431 0.0126087423 0.0033492669
0.1003799587 0.0137860579 0.0005693287
0.0706357509 0.0135888951 0.0001088232
0.0654678047 0.0158490650 0.0004881173
0.0661644191 0.0158910975 0.0001445264
0.0708004907 0.0159104615 0.0001445264
0.0734419450 0.0159823000 -0.0004177019
0.0756927654 0.0159034431 0.0003319383
0.0763932765 0.0158886928 0.0004756153
0.0770156831 0.0158990696 0.0003944114
0.0994189680 0.0138221774 0.0003397465
0.1010851189 0.0159283131 -0.0001990572
0.1272935569 0.0156377926 -0.0004801750
0.0934939906 0.0154284434 0.0000320673
0.0943644196 0.0155009264 0.0002032369
0.1111556068 0.0137282517 0.0007848442
0.0681845620 0.0159939714 -0.0006884038
0.0753536299 0.0135505367 0.0005540624
0.0695978627 0.0159892291 -0.0005947053
0.0705188438 0.0159270428 -0.0000116453
0.0874372795 0.0144996876 0.0004672706
0.0883181319 0.0141873881 0.0001991913
0.1184603795 0.0159192141 -0.0012298226
0.1194202900 0.0159093328 -0.0012235716
0.1201010495 0.0158894509 -0.0011048838
0.1227866933 0.0158620123 -0.0011048838
0.1234233379 0.0158586837 -0.0011361167
0.0790310949 0.0161420945 -0.0017295852
0.1241936833 0.0158468373 -0.0011048838
0.0894434005 0.0160045177 -0.0005301461
0.0904616416 0.0159821603 -0.0003489926
0.0914602503 0.0160181522 -0.0006863251
0.0924884453 0.0159831867 -0.0003989637
0.0868097916 0.0119016254 0.0068288669
0.0932131484 0.0159569122 -0.0001834407
0.0993892476 0.0159827843 -0.0006113723
0.1004487127 0.0159475841 -0.0003427416
0.1076279804 0.0159314759 -0.0005634725
0.1093517020 0.0159410015 -0.0007534847
0.0737790614 0.0133777810 0.0000352040
0.1187584475 0.0159233678 -0.0012922958
0.0654660389 0.0160535239 0.0005006120
0.0661720634 0.0160996206 0.0001132935
0.0743476376 0.0134338606 0.0003111064
0.0706952661 0.0161123369 0.0001653507
0.1234211028 0.0136895170 -0.0003504306
0.1244048774 0.0137132565 -0.0006301105
0.1254759729 0.0138095235 -0.0006831959
0.0734425187 0.0161854550 -0.0004177019
0.0750340372 0.0160566084 -0.0001365915
0.0754457712 0.0160631500 0.0001185015
0.0763869435 0.0160865933 0.0005380809
0.0771367103 0.0160228275 0.0002069995
0.0775702223 0.0161435865 -0.0006863251
0.0794383958 0.0161089525 -0.0005348325
0.0814331025 0.0160573758 -0.0000585094
0.0823462307 0.0160560440 -0.0000428930
0.1083709374 0.0144041926 0.0003475472
0.0718789175 0.0153733138 -0.0021460578
0.1276152432 0.0159200281 -0.0002302974
0.1208856329 0.0107440352 0.0084843338
0.1289080977 0.0157453511 0.0012377575
0.1290377229 0.0152471839 0.0013939366
0.1105086505 0.0138705084 0.0006703138
0.1033409834 0.0161271729 -0.0002552867
0.1204588711 0.0145968283 -0.0005402416
0.1144293472 0.0160854086 -0.0005582646
0.1153948233 0.0160722733 -0.0005114153
0.1203888729 0.0122885536 0.0094963536
0.1223052070 0.0125830853 0.0014512092
0.1226687729 0.0160717517 -0.0011257082
0.0781169906 0.0162234232 -0.0015734136
0.0670606792 0.0162004977 -0.0016749278
0.0680737495 0.0155050708 -0.0007300526
0.1202005222 0.0160957966 -0.0011205003
0.1234091520 0.0160685927 -0.0011673495
0.0790287703 0.0163387246 -0.0016983524
0.1242908090 0.0160549618 -0.0011283085
0.0803272575 0.0160750747 -0.0002240613
0.0809281543 0.0160622932 -0.0001053512
0.0894428417 0.0162078105 -0.0005363971
0.0903888270 0.0161998682 -0.0004801750
0.0914586037 0.0162232853 -0.0007113218
0.0924876332 0.0161868967 -0.0004052073
0.0932125896 0.0161604248 -0.0001834407
0.0993794948 0.0161935538 -0.0006800815
0.1004416868 0.0161562506 -0.0003864765
0.1014956385 0.0161304679 -0.0001990572
0.1054084599 0.0161154829 -0.0002552867
0.1064314768 0.0161168873 -0.0003239959
0.1074168086 0.0161382668 -0.0005738884
0.1094540209 0.0161446240 -0.0007550493
0.1104331687 0.0161186084 -0.0005816892
0.1113587469 0.0161185674 -0.0006426051
0.1185088530 0.0161422044 -0.0013984963
0.1206450164 0.0160863567 -0.0010736436
0.1214186326 0.0160718858 -0.0010111704
0.1221547499 0.0160696171 -0.0010580271
0.1263862997 0.0159961134 -0.0008003414
0.1271268576 0.0159664303 -0.0006051138
0.0654712170 0.0162614100 0.0004818663
0.0661730170 0.0163045656 0.0001132935
0.0706856176 0.0163100921 0.0002278164
0.0734448358 0.0163899362 -0.0004301965
0.0750309229 0.0163586196 -0.0001053512
0.0763839707 0.0162881203 0.0005693287
0.0770068914 0.0162980929 0.0004881173
0.0775202289 0.0164155364 -0.0005842969
0.0794370323 0.0164102353 -0.0005114153
0.0813319162 0.0163629111 -0.0000616238
0.0823463276 0.0163613297 -0.0000428855
0.0904712081 0.0135401841 0.0014688969
0.0716488659 0.0155334156 -0.0015369654
0.1282871962 0.0154042374 0.0005568191
0.0914564431 0.0164296404 -0.0007487983
0.0924864262 0.0163912252 -0.0004177094
0.1043703333 0.0162253901 -0.0002709031
0.1051012799 0.0128303766 0.0042831972
0.1214021668 0.0140744084 0.0000945553
0.1163290069 0.0124364505 0.0060885847
0.0864269361 0.0145287775 0.0006212965
0.0872255638 0.0139814029 0.0009982884
0.1008372083 0.0151618905 -0.0000428781
0.0694769472 0.0134184612 -0.0011236221
0.0670669228 0.0165047348 -0.0016983524
0.0687547028 0.0162925236 -0.0015317649
0.0681929365 0.0163025651 -0.0007248521
0.0696649551 0.0162721779 -0.0003942847
0.0701345727 0.0161459986 -0.0001574233
0.0715230703 0.0161793996 -0.0005823970
0.0724488720 0.0162009634 -0.0005842820
0.1183842570 0.0163532849 -0.0014484674
0.1204098165 0.0163002070 -0.0011283085
0.1226626784 0.0162790716 -0.0011361167
0.1234069020 0.0162748620 -0.0011673495
0.0790471137 0.0165626500 -0.0019169971
0.1242793873 0.0162641443 -0.0011517331
0.0803266317 0.0163784921 -0.0002115667
0.0875206813 0.0164162256 -0.0005660728
0.0888310894 0.0164357983 -0.0007612929
0.0894421414 0.0164117254 -0.0005488917
0.0904530361 0.0164109450 -0.0005582646
0.0933142304 0.0163630582 -0.0001782328
0.0949502438 0.0163504034 -0.0001053512
0.0993754491 0.0163992234 -0.0007050708
0.1004389673 0.0163612850 -0.0003989711
0.1014889777 0.0163387470 -0.0002365485
0.1054024473 0.0163227879 -0.0002802685
0.1064175963 0.0163283050 -0.0003864691
0.1074022204 0.0163493138 -0.0006363541
0.1094322130 0.0163583774 -0.0008425042
0.1104107574 0.0163327232 -0.0006675869
0.1113413870 0.0163301509 -0.0007050708
0.1153801382 0.0162828602 -0.0005551353
0.1214008331 0.0162828192 -0.0010549054
0.1221468672 0.0162775237 -0.0010736436
0.1263774782 0.0162056722 -0.0008159578
0.1272871345 0.0161596928 -0.0004801750
0.0654762536 0.0164691843 0.0004631281
0.0661739483 0.0165094789 0.0001132935
0.0706933141 0.0165192131 0.0001861751
0.0734410733 0.0165896602 -0.0003989637
0.0763809830 0.0164897479 0.0006005615
0.0775185451 0.0166158043 -0.0005634725
0.0779713765 0.0166708995 -0.0010736436
0.0794404149 0.0166169684 -0.0005504563
0.0813316703 0.0165656991 -0.0000553802
0.0823463947 0.0165648051 -0.0000428855
0.1174372584 0.0154127767 -0.0004693046
0.0805673078 0.0121963276 0.0023086742
0.1263965070 0.0156824738 -0.0007847175
0.0924827456 0.0166001432 -0.0004739240
0.1024832129 0.0163520128 -0.0002704561
0.1103949770 0.0135161811 0.0011683479
0.1034294814 0.0164413042 -0.0003318116
0.0849820599 0.0153170833 0.0001757592
0.0867120698 0.0150758699 0.0004724935
0.0872722566 0.0152430246 0.0001406297
0.0670839399 0.0167141296 -0.0017764345
0.0687583014 0.0166960806 -0.0015421733
0.0682033077 0.0166120119 -0.0007717162
0.0696897656 0.0165916197 -0.0005270317
0.0701523200 0.0165639035 -0.0002511293
0.0715200529 0.0166171510 -0.0007092357
0.1174535230 0.0163225606 -0.0007690936
0.0724513233 0.0166075453 -0.0005926266
0.1183755100 0.0165599845 -0.0014692992
0.1204023734 0.0165074728 -0.0011439249
0.1224450022 0.0164872780 -0.0011361167
0.1233987585 0.0164827984 -0.0011829659
0.1242771372 0.0164706409 -0.0011517331
0.0790602863 0.0167789571 -0.0020731762
0.0803255290 0.0165796578 -0.0001928061
0.0875206217 0.0166169610 -0.0005504563
0.0888326541 0.0166278221 -0.0006675869
0.0894408152 0.0166182220 -0.0005863681
0.0901498422 0.0166123658 -0.0005426481
0.0914539918 0.0166364703 -0.0007925257
0.0933116302 0.0165698566 -0.0002094731
0.0987045020 0.0166551992 -0.0011777580
0.0994722843 0.0166051686 -0.0007378682
0.1004354134 0.0165669043 -0.0004177094
0.1014852226 0.0165448226 -0.0002552867
0.1053953022 0.0165306237 -0.0003115088
0.1064075083 0.0165374130 -0.0004301965
0.1073995978 0.0165540241 -0.0006426051
0.1094263270 0.0165643319 -0.0008612424
0.1104954034 0.0165445469 -0.0007425547
0.1114281714 0.0165408719 -0.0007691011
0.1122903302 0.0136906132 0.0012734607
0.1078787372 0.0125522986 0.0045799315
0.1153692231 0.0164918788 -0.0005863681
0.1096640676 0.0126901632 0.0042519569
0.1179985404 0.0161044225 -0.0010111779
0.1216068119 0.0164887886 -0.0010736436
0.1232751980 0.0132539561 0.0003163293
0.1263718605 0.0164142773 -0.0008237660
0.1272846907 0.0163683873 -0.0004801750
0.0654952526 0.0166834146 0.0003819168
0.0661748499 0.0167143568 0.0001132935
0.0707009360 0.0167281255 0.0001445264
0.0733499080 0.0168001838 -0.0004723668
0.0776304677 0.0168293603 -0.0006675869
0.0779687613 0.0168690421 -0.0010424107
0.0795288011 0.0168023650 -0.0003864691
0.0813310295 0.0167678297 -0.0000428855
0.0823464468 0.0167682506 -0.0000428855
0.0995051861 0.0142986132 0.0000273809
0.0803248435 0.0167815238 -0.0001803115
0.0885397196 0.0162503123 -0.0021044165
0.0924760923 0.0168140233 -0.0005801246
0.1093867719 0.0148497745 -0.0001865700
0.1104181707 0.0143847903 0.0001668334
0.1115809307 0.0135730496 0.0011822358
0.1113493815 0.0143504320 0.0002382249
0.0983791277 0.0146244932 -0.0001886487
0.0672892034 0.0168653987 -0.0012922958
0.0687590763 0.0168972146 -0.0015421733
0.0682142675 0.0168202743 -0.0008237660
0.0697099864 0.0168062411 -0.0006363466
0.0701657012 0.0167752299 -0.0003240034
0.0715238750 0.0168219358 -0.0007300600
0.1173993573 0.0167109072 -0.0008737370
0.0724518672 0.0168103110 -0.0005926266
0.1186435372 0.0167771243 -0.0016150624
0.1224406436 0.0166939665 -0.0011423603
0.1234025881 0.0166873001 -0.0011673495
0.0791840106 0.0168803893 -0.0011361167
0.1242810488 0.0166754350 -0.0011361167
0.0875204206 0.0168193653 -0.0005504563
0.0888317451 0.0168332830 -0.0006988272
0.0894400179 0.0168225653 -0.0006051138
0.0901484415 0.0168181378 -0.0005738810
0.0914529786 0.0168398172 -0.0008050278
0.0930706561 0.0131649021 0.0023309961
0.0933077186 0.0167786703 -0.0002615377
0.0987024158 0.0168580599 -0.0011881739
0.0994714648 0.0168079361 -0.0007378682
0.1004344597 0.0167704448 -0.0004177094
0.1014814675 0.0167507902 -0.0002740324
0.0674101859 0.0147379879 -0.0004255176
0.1053893864 0.0167376399 -0.0003364980
0.1064012870 0.0167443305 -0.0004551783
0.1073931009 0.0167606510 -0.0006675869
0.1094263569 0.0167675391 -0.0008549988
0.1104832366 0.0167534575 -0.0007862821
0.1114168093 0.0167494006 -0.0008081421
0.1132827401 0.0136500187 0.0014626533
0.1224066466 0.0147860758 -0.0007050708
0.1153619885 0.0166994072 -0.0006051213
0.1254142374 0.0147616118 -0.0008050278
0.0843304023 0.0145414434 0.0005771518
0.0896937624 0.0144527387 0.0000463650
0.0914654732 0.0143591473 0.0003111139
0.0943639502 0.0146201681 0.0004939586
0.0876534656 0.0130571360 0.0032055825
0.0963823348 0.0149217313 -0.0001365915
0.0997507721 0.0149178654 -0.0002302900
0.1000713035 0.0149046713 -0.0001365915
0.1013897434 0.0145226615 0.0002710968
0.1104342788 0.0148413554 -0.0001865700
0.1114731207 0.0148380622 -0.0002302974
0.1124812216 0.0148500381 -0.0003989637
0.1174015403 0.0147851193 -0.0002490357
0.1184786633 0.0146547919 -0.0003523976
0.1194177568 0.0148105174 -0.0006301105
0.0708705708 0.0169107281 0.0003631711
0.1244139671 0.0144412341 -0.0007796511
0.0733482689 0.0170014985 -0.0004567504
0.1084390730 0.0154251894 -0.0004610792
0.1263700128 0.0167254061 -0.0008198544
0.0897542611 0.0135699874 0.0013392717
0.1272920519 0.0166786052 -0.0004541501
0.1282645166 0.0163572468 0.0005310550
0.1014768332 0.0169572867 -0.0002990142
0.1183718070 0.0153987864 -0.0007368326
0.1205473468 0.0158792194 -0.0010528192
0.1172012687 0.0169127621 -0.0008237585
0.1224363074 0.0169005953 -0.0011486113
0.1234005094 0.0168934688 -0.0011673495
0.1242789179 0.0168818980 -0.0011361167
0.0875203460 0.0170193333 -0.0005270243
0.0894386917 0.0170287229 -0.0006426051
0.0902470499 0.0170267746 -0.0006363541
0.0914494842 0.0170488469 -0.0008737370
0.0924691558 0.0170280710 -0.0006925762
0.0933038369 0.0169872381 -0.0003135949
0.0988055095 0.0170572493 -0.0011673495
0.0994706452 0.0170106720 -0.0007378682
0.0691895783 0.0155931683 -0.0025729388
0.1004300714 0.0169765241 -0.0004426911
0.1053835228 0.0169445165 -0.0003614798
0.1063938290 0.0169517547 -0.0004864261
0.1073852926 0.0169677846 -0.0006988198
0.1094264388 0.0169707388 -0.0008487478
0.1104803532 0.0169582758 -0.0007925257
0.1114074364 0.0169569273 -0.0008393824
0.1135459766 0.0138803786 0.0006442964
0.1184320375 0.0169692375 -0.0014797002
0.1289016902 0.0162770152 0.0012377575
0.0655096471 0.0171000361 0.0003256872
0.0661699101 0.0171208754 0.0001445264
0.1214326993 0.0146627231 -0.0005461127
0.0707581416 0.0170616899 0.0002174079
0.1234494671 0.0144389747 -0.0007166564
0.0733465925 0.0172028430 -0.0004411340
0.0776165426 0.0171177071 -0.0005192235
0.0779662728 0.0171680562 -0.0010111704
0.0795271546 0.0171038620 -0.0003604442
0.0807228461 0.0170742106 -0.0000585020
0.0813290402 0.0170691665 -0.0000054017
0.0823463723 0.0170730390 -0.0000397712
0.0908213779 0.0173064433 -0.0014172345
0.0717329830 0.0164683126 -0.0011985898
0.0833605453 0.0163579136 -0.0000104159
0.1288955957 0.0168084968 0.0012377575
0.0915493071 0.0172517076 -0.0008862317
0.1125907302 0.0140251424 0.0012065247
0.0673494861 0.0171803869 -0.0017425939
0.0689030513 0.0173748918 -0.0022918209
0.0685618520 0.0172005966 -0.0015655980
0.0681038797 0.0171026718 -0.0009487122
0.0715264529 0.0171267577 -0.0007404685
0.0724512860 0.0171134472 -0.0005832464
0.1184261963 0.0171748027 -0.0014921948
0.1203062236 0.0170496926 -0.0012744442
0.1224343702 0.0171065256 -0.0011486113
0.1233984828 0.0170996077 -0.0011673495
0.1241642684 0.0170904193 -0.0011465251
0.0802235156 0.0170861147 -0.0001795441
0.0895390660 0.0172317177 -0.0006519780
0.0903448313 0.0172366947 -0.0007144362
0.0924646780 0.0172372162 -0.0007612929
0.0933005884 0.0171945039 -0.0003552362
0.0988047421 0.0172589868 -0.0011673495
0.0994678065 0.0172149502 -0.0007534847
0.1004265770 0.0171818361 -0.0004614368
0.1014683396 0.0171661712 -0.0003489926
0.1053788364 0.0171506293 -0.0003802255
0.1063914001 0.0171564892 -0.0004926696
0.1073747575 0.0171760172 -0.0007425547
0.1094193310 0.0171770975 -0.0008737370
0.1104775071 0.0171630345 -0.0007987693
0.1114080325 0.0171603262 -0.0008315668
0.1153550372 0.0171115883 -0.0006176159
0.1254328191 0.0170603003 -0.0009643212
0.1263778508 0.0170340762 -0.0007925332
0.1272994876 0.0169889145 -0.0004281104
0.0654910803 0.0172967128 0.0004131496
0.0661240742 0.0173041485 0.0003631711
0.0707011148 0.0173402876 0.0001549423
0.0724488497 0.0174153484 -0.0005613938
0.0733437985 0.0174034573 -0.0004177094
0.0776011124 0.0174052753 -0.0003552362
0.0779521167 0.0174548496 -0.0008549988
0.0795343667 0.0174160711 -0.0004426986
0.0806205124 0.0173776299 -0.0000428781
0.0813274160 0.0173712671 0.0000258312
0.0823459849 0.0173771661 -0.0000303835
0.0906181112 0.0139745288 0.0010034963
0.1164337173 0.0164814554 -0.0005713776
0.0790710822 0.0171903223 -0.0021981150
0.1282734424 0.0168810356 0.0005661994
0.0916522071 0.0174481403 -0.0008341819
0.1024657935 0.0171804354 -0.0005363971
0.0944020078 0.0136977527 0.0016360134
0.1163993329 0.0172111839 -0.0006644502
0.0681709573 0.0145380460 -0.0006542057
0.1085179001 0.0138078053 0.0015423074
0.1095524132 0.0135658421 0.0012734607
0.0673523843 0.0174996369 -0.0015859082
0.0686728880 0.0175582580 -0.0021356419
0.0682151616 0.0174786355 -0.0013391450
0.0697271377 0.0172208734 -0.0007248521
0.0702400059 0.0171630383 -0.0003154874
0.0715273246 0.0174304508 -0.0007404685
0.1173966527 0.0171646699 -0.0009316653
0.1177453175 0.0173466690 -0.0011048838
0.1184699982 0.0173653215 -0.0013547689
0.1204676330 0.0173382498 -0.0012423173
0.1226657629 0.0130798006 0.0011440590
0.1224417090 0.0173099227 -0.0011236221
0.1233965233 0.0173057131 -0.0011673495
0.1241663098 0.0172957238 -0.0011361167
0.0802206919 0.0173865631 -0.0001365915
0.0896398723 0.0174332149 -0.0006467625
0.0903441980 0.0174395200 -0.0007222444
0.0924638733 0.0174398944 -0.0007675365
0.0932993963 0.0173984934 -0.0003656447
0.0986962840 0.0174661987 -0.0012194142
0.0994650200 0.0174191315 -0.0007691011
0.1004248932 0.0173858069 -0.0004676804
0.1014589369 0.0173754301 -0.0004052073
0.1053742170 0.0173566304 -0.0003989637
0.1063891128 0.0173611678 -0.0004989207
0.1073722169 0.0173803270 -0.0007487908
0.1094107777 0.0173839442 -0.0009049699
0.1104746982 0.0173677392 -0.0008050278
0.1115083173 0.0173649248 -0.0008424968
0.1153498590 0.0173182152 -0.0006301105
0.1254338771 0.0172665752 -0.0009565055
0.1263853312 0.0172393899 -0.0007691011
0.1272928566 0.0171986334 -0.0004385263
0.0654642507 0.0174901076 0.0005380958
0.0660648867 0.0174822807 0.0006442890
0.0706982166 0.0175426379 0.0001757592
0.0733420476 0.0176048931 -0.0004020929
0.0763814077 0.0173087660 0.0006088987
0.0771679878 0.0173024535 0.0004256442
0.0777179003 0.0176232569 -0.0005114153
0.0779378116 0.0176415611 -0.0006988272
0.0795296803 0.0176126100 -0.0003802255
0.0806191713 0.0175787266 -0.0000194609
0.0814272240 0.0175716430 0.0000586286
0.0823451057 0.0175787099 -0.0000116453
0.1071399525 0.0159182940 -0.0004177019
0.0791227445 0.0174289756 -0.0016046464
0.0907913893 0.0177768208 -0.0021356419
0.0908095613 0.0175347142 -0.0016983524
0.0910982415 0.0175552554 -0.0015046895
0.0916518122 0.0176499784 -0.0008341819
0.0718820393 0.0167700946 -0.0021356419
0.1099145710 0.0159168094 -0.0005738810
0.1104460731 0.0159085467 -0.0005348399
0.1222704798 0.0158604812 -0.0010424107
0.0863809809 0.0165233016 0.0000976697
0.0870165378 0.0165621564 -0.0000324696
0.0841262639 0.0128052849 0.0016672462
0.0883937925 0.0163752697 -0.0016671196
0.0668723434 0.0176648423 -0.0012298226
0.0672713369 0.0177097041 -0.0016827360
0.0684911907 0.0177170038 -0.0017139688
0.0680624396 0.0176541544 -0.0010736436
0.0697238445 0.0176236574 -0.0006988272
0.0701592416 0.0175840259 -0.0002719462
0.0715277940 0.0176328644 -0.0007404611
0.1173769534 0.0175369848 -0.0009237155
0.0724400356 0.0176120363 -0.0004989207
0.1185383499 0.0175613686 -0.0012714788
0.1226545572 0.0175142214 -0.0011257082
0.1234064773 0.0175087247 -0.0011361167
0.1241724193 0.0175000206 -0.0011152923
0.0801193267 0.0175896585 -0.0001365915
0.0875190943 0.0176331755 -0.0005973056
0.0896395445 0.0176353566 -0.0006467625
0.0901450440 0.0176335853 -0.0006363541
0.0924667493 0.0176365003 -0.0007113218
0.0934044495 0.0175956469 -0.0003083870
0.0986892283 0.0176727846 -0.0012714714
0.0994662568 0.0176202059 -0.0007534847
0.1004222929 0.0175903272 -0.0004801750
0.1014495566 0.0175844245 -0.0004614368
0.1053684130 0.0175631307 -0.0004239529
0.1063880175 0.0175651871 -0.0004989207
0.1073723584 0.0175833702 -0.0007425472
0.1094081327 0.0175882019 -0.0009112135
0.1104734391 0.0175717808 -0.0008050278
0.1115037799 0.0175702870 -0.0008549988
0.1133189127 0.0139234541 0.0003319383
0.1154430434 0.0175264589 -0.0006675869
0.1217046827 0.0175172891 -0.0010736436
0.1221350431 0.0175136868 -0.0010736436
0.1254443526 0.0174705535 -0.0009252727
0.1263992637 0.0174432397 -0.0007300600
0.1272993833 0.0174052045 -0.0004177019
0.0654609501 0.0176940374 0.0005568340
0.0662155375 0.0177091639 0.0004256442
0.0706918612 0.0177430809 0.0002174079
0.0733348131 0.0178026855 -0.0003474280
0.0763714090 0.0177092478 0.0007067621
0.0772102848 0.0177280828 0.0005193427
0.0777092278 0.0178168807 -0.0004177094
0.0780389383 0.0178437289 -0.0006988272
0.0795273483 0.0178123191 -0.0003489926
0.0806187615 0.0177813657 -0.0000116527
0.0814259946 0.0177729577 0.0000820532
0.0823448300 0.0177814811 -0.0000054017
0.0801172853 0.0177898630 -0.0001053512
0.1272972971 0.0176138375 -0.0004177019
0.1288777292 0.0172365420 0.0012065247
0.0915484875 0.0178561416 -0.0008784235
0.0763812140 0.0167968906 0.0006036833
0.0758971795 0.0127090830 0.0011752918
0.0844391584 0.0135981757 0.0015618205
0.1065288484 0.0177667104 -0.0004801750
0.0693220720 0.0179823395 -0.0023751184
0.1144507006 0.0156670064 -0.0004957914
0.1073725671 0.0177864097 -0.0007363036
0.0684225038 0.0178837478 -0.0013547614
0.0680140555 0.0178325996 -0.0008237660
0.0697049797 0.0178159848 -0.0005894974
0.0701435730 0.0177786741 -0.0001782328
0.0715315193 0.0178372152 -0.0007612929
0.1173754036 0.0177421048 -0.0009237155
0.0724283978 0.0178071931 -0.0004177019
0.1184990630 0.0177769735 -0.0013860017
0.1193942875 0.0173934288 -0.0014314353
0.1228762269 0.0177163798 -0.0011048838
0.1234105527 0.0177133400 -0.0011205003
0.1239576563 0.0177072436 -0.0011048838
0.0875191689 0.0178331211 -0.0005738810
0.0884209871 0.0178792421 -0.0010736436
0.0896395892 0.0178364888 -0.0006363541
0.0902483612 0.0178287141 -0.0005634651
0.0924695879 0.0178333074 -0.0006550923
0.0934012756 0.0178023372 -0.0003474280
0.0939266458 0.0177783426 -0.0001053512
0.0986859873 0.0178761743 -0.0012922883
0.0994644761 0.0178235266 -0.0007612929
0.1004206464 0.0177941732 -0.0004864186
0.1014449969 0.0177901983 -0.0004864261
0.0664880350 0.0155480774 -0.0004177094
0.0674209371 0.0155574521 -0.0004593581
0.1124226674 0.0155927986 -0.0005972981
0.1164823174 0.0157451406 -0.0004333183
0.1094069481 0.0177918095 -0.0009112135
0.0718953535 0.0179730877 -0.0021981150
0.1104660779 0.0177781656 -0.0008300096
0.1114977598 0.0177761614 -0.0008737370
0.1254297495 0.0153665962 -0.0008961558
0.1216030121 0.0177219696 -0.0010528192
0.1223544776 0.0177163407 -0.0010580271
0.0844331831 0.0154563924 0.0002710968
0.0983459949 0.0154029410 -0.0008224994
0.1016089469 0.0159186460 -0.0001365915
0.1014276668 0.0152892089 0.0000065640
0.1064466536 0.0159044601 -0.0002552867
0.1113729924 0.0159081072 -0.0005926266
0.1134537905 0.0155017162 -0.0005399287
0.1154076532 0.0158621781 -0.0004739240
0.0655182078 0.0179234296 0.0003007054
0.0664061531 0.0179523900 0.0000195876
0.0744391605 0.0158784278 0.0005271658
0.1214298010 0.0158628859 -0.0009861887
0.0705955029 0.0179503597 0.0001835749
0.1233746037 0.0152237536 -0.0009986758
0.1244772673 0.0153719205 -0.0009782761
0.0733297467 0.0180021189 -0.0003083870
0.0833601654 0.0157458615 0.0000008494
0.0763710588 0.0179137085 0.0007130131
0.0769840255 0.0179122798 0.0007379949
0.0853546709 0.0143856686 0.0006329417
0.1264170557 0.0177500509 -0.0006792992
0.1288601011 0.0176642984 0.0011752918
0.0914466307 0.0180592984 -0.0008924752
0.0924724638 0.0180303268 -0.0005988777
0.0843623355 0.0163729750 0.0001757443
0.1213218421 0.0167528056 -0.0011126921
0.1051491126 0.0179772638 -0.0004801750
0.1073675379 0.0179917645 -0.0007550418
0.1083522812 0.0180078782 -0.0009861887
0.0724186301 0.0180038158 -0.0003489926
0.1203596666 0.0176464468 -0.0012376308
0.1221251935 0.0140792206 -0.0000116453
0.0795270130 0.0180144366 -0.0003427416
0.0801174268 0.0179930441 -0.0001053512
0.0875190571 0.0180345792 -0.0005660728
0.0883216560 0.0180725902 -0.0009877458
0.0895382017 0.0180394500 -0.0006441623
0.0902505592 0.0180242844 -0.0004905909
0.0935031846 0.0180040020 -0.0003364980
0.0944657475 0.0179852899 -0.0001574084
0.1024486870 0.0156664401 -0.0001410618
0.1033569723 0.0155052738 -0.0001815706
0.1043649912 0.0156198815 -0.0001990646
0.0986853018 0.0180775262 -0.0012922883
0.1054157019 0.0159073249 -0.0002240464
0.0994637609 0.0180260669 -0.0007612929
0.0693063587 0.0164433289 -0.0023206472
0.1004190370 0.0179979689 -0.0004926696
0.1014423370 0.0179946870 -0.0004989207
0.1068040431 0.0179693848 -0.0004801750
0.1094057485 0.0179953929 -0.0009112135
0.0787015483 0.0164801739 -0.0023258924
0.1104664728 0.0179815181 -0.0008237660
0.1114949137 0.0179807656 -0.0008799955
0.1144756526 0.0179477185 -0.0007175654
0.1154332310 0.0179390982 -0.0006910190
0.1163759604 0.0179358106 -0.0007238165
0.1185518503 0.0179951862 -0.0015421733
0.1213901937 0.0179284737 -0.0010424107
0.0654583946 0.0181037486 0.0005755723
0.0662136823 0.0181184243 0.0004412606
0.0699216202 0.0181760304 -0.0000741184
0.0704969093 0.0181562658 0.0001632646
0.0711355135 0.0181707889 0.0000195876
0.0733246803 0.0182016902 -0.0002693385
0.0763707086 0.0181181710 0.0007192567
0.0772559866 0.0180595107 0.0004756302
0.0806177035 0.0180846285 0.0000078604
0.0814235061 0.0180740207 0.0001289099
0.0821970403 0.0180668458 0.0000508279
0.1082417518 0.0127226710 0.0044940338
0.1163838729 0.0176260378 -0.0007050559
0.1273300499 0.0178145990 -0.0003344119
0.1282525510 0.0174732078 0.0005019903
0.1288580596 0.0178765692 0.0011752918
0.0914482251 0.0182569847 -0.0008487478
0.0924734324 0.0182303693 -0.0005738810
0.0943409950 0.0179721825 -0.0000116453
0.0864058137 0.0173614696 0.0001195222
0.0870739371 0.0173377730 0.0000597462
0.1083553731 0.0182094090 -0.0009674504
0.0873659626 0.0136503940 0.0016698539
0.0672255307 0.0181631483 -0.0016983524
0.0686937869 0.0181691535 -0.0015317649
0.0688754022 0.0179584585 -0.0021356419
0.0681671649 0.0181520283 -0.0007675365
0.0696766376 0.0181053411 -0.0004255250
0.0700316951 0.0179767683 -0.0001209751
0.0714892894 0.0181254931 -0.0005973056
0.0724163204 0.0182052031 -0.0003302470
0.1184778586 0.0182192028 -0.0017608255
0.1203645468 0.0180545207 -0.0012142062
0.0777781010 0.0181555543 -0.0004281104
0.0781430304 0.0181495957 -0.0007300600
0.0795267224 0.0182165522 -0.0003364906
0.0801175684 0.0181961991 -0.0001053512
0.0826887190 0.0181313660 -0.0001261756
0.0830263197 0.0181304570 -0.0001157671
0.0875191242 0.0182346348 -0.0005426481
0.0883226991 0.0182654578 -0.0008940399
0.0895388573 0.0182387009 -0.0006129220
0.0902530998 0.0182191953 -0.0004072934
0.0934992805 0.0182114076 -0.0003864691
0.0945210010 0.0182023533 -0.0003115088
0.0986909643 0.0182741545 -0.0012402385
0.0994630605 0.0182285812 -0.0007612929
0.1004174128 0.0182017107 -0.0004989132
0.1014415473 0.0181979686 -0.0004989207
0.1050419733 0.0181829352 -0.0004957989
0.1073665321 0.0181953162 -0.0007550418
0.1094046384 0.0181989484 -0.0009112135
0.1104653180 0.0181854367 -0.0008237660
0.1114968732 0.0181836188 -0.0008674935
0.1144725382 0.0181531757 -0.0007238165
0.1154318675 0.0181442350 -0.0006910190
0.1163822189 0.0181387998 -0.0006988272
0.1213954687 0.0181324966 -0.0010236651
0.1224831566 0.0181214288 -0.0009924322
0.1254699379 0.0180845466 -0.0008471906
0.1264605522 0.0180513132 -0.0005660728
0.1272151470 0.0180248022 -0.0003396198
0.0654564053 0.0183083471 0.0005880669
0.0662110746 0.0183223747 0.0004568771
0.0699221641 0.0183798745 -0.0000741184
0.0704974383 0.0183605514 0.0001632646
0.0711157098 0.0183637217 0.0001445264
0.0732278749 0.0184076093 -0.0003031790
0.0753426850 0.0181520171 0.0004881173
0.0763709918 0.0183231812 0.0007192567
0.0772110447 0.0183418095 0.0005193427
0.0805155635 0.0183885787 0.0000195876
0.0814209953 0.0183752719 0.0001757666
0.0821344182 0.0183782242 0.0001445264
0.0985173509 0.0161738358 -0.0008758307
0.1083898172 0.0163671821 -0.0008612275
0.0787168890 0.0147219691 -0.0015890226
0.0833616704 0.0173783805 -0.0000416487
0.0924740881 0.0184310377 -0.0005551353
0.0945146978 0.0184119474 -0.0003864691
0.0747800097 0.0130369430 0.0010269210
0.1192816868 0.0138705550 0.0018780828
0.1055044010 0.0151888588 0.0000195801
0.1073602363 0.0184010528 -0.0007800385
0.1248558164 0.0164551511 -0.0010611489
0.0672356188 0.0184964724 -0.0014953241
0.0687822774 0.0185134877 -0.0016358793
0.0681973994 0.0184306502 -0.0007092357
0.0696649700 0.0184038151 -0.0003552362
0.0716514066 0.0184347834 -0.0006519705
0.1173923165 0.0181466192 -0.0008612424
0.0724139512 0.0184066407 -0.0003115088
0.1185130030 0.0184406154 -0.0019690543
0.0743319094 0.0181763768 0.0006052554
0.1202571169 0.0183624998 -0.0012089908
0.0778141320 0.0184275154 -0.0004489422
0.0782514215 0.0184595175 -0.0008081421
0.0795268789 0.0184192173 -0.0003364906
0.0826574638 0.0184071288 -0.0001834407
0.0830622315 0.0184057839 -0.0001678243
0.0875193924 0.0184313320 -0.0004801825
0.0884234831 0.0184644870 -0.0008674935
0.0894364715 0.0184451826 -0.0006613433
0.0902535468 0.0184199233 -0.0003864691
0.0914489999 0.0184564739 -0.0008237585
0.0934961885 0.0184174776 -0.0004239529
0.0986953899 0.0184718929 -0.0011985824
0.0994613767 0.0184317585 -0.0007691011
0.1004158035 0.0184054002 -0.0005051568
0.1014407873 0.0184012242 -0.0004989207
0.1050410569 0.0183866583 -0.0004957989
0.1093977764 0.0184046924 -0.0009362027
0.1104718670 0.0183865614 -0.0007925332
0.1114893034 0.0183898211 -0.0008924901
0.1144712567 0.0183580257 -0.0007238165
0.1154374778 0.0183472615 -0.0006675869
0.1163903996 0.0183413103 -0.0006675869
0.1207322106 0.0183473751 -0.0010736436
0.1214095429 0.0183343496 -0.0009799376
0.1224907637 0.0183252878 -0.0009674504
0.1254868954 0.0182875134 -0.0008003414
0.1264811307 0.0182544198 -0.0005114079
0.1272652894 0.0182222631 -0.0002146736
0.0654502288 0.0185113624 0.0006193072
0.0662084222 0.0185263660 0.0004724935
0.0699117482 0.0185783282 -0.0000116453
0.0704957396 0.0185637400 0.0001757592
0.0711212605 0.0185705684 0.0001132935
0.1174798906 0.0144363176 0.0001410469
0.1184415072 0.0142898047 0.0003069490
0.0753726065 0.0185465701 0.0004881173
0.0763726532 0.0185292400 0.0007067621
0.0772123188 0.0185472295 0.0005089343
0.0805144757 0.0185903274 0.0000383258
0.0814193040 0.0185762532 0.0002069995
0.0821339190 0.0185809135 0.0001549423
0.1187477112 0.0135578383 0.0043612793
0.0886139944 0.0156379789 -0.0017035529
0.0826588646 0.0186126977 -0.0002146736
0.0835314170 0.0182644241 0.0000171736
0.1288417876 0.0181976873 0.0011440516
0.0934940502 0.0186222903 -0.0004489422
0.1144096404 0.0166048370 -0.0006129146
0.0782160684 0.0166823547 -0.0015546679
0.0672394484 0.0186989699 -0.0015109405
0.0687828511 0.0187141746 -0.0016358793
0.0681918636 0.0186306424 -0.0006780028
0.0696766898 0.0186124481 -0.0004177094
0.0716492981 0.0186358988 -0.0006363541
0.1173199713 0.0185475126 -0.0007456765
0.0724087358 0.0186065249 -0.0002740324
0.0732253045 0.0186088756 -0.0002823621
0.0743307173 0.0185336675 0.0006193146
0.1201685816 0.0185633264 -0.0011517331
0.1209386513 0.0179376379 -0.0011048838
0.0778128952 0.0186286494 -0.0004333183
0.0782501996 0.0186598785 -0.0007925257
0.0795270056 0.0186218545 -0.0003364906
0.0830634832 0.0186113827 -0.0001990572
0.0875196233 0.0186275952 -0.0004098937
0.0884219930 0.0186724253 -0.0009424612
0.0894361809 0.0186471529 -0.0006613433
0.0904543921 0.0186254233 -0.0004239604
0.0914495587 0.0186565816 -0.0008050203
0.0924758241 0.0186301544 -0.0005176589
0.0945108309 0.0186185203 -0.0004302040
0.0986998528 0.0186697841 -0.0011569411
0.0994617268 0.0186335333 -0.0007612929
