# .PCD v0.7 - Point Cloud Data file format
VERSION 0.7
FIELDS x y z
SIZE 4 4 4
TYPE F F F
COUNT 1 1 1
WIDTH 1379
HEIGHT 1
VIEWPOINT 0 0 0 1 0 0 0
POINTS 1379
DATA ascii
0.14209157 0.010995612 0.043780126
0.13672015 0.006749386 0.083167739
0.13850689 0.011017917 0.043951921
0.13930376 0.011007385 0.043967538
0.14734462 0.010193584 0.049129166
0.14819641 0.010293132 0.049574263
0.15146658 0.0094097909 0.044462122
0.15242958 0.0094011519 0.044404857
0.14810011 0.011129957 0.044685952
0.13850346 0.011321896 0.043951921
0.13930026 0.011311597 0.043967538
0.14041223 0.011147069 0.043967538
0.14143869 0.01111518 0.044154949
0.14343554 0.011113433 0.043951921
0.14442728 0.011076666 0.045623012
0.14735445 0.010664748 0.049168207
0.14793983 0.010635942 0.049371235
0.14011197 0.011818154 0.036408626
0.13577513 0.0098837186 0.057648562
0.15507793 0.0096675623 0.044404842
0.13526425 0.0097107645 0.059304036
0.13513106 0.0096382182 0.059991203
0.14204621 0.011699526 0.042874314
0.13559249 0.010105295 0.058710568
0.1359594 0.010151315 0.05824203
0.13849443 0.01162751 0.043936305
0.13928913 0.011618006 0.043946706
0.14040393 0.011604594 0.043959729
0.14141518 0.011577944 0.0441081
0.14343607 0.011569547 0.043967538
0.14449894 0.011365165 0.045810424
0.14753254 0.010975737 0.049204655
0.14183016 0.010466997 0.043092959
0.14210716 0.010732258 0.043405302
0.14305691 0.010374295 0.043780126
0.13849114 0.011931339 0.043936305
0.13912359 0.011924813 0.043936305
0.14814487 0.0098896623 0.044748418
0.15057203 0.0095538404 0.044672079
0.14751993 0.011295019 0.049183838
0.13605891 0.0066385604 0.080762632
0.1439781 0.01089499 0.04449854
0.14756224 0.010842539 0.044561006
0.15438503 0.0096854959 0.044347577
0.1356121 0.0038211457 0.079044692
0.13549475 0.010299711 0.0600693
0.13619171 0.010292184 0.060084917
0.14205495 0.011998743 0.042905547
0.13848794 0.012235109 0.043936305
0.13943703 0.012225505 0.043936305
0.14054699 0.012214038 0.043936305
0.14140822 0.012187729 0.0441081
0.14217494 0.012187328 0.044030018
0.14243954 0.012034255 0.045529298
0.14409196 0.012006805 0.045623012
0.14748584 0.011619595 0.049110942
0.14312124 0.01218011 0.04399877
0.14811788 0.010818312 0.044717185
0.1371952 0.0068668462 0.085619695
0.14224209 0.011507563 0.043530233
0.14300844 0.011754596 0.043702044
0.13553208 0.009793805 0.058507539
0.150545 0.010484118 0.044644304
0.14764649 0.011934979 0.049105741
0.14244992 0.010649312 0.045513682
0.13525006 0.010216454 0.059272803
0.13975704 0.011918185 0.043936305
0.14055035 0.011909752 0.043936305
0.14141166 0.011882866 0.0441081
0.14350748 0.011854725 0.044154949
0.14768326 0.011517717 0.044561006
0.14820954 0.011601724 0.044576623
0.13744588 0.010901656 0.064114265
0.13918126 0.010464119 0.06848719
0.1476168 0.012257956 0.049043275
0.14216658 0.012422033 0.043202288
0.15434948 0.010464918 0.044300728
0.15503943 0.010448506 0.044352777
0.14704591 0.012280629 0.048871465
0.15050173 0.011417617 0.044578381
0.15140899 0.011423269 0.044404842
0.15237488 0.011414948 0.044356249
0.15335153 0.011404412 0.044325016
0.15437266 0.011384012 0.044380538
0.15514958 0.011348763 0.044613071
0.14245883 0.011414667 0.045560531
0.13724318 0.010623042 0.063458316
0.13833299 0.012690068 0.043957137
0.13943228 0.012681402 0.043936305
0.14054407 0.012669837 0.04394152
0.14140323 0.012644911 0.0441081
0.14214706 0.012498566 0.043967538
0.1434508 0.012591848 0.04443606
0.15338942 0.0098556634 0.044352777
0.14777017 0.012304557 0.044521965
0.14817029 0.01237792 0.044508956
0.14504074 0.011685339 0.047169156
0.15414336 0.012940655 0.044295512
0.14702593 0.012915636 0.048840232
0.15437132 0.012377539 0.044339247
0.13578488 0.011888282 0.061053209
0.13620359 0.011526381 0.061271854
0.1386224 0.013451205 0.043905072
0.14483254 0.012515015 0.046674602
0.13591364 0.012084053 0.06261497
0.1425335 0.012548575 0.045508467
0.14758669 0.013211727 0.048996411
0.13556828 0.011283204 0.060334794
0.13832375 0.013328431 0.043948807
0.1414074 0.013403595 0.044139333
0.14215291 0.013333026 0.044826515
0.14357056 0.013019923 0.044748433
0.15144035 0.010493202 0.044443034
0.15240362 0.010485044 0.044387482
0.15336931 0.010630548 0.044337146
0.14761776 0.013317486 0.04438401
0.15331346 0.012336244 0.044272967
0.13861957 0.013754683 0.043905072
0.15138012 0.012351898 0.044370137
0.15233909 0.012345633 0.044307657
0.13567111 0.010193704 0.043467782
0.13793042 0.007045351 0.087571912
0.13545911 0.006057417 0.079263337
0.13595638 0.01093032 0.06045974
0.1425834 0.013380121 0.045383535
0.13861683 0.01405811 0.043905072
0.13893281 0.014055393 0.043905072
0.13840944 0.011055667 0.066050835
0.13558556 0.0057088472 0.079013459
0.14710163 0.013625366 0.048840232
0.13545664 0.010427341 0.058835514
0.14054225 0.013428627 0.043957122
0.14808148 0.013453625 0.044521965
0.13957593 0.014198875 0.043936305
0.14741713 0.013939579 0.044311129
0.13942476 0.013440965 0.04393629
0.13706011 0.010340696 0.062864847
0.13758898 0.012733343 0.066925429
0.14807174 0.014390795 0.044334553
0.13760683 0.011653994 0.064364143
0.14718051 0.014491818 0.048850648
0.15043637 0.014505017 0.044519372
0.14052838 0.0143419 0.043943234
0.15047343 0.012346447 0.044543676
0.14801174 0.015320513 0.044217415
0.13629057 0.012125202 0.062130816
0.13801688 0.012214103 0.064832665
0.13819908 0.012855778 0.065426134
0.15043521 0.015273132 0.044534989
0.15237647 0.015253444 0.044262044
0.14805132 0.015100222 0.045060776
0.14841989 0.014968162 0.046685003
0.13817516 0.012923283 0.068830781
0.13828903 0.013037007 0.067440815
0.15044302 0.01342854 0.044506364
0.15437478 0.013541494 0.044449963
0.14715475 0.015441899 0.048808999
0.13948523 0.013214491 0.069517948
0.13831793 0.011431724 0.065769725
0.1544586 0.014535836 0.044154949
0.13955814 0.013233525 0.071516998
0.14691518 0.016558006 0.04865282
0.1473709 0.016386107 0.0488142
0.14877819 0.016722966 0.048340477
0.14764211 0.013631908 0.049006827
0.13571194 0.013648273 0.043686427
0.13708711 0.0124266 0.066456906
0.13763805 0.0125687 0.064770199
0.14760941 0.015614694 0.044420443
0.14798039 0.015784971 0.044154949
0.15464789 0.015604057 0.043686427
0.13822278 0.012752797 0.066644318
0.1468838 0.017349234 0.048590355
0.14747044 0.017331939 0.048803799
0.13674396 0.012403069 0.064754583
0.1384726 0.01312966 0.066300727
0.14770567 0.016056854 0.044654705
0.14794798 0.016401805 0.044092484
0.13857678 0.012714844 0.071329601
0.1381118 0.013181246 0.089852087
0.15448706 0.016315695 0.043642692
0.14668062 0.018321376 0.048111416
0.14732786 0.018454362 0.048477121
0.13818763 0.014421913 0.043948807
0.15423942 0.016426481 0.044061251
0.13860713 0.014514515 0.043889455
0.14687386 0.017646387 0.043873839
0.14760815 0.017221428 0.044071667
0.1549703 0.01431752 0.044326745
0.1392341 0.012995457 0.072266646
0.14056471 0.013431329 0.073547296
0.15437865 0.017482929 0.044373609
0.1468717 0.019394372 0.048590355
0.15228926 0.014507094 0.044259079
0.13574629 0.016204461 0.043842606
0.1486966 0.013977324 0.047309704
0.15339033 0.014504587 0.044144534
0.15502167 0.017238289 0.04449854
0.14728884 0.019539349 0.048798583
0.13859338 0.015516407 0.043873824
0.15229031 0.015735732 0.044290312
0.14682227 0.018415416 0.043764509
0.15341279 0.015422712 0.044214301
0.15432711 0.015458594 0.044199578
0.15492353 0.015096162 0.044248663
0.14917943 0.014348302 0.048449792
0.15444472 0.018485431 0.044355385
0.1471079 0.020419676 0.048852719
0.1352731 0.01777453 0.042952396
0.13795699 0.020573251 0.043936305
0.15230837 0.016347265 0.044342376
0.15339738 0.016347397 0.044201799
0.14682335 0.019328712 0.043780126
0.13601823 0.019003222 0.067800008
0.13552217 0.018507566 0.043233521
0.15134072 0.014510268 0.044342376
0.13384062 0.020172574 0.057086341
0.15431383 0.019441275 0.043748893
0.14699289 0.021111123 0.048902713
0.13803884 0.021404559 0.043951921
0.13860777 0.021291904 0.043889455
0.13553073 0.019491952 0.043571882
0.14049852 0.020411491 0.043967538
0.13890703 0.013178077 0.070017718
0.15230727 0.017422955 0.0443606
0.15331256 0.017384473 0.044284724
0.14762944 0.020380011 0.044040419
0.14794742 0.020679094 0.044154949
0.14899373 0.016425937 0.048059352
0.13367587 0.015803896 0.041406251
0.13398317 0.015801828 0.041406251
0.13360319 0.020737318 0.05668027
0.13856505 0.022349963 0.044020392
0.1475445 0.017573861 0.043741085
0.13372418 0.021173198 0.056711517
0.13539588 0.020457152 0.043342836
0.15136451 0.016348893 0.04443609
0.14441712 0.01530009 0.046287887
0.14743674 0.018415961 0.043691613
0.15242928 0.018503031 0.044286154
0.15335375 0.018452205 0.044297732
0.14767078 0.021384254 0.044120587
0.13296138 0.022462226 0.057554863
0.1336834 0.016246758 0.041437484
0.13398978 0.016393257 0.041437484
0.14698738 0.02347371 0.048902713
0.15134811 0.017426468 0.044420473
0.14049539 0.021321312 0.043967538
0.1513585 0.018538993 0.044317387
0.13526067 0.021371208 0.043049239
0.14774911 0.014473089 0.049017243
0.13861787 0.023444192 0.044036947
0.15143061 0.019431582 0.044272102
0.15256393 0.019427039 0.04423479
0.15344043 0.019423828 0.044195108
0.1535866 0.019775586 0.043264754
0.15427516 0.019179603 0.044357978
0.1337842 0.017412223 0.041757651
0.13410367 0.017428186 0.041489549
0.1384691 0.024352344 0.044063829
0.13386114 0.021626268 0.062927313
0.13583995 0.014931195 0.081574745
0.13296975 0.023450563 0.057586096
0.13525999 0.022319362 0.04311379
0.1377245 0.024501868 0.044186182
0.13513646 0.023471598 0.043061726
0.13872692 0.025868114 0.043905072
0.13385123 0.022138597 0.06289608
0.13310131 0.022118108 0.058023386
0.15243506 0.020321935 0.044225939
0.15368128 0.020178724 0.043353252
0.15412329 0.020641815 0.044404842
0.13339256 0.02476499 0.057867222
0.1338273 0.018741524 0.041906022
0.13400616 0.018465944 0.041520782
0.13259777 0.023478348 0.056336693
0.14238179 0.013115791 0.079950519
0.15134479 0.020381927 0.044311143
0.14450166 0.018455315 0.045977019
0.14450994 0.014386119 0.046630345
0.14728893 0.023448676 0.043394886
0.13515015 0.024370978 0.04310336
0.14445207 0.0193578 0.046444051
0.13389117 0.023498874 0.063036643
0.15141465 0.021427348 0.044258438
0.1525434 0.021424985 0.04421223
0.14691682 0.024514131 0.043280371
0.14725488 0.024240047 0.043317847
0.15411617 0.021412227 0.044397019
0.15033871 0.024339672 0.044429146
0.14448893 0.013500358 0.046556152
0.13287655 0.02156131 0.05502481
0.13324735 0.021543026 0.055514164
0.13402216 0.019204903 0.041578047
0.13632914 0.014427443 0.083355151
0.13386777 0.02352578 0.061771609
0.14245297 0.022514112 0.044508956
0.14438595 0.02038205 0.046360172
0.14356194 0.01660639 0.046029069
0.14686668 0.026621848 0.049418084
0.13335347 0.024262093 0.058304511
0.15243825 0.022526795 0.044251509
0.14505517 0.021643009 0.047387801
0.14690684 0.025424721 0.043256946
0.15412101 0.022489529 0.044415243
0.15036038 0.025412958 0.044477738
0.13369516 0.017607624 0.043342836
0.14140415 0.01440815 0.044096939
0.14222358 0.014116393 0.044615664
0.13306373 0.026746422 0.057898454
0.14299434 0.013585127 0.045341887
0.13386436 0.021702699 0.060584672
0.13769302 0.027228309 0.044092484
0.14200464 0.023121972 0.044592239
0.14232858 0.025473652 0.044605635
0.14734818 0.025525836 0.043285571
0.13304399 0.02254948 0.054483406
0.14441824 0.021310898 0.046612121
0.14341243 0.02546614 0.045377575
0.1413582 0.015450176 0.044119261
0.14234716 0.015511156 0.04435017
0.13296244 0.027406042 0.057554863
0.14257033 0.014480112 0.04510241
0.14312547 0.014630243 0.045701094
0.14768638 0.019529896 0.048954777
0.14808775 0.019835765 0.049121358
0.15127699 0.023420222 0.044328488
0.15239969 0.023419842 0.044269495
0.15339097 0.023418071 0.04427468
0.14688227 0.026486848 0.043197058
0.15412873 0.023412921 0.04443609
0.13536444 0.02767575 0.04371766
0.13227805 0.023849601 0.054150216
0.14453138 0.022747271 0.046903647
0.14030915 0.026778368 0.043905072
0.14429533 0.016479202 0.046165369
0.13399684 0.02455226 0.061037593
0.14058661 0.027486082 0.043936305
0.15129483 0.024340108 0.044370122
0.15242028 0.024340305 0.044316344
0.15340935 0.024339586 0.044316329
0.14684843 0.027396476 0.043113776
0.1473165 0.027458327 0.043155424
0.15413244 0.024336727 0.044446491
0.13749355 0.0070619136 0.087446965
0.15040061 0.027408144 0.044561021
0.14238589 0.01641291 0.044534989
0.13271853 0.024819411 0.053962819
0.14252126 0.015459436 0.044998296
0.13533327 0.028127505 0.043623962
0.13359721 0.02640171 0.062031917
0.14383315 0.019077979 0.045935355
0.14315589 0.019260487 0.045451216
0.13286072 0.027733866 0.057211272
0.14031349 0.028596621 0.043905072
0.15132116 0.025413902 0.044428281
0.1523415 0.025379246 0.044392832
0.15330771 0.025457056 0.04438781
0.15417552 0.025413858 0.044537596
0.14728628 0.028356787 0.043004461
0.14207089 0.017319981 0.044701569
0.14427434 0.017484207 0.046103261
0.13280633 0.025382936 0.053978436
0.14250892 0.016226858 0.044982679
0.14348774 0.016619783 0.045841657
0.1445547 0.024402965 0.046830766
0.13948794 0.024267446 0.043949701
0.14242215 0.028438054 0.04428684
0.14230466 0.029517058 0.044113301
0.15135737 0.026488449 0.044505499
0.15234557 0.026489887 0.044508971
0.15332738 0.02649142 0.044491611
0.14709967 0.029213944 0.04293678
0.1343894 0.019068006 0.059444584
0.14243472 0.018458147 0.044596709
0.13375814 0.026742008 0.0613968
0.13257273 0.026429465 0.054025285
0.13300879 0.026428815 0.054368861
0.14809786 0.014475861 0.04515449
0.14261596 0.017482962 0.045279406
0.14342004 0.017555267 0.045685478
0.13751258 0.031285066 0.044318937
0.13921182 0.025262687 0.043936305
0.14677872 0.029212672 0.04293678
0.13957189 0.014654349 0.043936305
0.13593717 0.028904866 0.045373119
0.14410469 0.025549464 0.045841657
0.13717827 0.012551869 0.063676961
0.14444026 0.025369409 0.04621648
0.13481244 0.03036637 0.056930162
0.14385538 0.024930991 0.046029069
0.13522696 0.018110428 0.042374544
0.14218062 0.019251259 0.044738017
0.13359502 0.027418155 0.061625861
0.13481493 0.031024123 0.056930162
0.14529569 0.032408241 0.04793442
0.14344968 0.018495791 0.045367919
0.14410225 0.018468196 0.045789592
0.15340354 0.020349624 0.044128172
0.14207852 0.030120533 0.043936305
0.15137661 0.027410422 0.044543676
0.15236673 0.027412789 0.044550605
0.15334886 0.02741514 0.04453326
0.138147 0.014969159 0.043936305
0.13972762 0.014956673 0.043936305
0.14261958 0.019500272 0.045318462
0.143236 0.015685212 0.044644304
0.14445937 0.026160639 0.046726666
0.13402049 0.020430747 0.058804266
0.15037118 0.030477773 0.044467323
0.14746234 0.029313719 0.049631529
0.1341884 0.028758356 0.046294563
0.134069 0.035213768 0.076452173
0.14466193 0.026624486 0.047231622
0.14268857 0.020199835 0.045092024
0.13376731 0.028431479 0.061417632
0.1533003 0.030492324 0.04440137
0.13407099 0.035583489 0.076452173
0.15137152 0.028332416 0.044526316
0.14227873 0.031491026 0.04402221
0.13326176 0.03493645 0.063177206
0.15235993 0.028335711 0.044529788
0.15334034 0.028338829 0.044508971
0.14759192 0.012737248 0.048996411
0.14806274 0.016618811 0.045373134
0.14530358 0.0335037 0.04793442
0.13273594 0.031175807 0.056758367
0.13337636 0.027580781 0.060100533
0.14490956 0.027712394 0.047028594
0.14457005 0.027400389 0.046794333
0.15338828 0.021420203 0.044256456
0.15412477 0.028419349 0.044592239
0.13954213 0.016478332 0.043894656
0.13954051 0.013277421 0.073266171
0.13858119 0.016487248 0.043859951
0.15038152 0.031399552 0.044477738
0.13376547 0.029402567 0.045164891
0.14278296 0.021582946 0.04493583
0.1438489 0.021232933 0.045997836
0.1334208 0.029443303 0.061410196
0.15422478 0.026492167 0.044639103
0.14231612 0.032401517 0.043967538
0.15135618 0.029407578 0.044482939
0.15233316 0.029411532 0.044462122
0.15331689 0.029415715 0.044449113
0.15423062 0.029422687 0.044631295
0.15040055 0.032322373 0.044505499
0.14760675 0.01722456 0.045591779
0.14798132 0.016956922 0.04493583
0.14532694 0.034445137 0.047973461
0.14337605 0.020429771 0.045612596
0.14474298 0.02833686 0.047424249
0.13399309 0.017458536 0.043301187
0.14743125 0.025518656 0.049173422
0.13354681 0.022739261 0.059522681
0.13857399 0.017396243 0.043856479
0.14688669 0.027095903 0.049464934
0.14734903 0.034386035 0.049683578
0.14486863 0.023987306 0.04693488
0.13464381 0.016336674 0.077222638
0.13335244 0.030343164 0.061365567
0.15134045 0.030482296 0.04443609
0.14481041 0.029429484 0.047583021
0.1404833 0.03238716 0.043886833
0.13367024 0.024637401 0.045216955
0.13397454 0.024637867 0.045185722
0.14564021 0.035470698 0.048260145
0.1434771 0.021044284 0.045602195
0.13358009 0.029770827 0.060772084
0.13434634 0.019435201 0.0587418
0.14299738 0.033650704 0.044592239
0.1340303 0.018352617 0.043426119
0.13466261 0.017445352 0.077305935
0.14674895 0.030422125 0.042853497
0.15338823 0.022496019 0.044264279
0.14706975 0.03042376 0.042853497
0.14244629 0.033164475 0.044014402
0.13312168 0.03702984 0.063864373
0.1523172 0.03048718 0.044415258
0.14665557 0.033809423 0.044092484
0.15419075 0.030500297 0.044534989
0.13722041 0.013811283 0.086603619
0.14733557 0.032483146 0.04968705
0.13892882 0.014510555 0.043905072
0.14051859 0.015405452 0.04394149
0.13840123 0.029472189 0.044114329
0.13911065 0.02956336 0.04398004
0.14682877 0.033338074 0.043748893
0.13848068 0.018499251 0.043864898
0.13331494 0.031721245 0.061318703
0.1504423 0.015732627 0.044561006
0.14145142 0.016490627 0.044146024
0.13774751 0.012488407 0.065691628
0.13758445 0.032436229 0.044318072
0.13306957 0.037284333 0.062458806
0.14515093 0.029431289 0.047614254
0.14298834 0.02309755 0.045466833
0.13403729 0.036045808 0.06461402
0.15419726 0.033366095 0.044552095
0.1477274 0.015423835 0.04898601
0.14553487 0.036421865 0.048238955
0.14595233 0.036687836 0.04865282
0.13356382 0.030442555 0.060709618
0.14184722 0.033548027 0.042483874
0.13946737 0.015457833 0.043905057
0.13382494 0.033945255 0.063926853
0.13749316 0.033448648 0.044338904
0.1347561 0.01854161 0.077659927
0.13269489 0.024337647 0.053884722
0.15135099 0.031404749 0.044446506
0.13296616 0.037940402 0.062083967
0.14521766 0.030527174 0.047767825
0.14316472 0.016096255 0.044607855
0.15134877 0.013433826 0.04433196
0.15230474 0.013428695 0.044264294
0.13844939 0.019488331 0.043859623
0.1446262 0.023361851 0.047143124
0.13355702 0.027078409 0.059553914
0.13766074 0.037063617 0.043842606
0.13258706 0.025126975 0.055180989
0.14052416 0.034591209 0.043951921
0.1329895 0.03862527 0.062146433
0.15034528 0.019430697 0.044408314
0.14168383 0.034748908 0.042444833
0.14252286 0.034611955 0.042572372
0.14138456 0.017358964 0.044165365
0.13384739 0.035556488 0.065191872
0.13856293 0.020422947 0.043866895
0.1424844 0.024326218 0.045414768
0.13341697 0.032476351 0.061162539
0.13304099 0.036390282 0.058835514
0.15136875 0.032328129 0.044470794
0.14064406 0.035378277 0.04397101
0.1480979 0.028429007 0.049639858
0.13304131 0.039410084 0.063520797
0.13315235 0.039204776 0.062292211
0.14526048 0.031467356 0.047861524
0.13342977 0.025246661 0.059132241
0.13419627 0.021386623 0.063270919
0.13442825 0.037823774 0.04637266
0.15333354 0.035421211 0.044380538
0.13985735 0.013475742 0.070704885
0.14771338 0.01605726 0.048965178
0.1424911 0.023469437 0.045348145
0.14602065 0.03717155 0.048808999
0.13729233 0.037989721 0.0441081
0.13768125 0.037976127 0.043873839
0.13302623 0.039748453 0.063458316
0.15235078 0.032334968 0.044460379
0.13985163 0.020718314 0.043936305
0.13454103 0.036460169 0.057039477
0.15459141 0.035465311 0.04493583
0.15041232 0.017426677 0.044527195
0.14735451 0.037386507 0.049714826
0.14155182 0.035202432 0.04249949
0.14050479 0.018440038 0.043959714
0.14150748 0.01846434 0.044163458
0.13364506 0.036588222 0.065082557
0.13270348 0.03348992 0.061271854
0.13373515 0.033590183 0.061537363
0.13376674 0.033375505 0.062536873
0.13453607 0.037282109 0.057003044
0.13393274 0.023012685 0.061990269
0.13254759 0.023494452 0.053806655
0.13377583 0.0276809 0.045529298
0.13409115 0.027681535 0.045529298
0.14553636 0.038083646 0.048402943
0.14603142 0.038118508 0.048808999
0.14649712 0.038478456 0.049332194
0.14725477 0.038518731 0.049756475
0.14818078 0.024093933 0.049371235
0.13514623 0.017349845 0.042577572
0.14070019 0.036492378 0.043951921
0.15138681 0.033405766 0.044490747
0.15237162 0.033413805 0.044485547
0.14528315 0.032407075 0.047903173
0.14684671 0.036539547 0.04371766
0.15134028 0.015431603 0.044363208
0.13422859 0.022407953 0.063385434
0.13404423 0.022323914 0.062365092
0.13582589 0.014221758 0.044030018
0.1467607 0.029666029 0.04288993
0.14760944 0.02055411 0.048980795
0.14139868 0.019484062 0.044233032
0.1347746 0.020397436 0.077743225
0.14804606 0.029236652 0.049628921
0.13345642 0.034467146 0.061310895
0.14499532 0.026624955 0.047247238
0.13247401 0.036019187 0.042374544
0.13354272 0.032122057 0.06061592
0.14740959 0.021460518 0.049008124
0.13457124 0.021514453 0.077701576
0.133782 0.028138403 0.045544915
0.13409737 0.028139139 0.045544915
0.14272045 0.025250496 0.045060761
0.13253024 0.033128858 0.060678385
0.15032615 0.022499878 0.044394441
0.15473844 0.013131867 0.043811359
0.15419687 0.031425744 0.044534989
0.14798729 0.030425876 0.04967577
0.15136734 0.03447967 0.044425674
0.15234786 0.034488287 0.044411801
0.15044904 0.01634592 0.044588782
0.14707793 0.037441775 0.043478183
0.1339694 0.022980735 0.063302137
0.1343592 0.039188422 0.046122767
0.14472833 0.022429716 0.047122292
0.13292986 0.03313788 0.060865797
0.13332362 0.023608569 0.043686412
0.134087 0.033639345 0.064832665
0.13407519 0.024191223 0.062474407
0.15332991 0.034496915 0.044394426
0.14388239 0.027088854 0.046091534
0.13374561 0.035521407 0.061240621
0.14737785 0.036404956 0.049605496
0.15416887 0.037339643 0.044462092
0.14737654 0.022366408 0.049034603
0.14051594 0.037396539 0.043859951
0.13282184 0.030526504 0.057055093
0.14037508 0.034459725 0.037173875
0.13410552 0.02920701 0.045560531
0.13589625 0.029512744 0.045248188
0.14667182 0.040397789 0.049496181
0.14726278 0.040424515 0.049714826
0.13836294 0.033445012 0.044123717
0.13941889 0.033446137 0.043985747
0.13231573 0.028037943 0.053712942
0.1330304 0.02804428 0.054431342
0.15135172 0.035399809 0.044370122
0.15232727 0.035408627 0.044345833
0.14668058 0.038145438 0.044810899
0.14639607 0.038310699 0.042983629
0.13369189 0.024348414 0.063255288
0.15418701 0.035437204 0.044504799
0.14656799 0.0375285 0.049329586
0.13524061 0.026471291 0.043363668
0.13963772 0.012789768 0.074796699
0.14748558 0.023266459 0.049072258
0.14143787 0.021349592 0.044147141
0.13460031 0.020734936 0.04754398
0.13943736 0.034358297 0.04401698
0.14392187 0.028014861 0.046185248
0.13333316 0.03665518 0.061386399
0.14620364 0.035359986 0.041859157
0.14137393 0.037933648 0.0427806
0.1394853 0.020380083 0.043905072
0.13412118 0.024690304 0.063224055
0.13305193 0.0312667 0.060131766
0.14367217 0.027549157 0.045560531
0.14700657 0.04135301 0.049464948
0.14151686 0.039405081 0.042291246
0.13948199 0.021364518 0.043905072
0.13418546 0.025386212 0.046302371
0.13402948 0.035527367 0.064598404
0.13837595 0.034356523 0.044141062
0.15597898 0.042185105 0.048356093
0.15323585 0.019862715 0.041499965
0.15132284 0.036317606 0.044283368
0.15230125 0.036327656 0.044266023
0.15334469 0.036346737 0.044380538
0.15037283 0.018506734 0.044456907
0.13390483 0.025374692 0.063083492
0.15422106 0.036363397 0.044482939
0.13448811 0.040606111 0.046466358
0.15393411 0.039731398 0.044123717
0.13275531 0.034500245 0.041859157
0.13226549 0.041762151 0.07098601
0.14808565 0.020309567 0.049121358
0.13584965 0.030423878 0.045102425
0.14666846 0.041347265 0.049454533
0.13443618 0.043173976 0.056492858
0.13261531 0.021896292 0.054712452
0.1513823 0.037402645 0.044384025
0.13451116 0.021363711 0.047278471
0.15549186 0.042621475 0.048028119
0.14050628 0.039518349 0.043769695
0.13339089 0.037458494 0.06133879
0.13768029 0.036764733 0.043905072
0.15334694 0.039894942 0.042530723
0.14967144 0.042314548 0.044420458
0.14146285 0.022467731 0.044095613
0.13836221 0.035415802 0.044079445
0.13943659 0.035419721 0.043990947
0.14758737 0.036916696 0.044685952
0.13346773 0.043430302 0.062437974
0.14233708 0.021473857 0.044614114
0.13371907 0.018354071 0.043426119
0.1312793 0.044942513 0.067206539
0.14710283 0.042387515 0.049457125
0.1456418 0.036693927 0.041624896
0.14801431 0.033439863 0.049693994
0.14650545 0.03467457 0.049246289
0.14904515 0.039419897 0.048808999
0.13229991 0.04249027 0.071090125
0.13392709 0.01983076 0.057367451
0.13571998 0.031334817 0.045019142
0.14838189 0.016218629 0.046622537
0.13212964 0.030608093 0.053619228
0.1540262 0.034507297 0.044467308
0.13813838 0.026472155 0.044019602
0.153249 0.020163143 0.041531198
0.13336681 0.044200331 0.063270904
0.13303781 0.044587992 0.0621152
0.13463742 0.028393516 0.077935852
0.15338853 0.037431896 0.044443898
0.14724538 0.040591866 0.044529773
0.1332092 0.038426086 0.061709143
0.13830331 0.037374869 0.043866895
0.14049079 0.023443745 0.043967538
0.14713466 0.020242015 0.043764509
0.13833903 0.03632126 0.043993585
0.14614402 0.037330396 0.042041369
0.13346149 0.036500052 0.060647152
0.15149935 0.039423961 0.044578381
0.14566734 0.03744904 0.041663937
0.13421865 0.045124732 0.056258596
0.14042966 0.040464487 0.043839745
0.13227415 0.034126479 0.040406726
0.14665648 0.035305515 0.049194224
0.13449234 0.038588189 0.056826048
0.1327886 0.036854293 0.041437484
0.13235594 0.04340639 0.071267121
0.14815661 0.022672564 0.049308769
0.13548505 0.032092024 0.04493583
0.13385054 0.018291213 0.041968487
0.13320445 0.037837431 0.060522206
0.13181028 0.043346673 0.041031428
0.13421327 0.045450829 0.056227364
0.13226347 0.031039121 0.05369211
0.13839279 0.027441427 0.04402063
0.14949545 0.042769767 0.044373594
0.14986852 0.038787652 0.044623487
0.15143031 0.038487419 0.044456907
0.1413407 0.023439225 0.044113301
0.13464659 0.029324645 0.07796187
0.15242976 0.038502779 0.04448121
0.15344535 0.038491584 0.044735037
0.14746965 0.041799456 0.044248663
0.14661296 0.036307059 0.049199454
0.14133994 0.02435022 0.044113301
0.13184482 0.043655619 0.041125141
0.13348623 0.03952359 0.061240621
0.13416648 0.032455176 0.07685823
0.13369232 0.035396647 0.076452173
0.13178802 0.043930408 0.040937729
0.15234077 0.031411268 0.04445345
0.13421232 0.046040602 0.055649512
0.14950231 0.043386269 0.044363193
0.13470899 0.043451328 0.047028594
0.13425332 0.043293752 0.045654245
0.13253418 0.025464095 0.053900339
0.13236952 0.043949693 0.071298353
0.14816424 0.023304343 0.049329586
0.13549426 0.033614177 0.04493583
0.14319941 0.030457493 0.045154475
0.14142379 0.02541345 0.044083096
0.13367864 0.043454736 0.064379759
0.14606422 0.04363323 0.041624896
0.13460881 0.026346361 0.077842139
0.14971378 0.039402422 0.044623487
0.13313401 0.045957409 0.063614495
0.13333644 0.046683259 0.062458791
0.135745 0.02722591 0.044826515
0.15346596 0.039519921 0.044455595
0.14745778 0.042409368 0.044196598
0.13448437 0.035955556 0.056867681
0.13451535 0.04442054 0.047372185
0.15248063 0.039436724 0.044561021
0.1480801 0.034081668 0.049839757
0.13953082 0.018448748 0.043897249
0.13256568 0.040298395 0.061834089
0.1334717 0.040436961 0.061361648
0.13406007 0.033365861 0.076452188
0.13931367 0.042454258 0.043941967
0.13811406 0.038670599 0.043959729
0.13514358 0.044693429 0.048293628
0.14667478 0.041596271 0.045456432
0.13549845 0.034223296 0.04493583
0.14320257 0.031070538 0.045154475
0.13340414 0.029783119 0.043905072
0.13374297 0.043995023 0.064582787
0.15343866 0.040467512 0.044552095
0.1543581 0.040556133 0.044639088
0.14874291 0.043440439 0.044417344
0.13821146 0.028591318 0.043990962
0.13872279 0.027078571 0.043889455
0.13225865 0.035917707 0.04078155
0.13217601 0.026590623 0.05380664
0.14739142 0.024415517 0.049077116
0.13346733 0.041787907 0.075452648
0.13369466 0.036320321 0.076441772
0.14143111 0.026514245 0.044037826
0.13936099 0.043482024 0.043950178
0.13336776 0.047379654 0.062536873
0.152457 0.040356934 0.044477738
0.14750956 0.035337448 0.049647145
0.13867153 0.028423378 0.04388424
0.13284469 0.041635796 0.061552964
0.13338085 0.041326907 0.061417647
0.13406524 0.034474492 0.076452188
0.14294285 0.028001396 0.044529773
0.13363466 0.039207704 0.060772084
0.13368173 0.037425414 0.076368876
0.15145832 0.042494863 0.044373594
0.13821493 0.039510503 0.04399357
0.13519694 0.045181349 0.048434176
0.13364065 0.036379129 0.064457841
0.13415459 0.026459372 0.046206079
0.13839437 0.043462683 0.043905072
0.15351781 0.044450514 0.044545405
0.13232082 0.027394922 0.053733759
0.1333442 0.035280578 0.045060776
0.13472062 0.019659642 0.061115675
0.14727995 0.046333909 0.049223997
0.13353692 0.030396251 0.044300728
0.14147075 0.027387127 0.044033475
0.13836482 0.04446451 0.043905072
0.1331681 0.048559755 0.062396325
0.14226064 0.026475722 0.044429831
0.15249138 0.041443296 0.044511579
0.15335858 0.041439127 0.04454764
0.15398952 0.041658256 0.044873364
0.14871527 0.04399433 0.044404842
0.14663553 0.043555636 0.049287938
0.1503863 0.026486933 0.04453326
0.13312469 0.037740503 0.059085391
0.14123663 0.045290224 0.041874774
0.14025708 0.027182281 0.043905072
0.14571099 0.041286208 0.042395376
0.14550945 0.040599938 0.041562431
0.15148756 0.041423772 0.044480346
0.13566186 0.03249497 0.044831716
0.13342944 0.046670623 0.065238722
0.13413854 0.027225163 0.046154
0.14553155 0.041693829 0.0414479
0.13404804 0.04938814 0.056055568
0.14663778 0.039440356 0.049444102
0.145071 0.047510382 0.041343786
0.13237789 0.040675513 0.041000195
0.14753264 0.026464835 0.049416356
0.14614296 0.047767468 0.048699684
0.14696227 0.04720084 0.049105741
0.13311368 0.03111353 0.043007053
0.13171358 0.047286157 0.041499965
0.13405317 0.049718816 0.056055568
0.1330464 0.049523272 0.061927788
0.14236946 0.027389627 0.044295512
0.1524716 0.042518068 0.044425674
0.15343186 0.042512875 0.044711985
0.15401009 0.041972496 0.044904597
0.13449804 0.039576508 0.056815632
0.14496568 0.02336066 0.047174357
0.14311306 0.030566474 0.04332722
0.13787027 0.012554731 0.069018193
0.1455874 0.042382967 0.041302137
0.15397687 0.038714692 0.044951446
0.13834041 0.030411426 0.044109829
0.13933362 0.030473275 0.043973781
0.13634482 0.018427059 0.065301202
0.14653584 0.047338933 0.049006812
0.13360833 0.047439173 0.06438496
0.15148389 0.040344931 0.044512443
0.13441671 0.030438151 0.07780569
0.13412832 0.050248444 0.056274213
0.13285044 0.049593922 0.062458791
0.14785284 0.037748046 0.050011553
0.13406953 0.036321905 0.076431356
0.14351702 0.030135429 0.044342361
0.13260525 0.041737437 0.041187607
0.1475369 0.02737407 0.04952351
0.14640844 0.04841388 0.048425637
0.14144647 0.0204414 0.044190638
0.13345073 0.042290524 0.061226748
0.13748714 0.046497345 0.043880768
0.13154987 0.048171069 0.041421868
0.1341107 0.050815552 0.05674275
0.14598122 0.042708557 0.041468717
0.14147629 0.028449781 0.044040404
0.13577655 0.031635027 0.044873364
0.15344155 0.043494157 0.044691168
0.15395856 0.043817922 0.044717185
0.13453007 0.040243343 0.056898929
0.13834487 0.031321026 0.044109829
0.13940366 0.031322625 0.043980546
0.13279714 0.042297408 0.061365567
0.14545648 0.043416306 0.041400008
0.14730318 0.026411369 0.043241329
0.15053535 0.040337887 0.044595726
0.1473684 0.022531446 0.043575354
0.1343914 0.031365987 0.077701576
0.15535039 0.049961582 0.048090585
0.13401344 0.051179826 0.056961395
0.14593118 0.043680295 0.042062186
0.14141566 0.046248637 0.043795742
0.1405151 0.028415669 0.04393629
0.14820872 0.038868893 0.050027169
0.13405532 0.037242249 0.07635846
0.134286 0.051150855 0.05674275
0.14043435 0.030502632 0.043905072
0.15051779 0.041411448 0.044516779
0.14047818 0.025414625 0.04393629
0.15530023 0.050261915 0.047965653
0.15317777 0.039980393 0.043561481
0.14678256 0.028455745 0.042952396
0.1342366 0.043654088 0.05637572
0.13395835 0.038324334 0.04493583
0.13572489 0.018760171 0.065613545
0.14629582 0.049502622 0.048574738
0.13431074 0.051493555 0.056805216
0.13759515 0.047373354 0.043887235
0.13332403 0.038603 0.06061592
0.13942863 0.046393503 0.044001363
0.14613993 0.046971101 0.043936305
0.15396512 0.044129111 0.044717185
0.1344583 0.041702382 0.056617804
0.15040022 0.028329484 0.044554077
0.13421203 0.04446587 0.056263797
0.1321695 0.042777102 0.04121884
0.14745031 0.028363414 0.049610697
0.14560919 0.044435963 0.041453101
0.13199088 0.044735461 0.068518423
0.1372156 0.047572348 0.043951921
0.13186006 0.036485486 0.040479608
0.14049377 0.029507453 0.04395365
0.14146519 0.029511971 0.044002242
0.14582522 0.047473129 0.043155424
0.14796311 0.03983815 0.050214581
0.13985634 0.032383975 0.043905072
0.13550158 0.035339192 0.044735946
0.15039021 0.029404012 0.04452198
0.13334677 0.049321424 0.064207964
0.13439338 0.031923953 0.077701576
0.14040519 0.046418466 0.044061236
0.13934466 0.032383919 0.043987609
0.13287774 0.045543261 0.061521746
0.14633712 0.050537899 0.048795603
0.15154208 0.046523206 0.044373594
0.1333563 0.049161367 0.063021012
0.13444157 0.042518586 0.056534521
0.14470267 0.021646256 0.047325321
0.13310187 0.045328736 0.061105259
0.13421756 0.045780726 0.056227364
0.13238601 0.043746725 0.041843541
0.14740622 0.033586826 0.045872889
0.1340967 0.039730832 0.045310654
0.14181188 0.048507787 0.043467782
0.14128931 0.030117417 0.043951921
0.1356945 0.033382643 0.044834323
0.15354392 0.045335673 0.044470794
0.13361944 0.050479271 0.048277996
0.14723273 0.039466143 0.049673162
0.13534686 0.047140747 0.060412891
0.14119941 0.046417788 0.044114791
0.14711535 0.021766149 0.043733276
0.13314724 0.046183206 0.061625861
0.13289995 0.037322819 0.063083492
0.13526978 0.039447054 0.04465472
0.14592144 0.046061151 0.049058877
0.13835314 0.032382697 0.044115894
0.13449569 0.024490234 0.077570386
0.14891863 0.050313286 0.044170566
0.1555863 0.041309338 0.047559597
0.14136977 0.047635585 0.04452353
0.13262451 0.024150964 0.055305921
0.1411301 0.051361173 0.043186657
0.14708158 0.029667439 0.04288993
0.13367499 0.038531393 0.076316826
0.15147927 0.043423958 0.044380538
0.14554015 0.04631386 0.042530723
0.13865663 0.039508045 0.043905072
0.14608246 0.048673615 0.04293678
0.13318223 0.034723677 0.062302612
0.14044254 0.047498811 0.044106357
0.13784173 0.02950665 0.044488125
0.13414456 0.046145633 0.056524105
0.13288033 0.028227905 0.057273753
0.1473176 0.030422585 0.049673162
0.13413277 0.040198557 0.045404367
0.14629932 0.05114644 0.048902713
0.15138915 0.0483592 0.044402026
0.14142205 0.033453334 0.043832175
0.15408832 0.046951793 0.044842131
0.15411311 0.043236304 0.045071192
0.14160737 0.03133291 0.043936305
0.13569915 0.034447644 0.044826515
0.14611168 0.049901217 0.04293678
0.15399206 0.046613403 0.04465472
0.14891356 0.049850047 0.044186182
0.13282564 0.051413592 0.057523616
0.14206591 0.034027457 0.043030478
0.14303096 0.034724027 0.04465472
0.14704652 0.051828131 0.049058877
0.13166738 0.041671135 0.040656604
0.13366327 0.03945126 0.076249145
0.14184926 0.04913082 0.043530248
0.14041604 0.03125076 0.043936305
0.13753626 0.034359813 0.044330649
0.13373198 0.035581086 0.062375493
0.14595008 0.043987449 0.042093433
0.13505855 0.048361324 0.059413351
0.13287205 0.037302852 0.043561481
0.14640374 0.052457601 0.049083181
0.14568692 0.046213828 0.041742034
0.1556568 0.05102136 0.048684053
0.14011432 0.04196256 0.043905072
0.13217384 0.032349221 0.040136032
0.1496478 0.044191949 0.044361092
0.15051448 0.044334933 0.044387482
0.13845854 0.046522103 0.043943234
0.1336211 0.040361799 0.076066934
0.13529453 0.038400475 0.044627942
0.13381471 0.044861484 0.076639585
0.15148684 0.044350013 0.044356249
0.14573175 0.047637917 0.042155899
0.15442824 0.042307638 0.045071192
0.14607942 0.044088922 0.041640513
0.14126304 0.048437953 0.044118516
0.13225596 0.041282289 0.040812783
0.1354395 0.037405595 0.044685952
0.14343488 0.017372033 0.046130575
0.14731945 0.031531334 0.049662761
0.14709672 0.052483872 0.049142174
0.1389977 0.040579755 0.043936305
0.14637934 0.042360947 0.042421393
0.13939856 0.045318153 0.04397101
0.15403564 0.039189734 0.045060776
0.14825705 0.038817164 0.049340002
0.14201996 0.049560577 0.042312078
0.13503554 0.044360027 0.044175766
0.13496606 0.044161752 0.047778241
0.14235543 0.045701854 0.044186182
0.15048036 0.042479668 0.044390969
0.13437621 0.053437322 0.057468958
0.14605963 0.045436848 0.041531198
0.140352 0.044421159 0.044012658
0.13451846 0.035303835 0.056992628
0.13455018 0.051395871 0.043303795
0.14961365 0.045460641 0.044373609
0.14064823 0.030114328 0.043936305
0.14145669 0.030506045 0.043851517
0.13752633 0.049398452 0.043839984
0.14036888 0.045339845 0.04401613
0.14788617 0.038549304 0.050068818
0.14149605 0.049427535 0.042112164
0.14632334 0.046828747 0.042843081
0.13543113 0.036492154 0.044685952
0.14212498 0.038584724 0.043264754
0.13256772 0.049796324 0.044030018
0.14066425 0.05071751 0.041187607
0.13361602 0.043303605 0.061162539
0.13461731 0.027462617 0.077868171
0.13863096 0.047442202 0.043936305
0.13362283 0.041284375 0.076046117
0.14207643 0.035236709 0.043030478
0.13851282 0.050497688 0.043880768
0.14589258 0.050543107 0.043145008
0.14628978 0.050580636 0.043322019
0.13748154 0.035419155 0.044264279
0.13374053 0.052731372 0.048527889
0.13401413 0.052240968 0.048402943
0.15236968 0.037414931 0.044384025
0.149405 0.050546169 0.044306658
0.13283747 0.048066456 0.061271854
0.15330392 0.050358463 0.044753633
0.14299181 0.035176516 0.04454539
0.1322093 0.049390439 0.043420918
0.14051324 0.050436854 0.040406726
0.14842914 0.039436623 0.049555175
0.14908555 0.039809115 0.049683593
0.14200066 0.050457656 0.042210557
0.14185977 0.041681882 0.043905072
0.14238846 0.046065949 0.043436535
0.14195488 0.046583094 0.043936305
0.15048216 0.043403108 0.044356249
0.13849582 0.049425472 0.043894641
0.1466254 0.046651229 0.043186657
0.13352865 0.032877721 0.062927313
0.13456276 0.052585572 0.043642692
0.14241998 0.049116552 0.043358453
0.14138407 0.031330291 0.043887235
0.14767027 0.040447365 0.046310179
0.13343367 0.047365911 0.065223105
0.15032606 0.021426421 0.044386633
0.15151301 0.045435801 0.044363193
0.14703834 0.047272298 0.043748893
0.14708164 0.044362076 0.049324371
0.15394334 0.049176939 0.045123242
0.13843408 0.042204406 0.043940775
0.14933909 0.053129654 0.044206999
0.13963836 0.04195597 0.043905072
0.14038444 0.042470351 0.043950491
0.13967445 0.024657546 0.043905072
0.14048344 0.024353532 0.043950178
0.13326313 0.044259019 0.061404593
0.13516542 0.025420966 0.043147616
0.13851871 0.052934676 0.043748893
0.13170718 0.042422824 0.040750317
0.14229473 0.020434726 0.044660963
0.14886135 0.051981878 0.043936305
0.13337386 0.056906372 0.077264287
0.13357669 0.035424802 0.044595711
0.13443851 0.019367207 0.060178615
0.13857333 0.044078961 0.043936305
0.13473094 0.019474596 0.077576645
0.15031734 0.050532356 0.044356249
0.13323213 0.048431948 0.061417617
0.13315344 0.024070585 0.043171041
0.13247773 0.049176157 0.042655654
0.14046033 0.051431149 0.040073536
0.14122026 0.05120923 0.040437959
0.14909893 0.040288687 0.04969921
0.13301876 0.036009833 0.042155899
0.13283068 0.037648126 0.062833615
0.1334579 0.02314643 0.044092484
0.1535951 0.05331181 0.045013912
0.13968344 0.029503586 0.043905072
0.13687722 0.050137497 0.043748893
0.13754383 0.050469831 0.043828703
0.13458355 0.055551875 0.058023386
0.14790496 0.039348517 0.050089635
0.13326205 0.053581323 0.059470616
0.13843676 0.048390176 0.043897264
0.14087161 0.048105378 0.041874789
0.14003107 0.050013378 0.0387825
0.13353173 0.045299031 0.060798116
0.15056077 0.046503954 0.044387497
0.14509502 0.048570737 0.041343786
0.13944738 0.0474656 0.04399877
0.15447974 0.041387729 0.045216955
0.14796768 0.040476274 0.050204165
0.13746578 0.038601521 0.044134118
0.13733545 0.043461926 0.044035219
0.14727971 0.054472074 0.049464934
0.1405921 0.052362554 0.043985389
0.15030369 0.049448118 0.04438924
0.1414077 0.038499869 0.043479793
0.13515569 0.042293198 0.044305913
0.15322015 0.049503341 0.04480309
0.14750943 0.033288531 0.046122767
0.14072199 0.04142506 0.043936305
0.13321579 0.051775269 0.075515114
0.13755441 0.051386662 0.0438044
0.13852745 0.051417388 0.043866895
0.13477033 0.046762347 0.057429917
0.14200625 0.050589085 0.043030478
0.13302216 0.052167136 0.045310654
0.13937941 0.044399627 0.043960594
0.1345816 0.040587302 0.057055093
0.14743254 0.01948218 0.043696828
0.1459728 0.040603843 0.041531198
0.14784268 0.036496542 0.045295037
0.14799215 0.032803401 0.049652345
0.13890071 0.012565671 0.092725717
0.15384522 0.037513755 0.043311603
0.13923299 0.051500499 0.036627255
0.15032732 0.023419958 0.04440137
0.13945733 0.04838274 0.043977939
0.14043555 0.048410513 0.044040419
0.14145476 0.052905254 0.041468717
0.14593233 0.047602892 0.041874789
0.14163902 0.045089975 0.043467782
0.13331251 0.056192786 0.05889798
0.13459805 0.056060404 0.058039002
0.142138 0.031024791 0.043670811
0.14620347 0.049349189 0.042749368
0.14015007 0.052534081 0.043889455
0.1542024 0.047607183 0.045050375
0.13282475 0.049753182 0.061146908
0.13484016 0.048764646 0.058679335
0.15038106 0.05395209 0.044279896
0.139548 0.05141351 0.043944113
0.14139587 0.048411049 0.04223711
0.1470706 0.031332061 0.042843066
0.14168218 0.035267875 0.043644793
0.14050749 0.017378446 0.043950178
0.13454038 0.022446694 0.077592261
0.13940611 0.038446262 0.04382696
0.1534586 0.05414328 0.044842131
0.1335651 0.047338478 0.060824148
0.15346989 0.046369858 0.044545405
0.13430682 0.052726753 0.050308295
0.14624172 0.035816781 0.041937254
0.14116597 0.034673113 0.043967538
0.14573501 0.052739769 0.043405302
0.14627931 0.034423176 0.04218366
0.13344626 0.040407449 0.044425659
0.14169371 0.041858386 0.042655669
0.13415067 0.025146786 0.063125141
0.13778234 0.045432545 0.043873839
0.13863105 0.04566798 0.043936305
0.13253434 0.022551158 0.054446958
0.14708388 0.028607734 0.042905547
0.14516543 0.04934926 0.041468732
0.13755015 0.030455641 0.044293277
0.13176569 0.043034565 0.040906496
0.13728058 0.037380874 0.044092484
0.1374134 0.0364374 0.044158854
0.15402851 0.048638165 0.044623472
0.14888103 0.051374935 0.044019602
0.14046502 0.049337219 0.04406818
0.1329338 0.043647919 0.043530248
0.13323784 0.049281806 0.061396785
0.15321952 0.051293682 0.044462837
0.15041676 0.033399083 0.04452198
0.14246234 0.048525698 0.043499015
0.13279703 0.052107684 0.060928263
0.13234156 0.031632621 0.040656604
0.15435235 0.052753806 0.045779191
0.15221182 0.051264662 0.041520782
0.15328011 0.013419805 0.044233046
0.15330049 0.052405283 0.044498555
0.13273479 0.045452632 0.062240146
0.13776508 0.04436446 0.043873839
0.14296737 0.053633869 0.044482924
0.1332041 0.053103864 0.060186438
0.13851994 0.052326679 0.043790527
0.13949475 0.052358367 0.043849535
0.13340585 0.058419459 0.077295505
0.14118594 0.052440494 0.0441029
0.13509214 0.047705397 0.059553914
0.14080574 0.045979142 0.041812308
0.14147192 0.04600339 0.041906022
0.13504462 0.045425322 0.044154949
0.13461454 0.048993938 0.057929687
0.1343409 0.049197517 0.057023861
0.14732541 0.03343267 0.049645402
0.13354963 0.048344646 0.060725234
0.14062497 0.053266808 0.044045635
0.13417025 0.052336499 0.049902238
0.14619882 0.036737029 0.042187132
0.15247317 0.04541349 0.044365086
0.14950544 0.048409082 0.044423588
0.13524723 0.041344669 0.044456907
0.15040858 0.035395164 0.044460379
0.13355656 0.046321858 0.060839765
0.13402179 0.050523493 0.057023861
0.14112037 0.050656296 0.040750317
0.13320839 0.054603744 0.059110381
0.1524961 0.043449238 0.044439562
0.14302783 0.027392078 0.044748418
0.13968591 0.030109586 0.043905072
0.13328578 0.048775442 0.064020552
0.15368983 0.04104045 0.044967063
0.14019771 0.035573166 0.043905072
0.1470421 0.032086547 0.042764984
0.13765967 0.037517402 0.043826975
0.13338259 0.057471391 0.077264287
0.13203128 0.040659599 0.040875249
0.15403861 0.027416946 0.044592239
0.13463475 0.020009382 0.060834564
0.14633667 0.051515572 0.043377556
0.1393225 0.036276586 0.043946721
0.13348973 0.049411763 0.060722999
0.13158278 0.04627322 0.04066702
0.14110774 0.044630177 0.041843541
0.13950838 0.026474414 0.043880768
0.15035141 0.053322308 0.044255607
0.15423918 0.049378667 0.046466358
0.13442858 0.05438114 0.050589405
0.13955167 0.041421473 0.043905072
0.14740011 0.038738351 0.045727126
0.14160106 0.045747437 0.042249598
0.14947093 0.054272521 0.044180982
0.13772453 0.025259255 0.044186182
0.14132033 0.044414707 0.044151045
0.13284491 0.052112807 0.059501849
0.13831115 0.036770582 0.043905072
0.13952194 0.036680751 0.043905072
0.1494572 0.051421016 0.044212215
0.13305703 0.053809199 0.062958561
0.14207301 0.032397136 0.043889455
0.13948549 0.053420074 0.043756686
0.14014572 0.053446703 0.043819167
0.13342535 0.059365831 0.077311136
0.13202576 0.042283464 0.040797167
0.14139068 0.042401507 0.044037811
0.13352254 0.043449126 0.04438401
0.14050066 0.03417838 0.043898828
0.1512759 0.049312316 0.044363193
0.15231514 0.04935322 0.044467323
0.13406165 0.054144971 0.048434176
0.14646813 0.038056348 0.042280845
0.14148991 0.04628811 0.042343311
0.13670932 0.049522832 0.043754093
0.13308544 0.050335329 0.061219789
0.1344033 0.054282177 0.057507999
0.15365891 0.039176799 0.044967063
0.14127585 0.045412406 0.044123717
0.13751282 0.048329443 0.043859951
0.14116912 0.052171566 0.04078155
0.15053663 0.045418791 0.044386618
0.14544517 0.045457665 0.041488253
0.14091429 0.048422799 0.041968487
0.14967859 0.046443939 0.044409297
0.1375476 0.05244711 0.043720238
0.13918328 0.051745296 0.043905072
0.14726645 0.043350659 0.049511798
0.14142366 0.041382216 0.044024818
0.1539049 0.020401116 0.042905547
0.15421385 0.032352231 0.044555806
0.13409866 0.025720159 0.062552504
0.13841735 0.025347628 0.044045605
0.14972787 0.040328309 0.044623487
0.13302192 0.040332891 0.062208913
0.13943221 0.039513558 0.043863408
0.13357857 0.042155024 0.043655194
0.14119773 0.039504111 0.043504231
0.13419341 0.044865169 0.076639585
0.15355918 0.049462397 0.044998311
0.13407657 0.054650187 0.049464948
0.15031934 0.052383669 0.044245191
0.15133032 0.052419588 0.044293784
0.15235174 0.052458636 0.044356249
0.13837974 0.040424101 0.043981425
0.13253284 0.031187115 0.057211272
0.13364083 0.027080011 0.06217768
0.14151728 0.044710785 0.04371766
0.13216884 0.033375978 0.040102191
0.13320482 0.052543379 0.059335269
0.13452122 0.050323583 0.043280371
0.1322863 0.036430173 0.040481694
0.13450205 0.055004075 0.057789125
0.13357273 0.028616413 0.063130356
0.13311794 0.054635279 0.060694002
0.13404815 0.038717486 0.076295994
0.13851403 0.053540833 0.043696828
0.13944846 0.049414698 0.043976046
0.14650995 0.054387979 0.04932829
0.13358223 0.04262583 0.044279896
0.13396063 0.026232416 0.062083967
0.13962191 0.025465049 0.043905072
0.14646894 0.053438127 0.049183838
0.13317934 0.05110193 0.0587418
0.13177271 0.048947997 0.042561956
0.13944699 0.050486453 0.037244163
0.13439763 0.054201886 0.043608345
0.13645285 0.05423772 0.04344099
0.13319238 0.057118699 0.058429442
0.14937669 0.054841328 0.044175766
0.13248847 0.057399943 0.060444124
0.13243508 0.057279386 0.061178155
0.14135283 0.035438061 0.04402221
0.13321714 0.039660472 0.062302612
0.13454689 0.023374807 0.077618293
0.13162552 0.048504889 0.041640528
0.13913369 0.041281909 0.043936305
0.14421454 0.05532667 0.047559597
0.13868411 0.052723549 0.035908855
0.15034194 0.020351365 0.044411786
0.13167198 0.044748612 0.068674602
0.1405243 0.026388939 0.043936305
0.13740541 0.04233272 0.044011272
0.14117712 0.03710442 0.043936305
0.15242702 0.053417012 0.044456907
0.13828793 0.045291878 0.043905072
0.13326275 0.035815306 0.043842606
0.13296354 0.051985789 0.05796092
0.13216299 0.048549086 0.041874789
0.13885382 0.052085124 0.036392994
0.13175587 0.044509597 0.040812798
0.13340181 0.039513074 0.044639118
0.1461798 0.048278585 0.042730622
0.14128299 0.05126667 0.044149749
0.14021346 0.041309282 0.043891691
0.13274236 0.050644249 0.061420225
0.14633827 0.051637553 0.048970379
0.15040997 0.034473646 0.044484682
0.14642073 0.046386402 0.049043261
0.13327238 0.026247898 0.058601238
0.15140945 0.054306291 0.044342361
0.15245987 0.0543596 0.044463836
0.14674979 0.03133015 0.042843066
0.15231335 0.050434459 0.044399641
0.14649129 0.053552732 0.044394426
0.14928436 0.053717956 0.044192426
0.14528747 0.033032842 0.047903173
0.1394524 0.040352866 0.043889455
0.14421073 0.055638611 0.047528364
0.14724098 0.055497482 0.04953634
