# .PCD v0.7 - Point Cloud Data file format
VERSION 0.7
FIELDS x y z
SIZE 4 4 4
TYPE F F F
COUNT 1 1 1
WIDTH 1236
HEIGHT 1
VIEWPOINT 0 0 0 1 0 0 0
POINTS 1236
DATA ascii
-0.0023043901 0.017038206 -0.001442343
-0.0017382856 0.017058097 -0.0016037226
-0.00010664575 0.017097954 -0.0019004568
0.00035119988 0.017042767 -0.001331985
0.0026936978 0.017087743 -0.0016505793
0.0033875685 0.017082192 -0.0015620813
0.0047267564 0.017049853 -0.0011820495
0.005370127 0.017066289 -0.0013147965
0.0059947055 0.017122388 -0.0018379912
0.0095449295 0.017144222 -0.0019160733
0.010206193 0.017121473 -0.0016713962
0.018786043 0.014273545 -0.0011820495
0.012860687 0.017056152 -0.0019316971
0.013331696 0.017068103 -0.0016193464
0.014383402 0.017044205 -0.0016714036
0.015408458 0.01711667 -0.0014881566
0.016397193 0.017070193 -0.0016661882
0.019788841 0.017043281 -0.0020045862
0.020406518 0.017063793 -0.0019837543
-0.016643493 0.014449007 0.00070767105
-0.023688117 0.016653318 0.00045467913
0.029664069 0.017300026 -0.003243573
-0.045136906 0.011887413 0.0016915947
-0.043895356 0.015556304 0.00016106665
0.0089827776 0.016525403 -0.0026813373
0.0091122035 0.016304947 -0.0033685118
0.018105127 0.016544338 -0.0035168827
-0.025299614 0.016717017 -0.00040116906
-0.013654796 0.016252268 -1.5936792e-05
-0.0065971185 0.014758602 -0.00054172426
0.031359654 0.017146075 -0.0027375594
-0.012991915 0.016814496 -2.6345253e-05
-0.0038064718 0.016947255 -0.00064063072
-0.028760036 0.015203531 0.00016731024
-0.0024820771 0.017048251 -0.0025407895
-0.044665888 0.016245317 0.00087947398
0.0081919823 0.017322645 -0.0037121028
-0.0092051383 0.015468637 -0.00065729767
-0.018338731 0.01693389 -0.0017442852
0.0086819939 0.017373422 -0.004191041
0.01121885 0.017226122 -0.0033060461
0.017702283 0.017316516 -0.0033997521
-0.0082987305 0.014290234 4.1335821e-05
-0.0087047722 0.014473758 -0.00051270425
-0.04465922 0.011690052 0.0018204451
-0.0056992341 0.014849829 -0.00037773699
-0.0043048002 0.014830671 -0.00012005121
0.033262063 0.017206149 -0.0024002269
-0.045097247 0.016215071 0.0010981113
-0.04350847 0.016570112 3.6127865e-05
-0.041008689 0.01653862 0.00097317994
-0.034913495 0.016653275 0.00097317994
-0.034376577 0.016510492 0.00074204057
-0.0117072 0.017135005 -0.0010571107
-0.014173383 0.016781826 0.00019229949
-0.0065425131 0.017178755 -0.0010961518
-0.0059772413 0.017178854 -0.0010571107
-0.0054849554 0.017141327 -0.00064480305
-0.0045879092 0.017132431 -0.00049487501
-0.0024776887 0.017250512 -0.0015490651
-0.0017135646 0.017268347 -0.0016818121
-0.00012322515 0.017293081 -0.0018379912
0.00035929121 0.017247843 -0.0013569668
0.0026042592 0.017293487 -0.0016974285
0.0034065694 0.017291155 -0.0016349554
0.0043644942 0.017255619 -0.0012341067
0.0052985251 0.017280765 -0.0014444292
0.009557033 0.017350618 -0.0019785464
0.010110805 0.017324325 -0.0016974285
0.012866107 0.01735897 -0.00196293
0.013414026 0.017322786 -0.0015881062
0.014430001 0.017334552 -0.0016818121
0.015346485 0.017320819 -0.001525633
0.016230632 0.017336074 -0.0016609877
-0.025297182 0.01692803 -0.00040116906
-0.014254341 0.016995972 0.00012982637
0.017793596 0.016720511 -0.003337279
-0.034103982 0.015595509 0.00082741678
0.01089791 0.016280631 -0.0022049993
-0.023669073 0.016868684 0.00042343885
0.029647622 0.017553186 -0.0038058087
0.029191308 0.017222812 -0.0024835095
-0.013887083 0.017008476 3.6127865e-05
-7.0732087e-05 0.015788792 -0.0027750432
-0.0052764248 0.014308414 0.00017307699
-0.0049068239 0.014054118 0.0010668859
-0.038443491 0.014584558 0.00024890155
0.007464014 0.017304078 -0.0025837272
0.025315437 0.015212664 -0.0014241189
-0.0024856068 0.016501328 -0.0024314523
-0.045126475 0.01543207 0.0011059269
-0.044184893 0.01650409 0.00059835613
0.00039019249 0.016855326 -0.0014756545
-0.0076999795 0.015384779 -0.00060593337
0.0066714901 0.01749753 -0.0035559312
0.0086888634 0.01757203 -0.0042222738
0.011161469 0.017532468 -0.0037433356
0.017523326 0.017529882 -0.0035715476
0.017873913 0.017588383 -0.0041493922
-0.026679141 0.014666398 0.00052452832
-0.025313454 0.014745433 0.0002079159
-0.024634449 0.014753718 0.00023134053
0.023393292 0.014109036 -0.00086189061
-0.019892095 0.01432031 4.3936074e-05
-0.018414898 0.014393516 0.00028599054
-0.017589083 0.014389745 0.00066429377
-0.015929526 0.014469066 0.00012983382
-0.01226105 0.014771285 -0.00027623028
-0.045107611 0.016658362 0.001129359
-0.04337211 0.016776703 0.00022353232
-0.040577151 0.016766822 0.00098359585
-0.028976014 0.017057665 -5.7578087e-05
-0.034909315 0.016870903 0.00097317994
-0.034381948 0.016902652 0.00072329491
-0.015509507 0.016310554 -0.00027623028
-0.0065329093 0.017385373 -0.0011195764
-0.0059651043 0.017386207 -0.0010883436
-0.0025766082 0.017464381 -0.0016713962
-0.0018063355 0.017472986 -0.0017130524
-0.00013097003 0.017491536 -0.0018067509
0.00036904402 0.017453399 -0.0013881996
0.0026131961 0.017497987 -0.0017286614
0.0034153201 0.017495666 -0.0016661882
0.0043392815 0.017460935 -0.0012679398
0.0053203367 0.017491579 -0.0015381351
-0.036316402 0.01699915 -0.00069269538
0.0098621882 0.017553098 -0.0019941628
0.010116955 0.017527886 -0.0017286614
0.012871236 0.017561726 -0.0019941628
0.013419803 0.017526895 -0.00162559
0.014427971 0.017532859 -0.0016630664
0.015118536 0.017525401 -0.0015724897
0.016244944 0.017548449 -0.0017859265
-0.025586838 0.017104343 -7.3201954e-05
-0.023653427 0.017083246 0.0003984496
-0.00030684657 0.016548894 -0.0033476949
0.017416336 0.017717041 -0.0034830421
0.018076021 0.017552558 -0.0033997446
0.019417193 0.017339516 -0.0022348464
0.029744845 0.017748488 -0.0038058087
-0.014946112 0.01723903 -0.00029184669
-0.013349665 0.017109901 -0.00010130554
-0.013756493 0.017222423 -1.0728836e-05
-0.043667138 0.011686304 0.0024724677
-0.04250861 0.015459666 -0.00053162128
-0.040587075 0.015461512 0.00057864934
0.0054363087 0.015370362 -0.0006410405
0.025177699 0.016539142 -0.0018345192
-0.018274022 0.015925199 -2.6345253e-05
-0.018410528 0.016531048 -0.00019387901
-0.017620368 0.016426999 0.00025604665
0.00084746443 0.017202929 -0.00088010728
0.033362124 0.016556572 -0.0021935776
0.0066082571 0.017380446 -0.002386339
0.0074564684 0.017598221 -0.0025407746
-0.035431027 0.016691923 0.00092945248
0.0082056485 0.0176236 -0.0037745759
0.0086936727 0.017769452 -0.0042430982
0.0066860281 0.017700691 -0.0036183968
0.001407614 0.017183226 -0.00065312535
0.0021291841 0.017155347 -0.0008462742
-0.034148268 0.014504665 0.00085864961
-0.0347469 0.014472904 0.001025252
-0.033124089 0.014163472 0.0011762083
0.0041619446 0.017074797 -0.00095558912
-0.031582035 0.014558201 0.0008508414
0.014419868 0.014574409 -0.00058857352
0.016612463 0.014067133 0.00034847856
-0.028790614 0.014680203 0.00025030971
-0.027481308 0.01467934 0.00030684471
-0.018418299 0.011348313 0.0013722926
0.024526423 0.016967669 -0.0019004568
-0.010612724 0.0148322 -0.00063022226
0.032367449 0.017308727 -0.0024126992
0.033219393 0.017489083 -0.0023913011
-0.044309475 0.016928451 0.00078576803
-0.043351442 0.016983338 0.00038752705
-0.045101605 0.016881609 0.001129359
0.0014371239 0.017600857 -0.00075725466
-0.034553692 0.017109167 0.00080658495
-0.022631435 0.017199676 0.00041095167
-0.012132673 0.01754264 -0.0010571107
-0.011905463 0.017547408 -0.0010883436
-0.015440034 0.017266188 -0.00035040826
-0.015831193 0.016996758 -2.6345253e-05
-0.01441027 0.01729558 9.8600984e-05
-0.0069751721 0.017303724 -0.002389811
-0.006579781 0.017590445 -0.001132071
-0.0058479216 0.017594082 -0.0011195764
-0.0034113415 0.017618153 -0.0012132823
-0.0025526322 0.017673753 -0.0017442852
-0.0017863736 0.017681118 -0.0017755181
-0.00011212192 0.017699178 -0.001869224
0.00038754009 0.017661823 -0.0014506727
0.0024889447 0.017690254 -0.0016401634
0.0034226738 0.017699512 -0.001692228
0.0043456834 0.017665224 -0.0012913644
0.0053352322 0.017698947 -0.0016006008
-0.036325648 0.01721211 -0.00067187846
0.00986843 0.017755968 -0.0020254031
0.010120351 0.017729778 -0.0017442778
0.013438772 0.017739851 -0.0017567873
0.014435931 0.017738435 -0.0017192885
0.015118927 0.017725704 -0.0015724897
0.016158408 0.017759103 -0.0019004568
-0.027798919 0.017286442 -5.7578087e-05
-0.025592403 0.017314488 -5.7578087e-05
-0.023608712 0.017303221 0.00031723827
0.029745493 0.017940907 -0.0037745759
-0.04217606 0.015659999 0.0002110526
-0.033548765 0.01638006 0.00041334331
0.019484714 0.017806113 -0.0023439974
0.020485336 0.017561654 -0.0021210462
0.030645056 0.017267121 -0.0029401481
0.030264236 0.017635684 -0.0032923818
0.031400926 0.017606076 -0.0028895661
-0.013481515 0.017445374 -0.00014347583
-0.0046664346 0.014492675 0.00030589104
0.014249727 0.01532586 -0.00080723315
0.014322198 0.012389621 0.0002027154
-0.0092771072 0.017406661 -0.0015490651
-0.0086668562 0.017322507 -0.0006281361
0.0008721929 0.01761777 -0.00096340477
0.0086985212 0.017966758 -0.0042639226
0.017880542 0.017983947 -0.0042118654
0.029527247 0.018019404 -0.0045866892
0.033249181 0.01781844 -0.0025720149
-0.045149997 0.014538282 0.0010981187
-0.043374084 0.017200246 0.00042656809
-0.042511128 0.017084032 0.00069987029
-0.045118667 0.017101679 0.0011605918
0.0014464762 0.017807297 -0.00078848749
-0.027381649 0.015802681 -0.00070311129
-0.027474077 0.015594793 -0.0012132823
-0.040506274 0.01707368 0.0010169074
0.02852181 0.015400403 -0.0021717027
0.030411407 0.015462054 -0.0024246648
-0.0070195403 0.015813824 -0.0017130449
-0.015578577 0.017653689 -0.00033869594
-0.00040883198 0.015474382 -0.0024456531
-0.043317117 0.015394105 -0.00027623028
-0.036350481 0.015640099 -0.00063320249
0.0027928092 0.017929139 -0.0020254031
0.0031998008 0.017930951 -0.0020254031
0.0058230404 0.017935965 -0.00196293
-0.036348678 0.017423064 -0.00063022226
-0.025230395 0.015785022 -0.00055734068
0.013461169 0.017954584 -0.0019129515
-0.027795879 0.017498959 -5.7578087e-05
-0.025555754 0.017532229 -0.00012005121
-0.02356088 0.017523406 0.00022979081
0.02955604 0.018115073 -0.0035455078
5.6501478e-05 0.016614579 -0.0024849996
-0.043211691 0.016286036 -0.00038554519
0.00895999 0.017411383 -0.003587164
0.021050286 0.016980084 -0.0020254031
0.021396382 0.017355572 -0.0022144318
-0.022599818 0.01752238 0.00035628676
0.030346664 0.018097203 -0.0033685192
-0.0074083861 0.015753737 -0.0012132823
0.014179101 0.016102122 -0.00081764162
0.022289418 0.017033491 -0.0021503344
-0.028979378 0.016844608 -5.7578087e-05
0.024033489 0.016785007 -0.0020566359
-0.0092941802 0.017373502 -0.00084887445
-0.00011078082 0.017967664 -0.0025876313
-0.037551008 0.01542156 0.00019924343
0.0106712 0.018012315 -0.0026032552
0.0066675749 0.018085476 -0.0035246909
0.0087965745 0.018161824 -0.0042587146
0.0021273345 0.017832659 -0.0010258704
0.011062957 0.018064732 -0.0031498671
-0.0091702025 0.014005909 -0.00050529093
0.032348558 0.018031772 -0.0027125776
0.033341836 0.01802491 -0.0026625991
-0.0043750983 0.015870132 -0.00020334125
-0.0024600849 0.01591818 -0.0023065135
-0.0025771819 0.015823653 -0.0014839917
-0.0025175307 0.015633579 -0.0010050461
-0.00024970062 0.015378951 -0.0016335398
-0.041663714 0.015477975 0.00060283393
-0.04479786 0.014342017 0.00108473
-0.036374129 0.015456396 0.00068621337
-0.045112982 0.017324887 0.0011605918
-0.043459035 0.017408896 0.00055149943
-0.033092558 0.017094377 0.001223065
-0.0095039848 0.015782913 -0.0016401634
-0.0091929752 0.015532715 -0.0020956844
-0.012292938 0.017963842 -0.0011820495
-0.011826096 0.017975822 -0.0012757629
-0.014421565 0.017691698 0.00010900199
-0.0065400954 0.018008627 -0.001238279
-0.005807912 0.018012298 -0.0012289062
-0.0032804161 0.018062562 -0.001619339
-0.0023191366 0.018076364 -0.0017130449
-0.0018729512 0.018088713 -0.0018223748
0.00055653974 0.01808813 -0.0016818121
0.0010197144 0.018038969 -0.0011195764
0.002817506 0.018138427 -0.002119109
0.0036196448 0.018099703 -0.0016583875
0.0043603405 0.018074149 -0.0013460442
0.011457394 0.015474833 -0.0024595708
0.0058446061 0.018144956 -0.0020566359
0.0052362196 0.018101173 -0.0016037226
0.010132242 0.018036066 -0.0018067583
0.012445089 0.018103801 -0.0024704933
0.013569686 0.018159781 -0.0019707382
0.014246183 0.017945312 -0.0017963499
0.023417797 0.015325898 -0.0015268847
0.024372349 0.015375423 -0.0016223192
-0.018241623 0.015619822 -0.00010443479
-0.018040007 0.015721839 -5.7578087e-05
-0.0095625948 0.012790942 -0.00035431236
-0.016622184 0.015485152 0.00056907535
-0.023548739 0.017736688 0.0002110526
0.029462278 0.018295536 -0.0033763275
-0.022553703 0.017741926 0.00027038902
0.022837138 0.016974289 -0.00196293
0.030344257 0.018298697 -0.0034247413
-0.0066274125 0.015442488 -0.00072848797
-0.0045036878 0.017975271 -0.00073694438
-0.0038515218 0.017985394 -0.0008072257
-0.0048092883 0.015346382 6.3456595e-05
-0.011305312 0.017952371 -0.00097381324
0.033330064 0.01823841 -0.0028312653
-0.02165675 0.017496753 0.00045583397
0.023456883 0.017015908 -0.0018156841
0.023661131 0.017556801 -0.002212815
-0.019562097 0.01750326 -0.00046364218
-0.018261803 0.016972793 -2.6345253e-05
-0.0092770178 0.017814286 -0.0015412569
-0.0011911616 0.014766675 -0.0010571107
-0.0017726589 0.017886978 -0.0018171594
-0.035451882 0.014515331 0.00099661946
-0.041581765 0.017181147 0.0010668933
-0.0092472937 0.013522729 -0.00050529093
-0.016598953 0.016418077 0.00044802576
-0.007365888 0.013722689 -0.00029705465
0.0066885408 0.018291112 -0.0036183968
0.0088681672 0.018344363 -0.0041181594
0.017657928 0.017956611 -0.0039307475
-0.018310798 0.01528086 0.00010305643
-0.017580984 0.015439338 0.00043993443
-0.01591398 0.015412708 0.00012202561
-0.01436309 0.015349998 0.00052026659
-0.0086247493 0.015468334 -0.00036425143
-0.005526891 0.015770117 -0.00041158497
0.032343045 0.018237621 -0.0028000325
-0.045130357 0.017545059 0.0011918247
-0.043538414 0.017618807 0.00066863745
-0.040604755 0.017550536 0.0010133386
-0.034541696 0.017512554 0.00084824115
-0.034893721 0.017740965 0.00097317994
-0.012329673 0.0181606 -0.0010883436
-0.011742821 0.0181759 -0.0012132823
-0.0072402004 0.018294714 -0.002212815
-0.0070538688 0.018290333 -0.0021503419
-0.0066334065 0.018214576 -0.0012679473
-0.0058038477 0.018216753 -0.0012367144
-0.0040838607 0.018210586 -0.0010571107
-0.0034330189 0.018250279 -0.0014631674
-0.0022845939 0.018288359 -0.0018223748
-0.0019417573 0.01829987 -0.0019316971
0.00064555556 0.018285543 -0.0016297549
0.0028342381 0.018344471 -0.0021815747
0.0036376249 0.018307291 -0.0017286614
0.0043649431 0.01827734 -0.0013616532
0.0059007984 0.018367628 -0.0023065135
0.0052616615 0.018312175 -0.0017130449
0.01014136 0.018340532 -0.0018536076
0.012462257 0.018411301 -0.0025772303
0.013563541 0.01835506 -0.0019238815
0.014073333 0.018362399 -0.0019941628
-0.025597984 0.017965499 -0.00024499744
-0.023568956 0.017944094 0.0002547726
0.0092255957 0.017469097 -0.0021763593
0.010679815 0.017482314 -0.0025173575
-0.033649497 0.017318282 0.00044478476
0.018082719 0.018383259 -0.0032513812
0.019493015 0.018212296 -0.0024460256
0.029365825 0.01848501 -0.0032997951
0.030343015 0.018497115 -0.0034497306
-0.044746138 0.012814723 0.0015791506
-0.04162918 0.016468976 0.0011106208
-0.041873053 0.016320914 0.00074411929
-0.011182284 0.018161954 -0.001010254
0.0053459033 0.016213816 -0.00091053545
-0.0091811139 0.018067567 -0.00094778091
-0.0093074907 0.018112276 -0.0014553517
-0.017539935 0.017217582 0.00013639033
-0.0092853252 0.018216588 -0.0026188716
-0.0015229452 0.015460638 -0.001205489
-0.00037738495 0.018250572 -0.0035133287
0.017397501 0.016769364 -0.0027527362
0.00011040829 0.018232225 -0.0024627
-0.0067917611 0.017114975 -0.0009868294
0.0065780096 0.018482812 -0.0035663396
0.008794805 0.018550787 -0.0042430982
0.011064032 0.01845926 -0.0031498671
-0.031705663 0.015613895 0.00077684969
-0.029511599 0.015292223 0.0004074797
-0.027437849 0.015392855 0.00032971799
-0.026654227 0.015379012 0.00046895444
-0.025482913 0.015715782 5.1744282e-05
-0.024517568 0.015836705 4.3936074e-05
-0.01349408 0.012511579 0.00034847111
0.033322036 0.01844611 -0.0029437169
-0.045147896 0.017765317 0.001223065
-0.043446511 0.017836563 0.00073371083
-0.041569576 0.017733674 0.0010668933
-0.040626779 0.01786362 0.0010278448
-0.0010870248 0.015903246 -0.0020878688
-0.0071263965 0.01852447 -0.0025251657
-0.0070637818 0.01848965 -0.002119109
-0.0066075716 0.01842463 -0.0013382286
-0.0057839695 0.018425312 -0.0012913719
-0.0044501405 0.018425923 -0.0012132823
-0.0035890155 0.018456757 -0.0015152246
-0.0022548344 0.01849848 -0.0019160733
0.00056268834 0.018492788 -0.0016974285
0.002843013 0.01854747 -0.002212815
0.0036422797 0.018509731 -0.0017442778
0.0044078846 0.018494911 -0.0015412569
0.005468579 0.018515147 -0.0017286614
-0.037464343 0.018003831 -5.7578087e-05
-0.03648974 0.01807775 -0.00077599287
0.012475634 0.018616926 -0.0026605129
0.013082376 0.018365961 -0.0020566434
0.013557382 0.018550508 -0.0018770322
0.014065272 0.018556289 -0.0019316971
-0.027787318 0.018136293 -5.7578087e-05
-0.025516206 0.018189888 -0.00039075315
-0.023592493 0.018151093 0.0003047511
0.0089137182 0.01787867 -0.003337279
0.01809415 0.018688396 -0.0033685192
0.019500462 0.018616755 -0.0025376678
0.020474805 0.018300768 -0.0023236647
-0.015410518 0.015671048 -0.00026842207
-0.02251845 0.018064421 0.00020792335
-0.01348591 0.018192995 -0.00037930161
-0.040485509 0.01648044 0.00082481652
-0.0037141945 0.015024908 2.0511448e-05
-0.0037087426 0.01578455 -0.00031267107
-0.0091848951 0.018373715 -0.00093216449
-0.017697001 0.017716644 -9.2729926e-05
9.178184e-05 0.018535584 -0.002212815
-6.1437488e-05 0.018247634 -0.0034622177
0.0031175092 0.018285912 -0.0021547973
0.013695757 0.012171538 0.0001610592
0.0016330965 0.018111624 -0.00093217194
-0.035741724 0.015407426 0.00093153119
-0.022805816 0.015379432 0.00039958954
-0.043550849 0.01805849 0.00069987774
0.0016158652 0.018641591 -0.0010258704
-0.041978225 0.018070096 0.00091070682
-0.034337677 0.017973982 0.00087947398
-0.0071139131 0.018728493 -0.0025563985
-0.0070737321 0.018689074 -0.0020878688
-0.0066762026 0.018636338 -0.0014381781
-0.0057747755 0.018630907 -0.0013147965
-0.004408082 0.018640198 -0.0013382286
-0.0025099758 0.018377911 -0.0025184751
-0.0023424849 0.018703632 -0.00196293
0.00038166158 0.018700654 -0.0017807186
0.0027301926 0.018743178 -0.0021659583
0.0031562988 0.018751491 -0.0022440478
0.0036412086 0.018710062 -0.001736477
0.0044545606 0.018713046 -0.0017364696
0.0050444212 0.018745117 -0.0020878688
0.0053996779 0.018727692 -0.001869224
-0.038639322 0.018241432 -0.00055734813
-0.036705203 0.018262658 -0.00044281781
0.012486511 0.018820839 -0.0027281865
0.013485129 0.018766718 -0.0020722523
0.01346246 0.018752871 -0.0019108653
-0.025423134 0.018415451 -0.00055734813
-0.023577319 0.018364869 0.00027976185
-0.0079165157 0.016393032 -0.00072602183
-0.042530537 0.01657516 0.00040855259
-0.032681815 0.017323429 0.0011553913
0.019502604 0.018816834 -0.0025626495
0.020489134 0.018814806 -0.0025314167
0.02120617 0.018451855 -0.0024996102
-0.022503203 0.018383048 0.00018448383
-0.0066058878 0.016353697 -0.00093957782
0.011532247 0.017394159 -0.0024395958
-0.032235868 0.017431684 0.00082221627
-0.017806163 0.011684614 0.0014479533
0.031740174 0.018059459 -0.0029936954
0.032334644 0.018480329 -0.0029364228
-0.016621763 0.017359797 0.00024851412
-0.0085812006 0.018267177 -0.00084313005
-0.035581395 0.016334118 0.00099818408
-0.0054251421 0.017533772 -0.00062222034
0.0087343492 0.018956963 -0.0044305101
0.010900941 0.018968154 -0.0044929832
-0.032632664 0.015731301 0.00082481652
0.031503424 0.01506157 -0.0019004568
-0.043489583 0.018286655 0.0006217882
0.011755406 0.016652223 -0.0019238815
0.011373729 0.016421985 -0.0025636107
0.012287346 0.01677469 -0.002119109
-0.045151614 0.018098697 0.0012386814
-0.04474166 0.018074378 0.0011710003
0.0015136395 0.018843956 -0.0010258704
0.016841773 0.016599935 -0.0022440404
-0.041820429 0.018295817 0.00087947398
-0.040628292 0.01819301 0.0010395572
0.018518988 0.016571581 -0.0025350153
-0.024896642 0.01669158 -0.0011508167
0.021729905 0.016470034 -0.0020941123
-0.034697138 0.018202068 0.0010161325
0.027022304 0.01248433 0.0014104769
0.028401516 0.016423628 -0.0024214536
-0.0092677232 0.016449492 -0.0022908971
-0.0070694368 0.016671451 -0.002139926
-0.0071127135 0.018929716 -0.0025563985
-0.042926468 0.016496759 -0.00022157282
-0.0025931466 0.018973831 -0.0028062835
0.0048209708 0.016844813 -0.0011508167
0.0054525435 0.016856175 -0.001232028
0.006182868 0.016916011 -0.0017755181
0.0087559633 0.016433045 -0.002750054
0.0027668662 0.018955238 -0.0023065135
0.0032534115 0.018950129 -0.0022232234
0.0035874918 0.018927105 -0.0019316971
0.0046253596 0.018938564 -0.0020254031
0.0048571359 0.018949756 -0.0021503419
0.0053662341 0.018952757 -0.0021659657
0.0052261557 0.018937998 -0.0019941628
0.01250683 0.019029902 -0.002860941
0.013408046 0.018978838 -0.0022284314
0.01337684 0.018960534 -0.0020097867
-0.02801594 0.018558461 -5.7578087e-05
-0.025448998 0.018621448 -0.00050529093
-0.023631742 0.018584808 0.00016886741
0.028482022 0.019078169 -0.0033372864
-0.0003158208 0.017437112 -0.0032977164
0.0087941382 0.018450692 -0.0034399182
0.0093540531 0.018246425 -0.0022768304
0.0087984744 0.018747346 -0.0042587146
0.010690892 0.01831984 -0.0027125776
-0.022808863 0.018596465 0.00011941791
-0.0076556746 0.016760822 -0.0010883436
-0.0070332829 0.016792998 -0.001353845
0.01114125 0.01781467 -0.0036183968
0.030338863 0.01909212 -0.0035309345
-0.021623237 0.018257361 0.00030069053
0.023574758 0.018368825 -0.0023689941
-0.0015888289 0.01894572 -0.0024106354
-0.0094049033 0.018559858 -0.0013304204
0.016707597 0.017527193 -0.0023689941
-0.01854795 0.017459616 -0.00041158497
-0.0085660387 0.018782716 -0.00087594241
-0.00055196323 0.019040838 -0.0035012662
-0.014874058 0.017626457 -0.00026061386
-0.0053101908 0.01830278 -0.00075916201
0.006512912 0.019085225 -0.0037121028
0.0074680001 0.019033518 -0.0030561611
0.0087410416 0.019154336 -0.0044617504
0.010795472 0.019158386 -0.0044461265
0.011091873 0.019063963 -0.0033060461
0.017166246 0.019122951 -0.0038838908
0.017708447 0.01907168 -0.0044253096
-0.0086141136 0.016459756 -0.00043239444
-0.0052937362 0.01690032 -0.00027623028
0.032824624 0.019041801 -0.002978079
-0.0030903909 0.016845355 -0.0015881062
-0.0023215748 0.016829904 -0.0013902783
0.0034627281 0.016870014 -0.0014569163
-0.036309585 0.016678682 -0.00071351975
-0.045132726 0.018434744 0.001223065
-0.038547613 0.015553995 0.00034847111
-0.044861503 0.018439535 0.001223065
-0.043405995 0.01851711 0.00051245838
-0.041473649 0.018158663 0.0010169074
-0.041554123 0.018520612 0.00087947398
-0.040619344 0.018523734 0.0010356531
-0.034776129 0.018609326 0.0010044202
-0.034347259 0.018622041 0.00091070682
0.029394202 0.016709287 -0.0023221374
-0.012298251 0.018987577 -0.0011508167
-0.011600127 0.019002967 -0.0012882426
-0.014387084 0.01811529 3.6127865e-05
-0.0071003232 0.01913349 -0.0025876313
-0.0070714001 0.019093402 -0.0020878688
-0.0066365916 0.019051917 -0.0015443712
-0.0057459269 0.019044302 -0.001392886
-0.004487427 0.019051798 -0.0014085025
-0.0026163552 0.019140683 -0.0024002269
0.00048948452 0.019104959 -0.0017942563
-5.2167103e-05 0.019124014 -0.0020566359
0.0015207827 0.015223482 5.7987869e-05
0.0026686396 0.019155638 -0.0023169219
0.0032645613 0.019153561 -0.0022648722
0.0037387013 0.019110465 -0.0017130524
0.0042250827 0.019104518 -0.0016193464
0.0047492217 0.019146811 -0.0021191016
0.005394876 0.019162834 -0.0022908971
0.010239344 0.019230878 -0.0029624552
0.012602777 0.019225813 -0.0028375238
0.013304639 0.01917525 -0.0022003129
0.022651827 0.016295355 -0.0019268915
0.02342438 0.016347732 -0.0017067865
0.024442583 0.016347602 -0.0018562078
0.029360617 0.019186862 -0.0034778342
-0.00056184828 0.017411383 -0.0026049912
-0.032856494 0.018489147 0.0010044128
-0.017264685 0.012639995 0.0010773018
0.029252239 0.015740691 -0.0021113008
0.031377945 0.019187748 -0.0034139454
-0.012667013 0.01895519 -0.00077599287
0.030335933 0.019294092 -0.0036059022
-0.01337974 0.018938076 -0.0006198138
-0.0038105194 0.019041795 -0.0012445301
-0.041646898 0.013463561 0.0012422875
0.033022754 0.019237299 -0.0029624626
-0.040703475 0.01329999 0.0010252371
-0.0092832725 0.019011602 -0.0012236983
-0.0094852727 0.019056287 -0.0026292801
-0.028951338 0.01747949 -7.6070428e-06
0.033208083 0.019055441 -0.0031498671
-0.009277435 0.018683275 -0.00096339732
-0.037541963 0.016460661 0.00020166487
0.0063554626 0.019259667 -0.0034466013
0.0076356698 0.019258374 -0.0033841357
0.0084375646 0.019344361 -0.0044148937
0.01088025 0.01934671 -0.0043680444
0.011315781 0.01927313 -0.0034518093
0.017067287 0.01931674 -0.0038682818
0.017624505 0.019373372 -0.0045554489
-0.022626756 0.016778424 0.0003914237
-0.013502123 0.016548309 -0.00011381507
-0.012513423 0.016856419 -0.00040116906
-0.011948755 0.016921062 -0.00099463761
-0.0092062298 0.016906098 -0.00061982125
0.032630786 0.019234188 -0.0029156059
-0.0016257018 0.016860217 -0.0016401634
-0.045150906 0.018655166 0.0012542978
-0.044879638 0.0186598 0.0012542978
-0.043394059 0.018752027 0.00031724572
-0.041549988 0.01874101 0.00087947398
-0.040610045 0.018744577 0.0010278374
0.022228414 0.01651695 -0.0020907074
-0.034447864 0.018839989 0.00087947398
-0.0072088968 0.019332806 -0.0025720224
-0.0057341661 0.019250089 -0.0014241189
-0.0044838432 0.019255422 -0.0014163107
-0.0025741141 0.019351795 -0.0025314167
0.00058745965 0.019305168 -0.0017755181
5.5471435e-05 0.019326523 -0.0020722523
0.0026853606 0.01936052 -0.0023794025
0.0032782629 0.019357631 -0.0023169369
0.0041635633 0.019318599 -0.0017859265
0.0047681313 0.019353047 -0.0021971986
0.0054044239 0.019365517 -0.0023299381
0.0066255331 0.019183736 -0.0028509051
0.010078812 0.019400887 -0.0026188716
0.0022469368 0.018480983 -0.0014801994
0.012604739 0.019424293 -0.0028479323
0.013321757 0.019383617 -0.0023190156
-0.025433192 0.019044235 -0.0005261153
-0.024309093 0.019018672 -5.7578087e-05
-0.023538424 0.019021295 -2.9206276e-06
0.00051568449 0.017872633 -0.0015360564
-0.03249798 0.018508542 0.00081440806
-0.031757429 0.018480616 0.00073580444
0.021378674 0.019198522 -0.0028624982
0.021705436 0.019402022 -0.0030639693
0.022381721 0.019333173 -0.0028179884
0.031419575 0.019477228 -0.0034674257
0.032355718 0.019273242 -0.0031697527
-0.042522296 0.017632985 0.00073371083
0.010678738 0.018660976 -0.0032123402
-0.01294587 0.019147381 -0.0006198138
0.012415932 0.017426759 -0.0022923052
0.0043558273 0.017870866 -0.0013304129
-0.011575961 0.019212302 -0.0013444647
-0.01069185 0.019121781 -0.0014267191
0.0052300766 0.017897803 -0.0015802979
0.033110887 0.019446714 -0.0031186342
0.0063979104 0.019471658 -0.0036340132
0.007520441 0.019448888 -0.0033060461
-0.036374122 0.016433477 0.00072018802
0.0021383259 0.019215183 -0.0018379912
0.017877232 0.017786244 -0.0041806325
0.017303873 0.01789904 -0.003337279
-0.032114886 0.016499884 0.00079618394
-0.031599805 0.016456455 0.0006608218
-0.028761754 0.016844761 -2.6345253e-05
-0.027426938 0.016386911 0.00026461482
-0.026709447 0.016429996 0.00042656064
-0.025502363 0.01640632 3.6105514e-05
-0.024489136 0.016792204 1.6607344e-05
-0.043500207 0.018972777 0.00028600544
-0.042503856 0.018969223 0.00056087226
-0.042831354 0.019009769 -8.8818371e-05
-0.045146331 0.01887824 0.0012542978
-0.044875123 0.018882714 0.0012542978
-0.0154879 0.018432252 -0.00057386607
-0.0071929302 0.019559087 -0.0028999895
-0.0070756618 0.019540578 -0.0026501045
-0.0057304446 0.019453892 -0.0014319271
-0.003132429 0.019563615 -0.0027125776
-0.0024751648 0.019551432 -0.0025173575
0.00053878501 0.019492501 -0.0015959069
6.9564208e-05 0.019530961 -0.0021191016
0.0035341065 0.019543014 -0.0021191016
0.0046662763 0.019552156 -0.0021919832
0.0052849613 0.019558011 -0.0022440478
0.0067340024 0.01961145 -0.0028843656
0.010079326 0.019599203 -0.0026188716
0.010528006 0.019469913 -0.0034726262
0.011390205 0.019576062 -0.0033029318
0.012700252 0.019620061 -0.0028219
0.013331803 0.019587595 -0.0023877248
-0.025436742 0.019253865 -0.00051569939
-0.024307085 0.019229664 -5.7578087e-05
-0.023572916 0.019226562 6.7360699e-05
-0.0092934351 0.017445959 -0.0024757087
-0.033605695 0.01847006 0.00055149943
0.019414879 0.019322084 -0.0026969612
0.021705642 0.01964809 -0.0030665696
0.021201057 0.019631427 -0.0028531328
0.022285156 0.019632084 -0.0028583333
-0.021559445 0.019111151 0.00021907687
-0.012879981 0.019366119 -0.00077599287
0.0036035366 0.017892532 -0.0015959144
0.031517826 0.019672193 -0.0034559742
0.033202872 0.019650619 -0.0032123402
0.0018128119 0.019449599 -0.00097901374
0.0027824864 0.019466072 -0.0011508167
0.0023130327 0.019446891 -0.00092174858
-0.0038590468 0.013321203 0.00038417429
-0.044373058 0.019134687 0.0009419471
-0.043518595 0.019190591 0.00031723827
-0.041879587 0.019026946 0.00092111528
0.0011303239 0.019602954 -0.0003491044
-0.024587577 0.018376123 2.2366643e-05
-0.022587987 0.018807955 0.0001360774
-0.0095164943 0.019519558 -0.0025407821
-0.01673772 0.018415906 2.4951994e-05
-0.016364912 0.019244295 -0.00014346838
-0.015562402 0.019296644 -0.00070871413
-0.0072032344 0.019757157 -0.0028687492
-0.0070634056 0.019743888 -0.0026813373
-0.0031912811 0.019749403 -0.0025251657
-0.0024479739 0.019770471 -0.0027672425
0.0004900191 0.019680575 -0.0014163181
8.3621591e-05 0.01973518 -0.0021659583
0.0045742188 0.019754438 -0.0022284314
0.0052902699 0.019759217 -0.0022648796
0.0067378376 0.019810747 -0.0028999895
0.010088125 0.019801036 -0.0026657209
0.011458509 0.019192263 -0.0029936954
0.012710025 0.019822404 -0.0028843656
0.013350853 0.019795973 -0.0025189146
-0.027971031 0.019412726 -0.00012005121
-0.025508387 0.019453855 -0.00038035214
-0.024394842 0.01944329 -0.00010443479
-0.023440784 0.019440854 3.6127865e-05
0.00038678944 0.018903371 -0.0017963499
-0.035474636 0.015511301 0.0010015815
0.019517068 0.019819092 -0.0027375594
0.02049006 0.019408947 -0.0025388971
0.021509705 0.019845488 -0.0030769855
0.021096028 0.019820282 -0.0027438104
-0.041988313 0.017408108 0.00090446323
0.011469972 0.018414393 -0.0027468055
0.011049956 0.018748485 -0.0034518093
-0.040776327 0.017207291 0.0009419471
-0.0038310383 0.01742222 -0.00068540126
0.014159543 0.018375479 -0.002139926
0.023564782 0.019631285 -0.0028479248
0.0084985383 0.01995104 -0.004711628
0.0030853506 0.019636519 -0.00071351975
-0.0025191847 0.017607911 -0.0025519356
-1.8635765e-05 0.016966639 -0.0025720224
0.0049242396 0.013096341 0.0010356531
0.0066802148 0.017894508 -0.003587164
0.0065974183 0.017783497 -0.0024314523
0.007454101 0.017795697 -0.0025251657
-0.044724777 0.019261144 0.0011814237
-0.041500695 0.019197803 0.001055181
-0.041953415 0.019394074 0.00091070682
-0.045151226 0.019211559 0.0012699142
0.00081507303 0.019748531 0.00044218451
-0.043576904 0.019392019 0.00058794767
0.0015170798 0.019536462 0.00055671483
0.0022172984 0.019546608 0.0013792366
0.017207434 0.017312601 -0.0028431937
0.003016131 0.019757539 0.00041094422
-0.04061158 0.019183777 0.001040861
-0.032800496 0.016425135 0.0011742562
-0.018595958 0.017182883 -0.0015048087
0.028539296 0.017119359 -0.0025697798
-0.022601428 0.019341199 0.00012488663
-0.036709085 0.011007711 -0.0011195764
-0.0058305506 0.017802577 -0.0011664331
-0.004573388 0.017546155 -0.00053130835
-0.017242676 0.01962357 5.6952238e-05
-0.016816368 0.01941519 8.8177621e-05
-0.016082073 0.019733092 -0.00040116906
-0.015479172 0.019763578 -0.00077598542
-0.0072475392 0.019948412 -0.0027438104
-0.0069752354 0.019941743 -0.002634488
-0.0024187639 0.019973163 -0.002806291
-0.037118062 0.01758974 -0.00021375716
9.7641721e-05 0.01993918 -0.002212815
0.0056907367 0.019991336 -0.0026969537
0.0067383777 0.020008814 -0.002899982
0.0015086476 0.01959048 0.0026442632
0.0020690896 0.019600123 0.0025349408
0.018543996 0.017394066 -0.0026338175
0.012811768 0.020021191 -0.0028999895
0.013379149 0.020008363 -0.0027125776
-0.02823838 0.019618047 -5.7578087e-05
-0.027772525 0.019636512 -0.00026061386
-0.025344161 0.019657105 -0.0002554059
-0.02462632 0.019651737 -9.662658e-05
-0.023428215 0.019653246 1.5303493e-05
0.0087804031 0.019439206 -0.0034205765
0.0088590924 0.019726524 -0.0030249283
0.0092230178 0.019498596 -0.0027494878
-0.031674795 0.019314278 0.00073631108
-0.023641774 0.015817162 0.00034222752
0.011051269 0.019043338 -0.0042274818
0.011393371 0.019852893 -0.0033216625
0.012198279 0.019535545 -0.003132835
0.032646749 0.020002391 -0.002634488
-0.041626722 0.014308692 0.0010200366
0.033199377 0.020010278 -0.0027542263
0.033307072 0.020036781 -0.0031186342
0.0063641109 0.020049615 -0.0034726262
0.0076184776 0.020039421 -0.0032904223
0.0083422549 0.020123506 -0.0044201016
0.0035206769 0.019847697 -0.0008072257
0.01065314 0.020069875 -0.0036183968
0.011401256 0.020053016 -0.0033685192
0.012363443 0.020042712 -0.0032045245
0.029539503 0.020110499 -0.0040556863
-0.012644494 0.017389394 -0.00047783554
-0.011960326 0.017763987 -0.0012132823
-0.011504365 0.01742027 -0.00086417049
-0.0036082175 0.014861327 -0.00032307953
0.034599826 0.020113003 -0.004191041
0.034251962 0.020074017 -0.0036496297
-0.0086299274 0.017742641 -0.00071976334
-0.0079325642 0.017353427 -0.00089468807
-0.0033507999 0.017839318 -0.0014006943
-0.0012176502 0.017433703 -0.0023065135
-0.037695535 0.017429784 0.00027430058
0.0094316266 0.020014059 -0.0028874949
0.01737114 0.018764108 -0.0037933141
0.017754892 0.018699948 -0.0042430982
-0.045156434 0.019544866 0.0012855306
-0.044681855 0.019557875 0.0011918321
-0.043593682 0.019598765 0.0008013919
0.0028528553 0.019854229 0.0019414723
-0.041571081 0.019606121 0.0011189431
-0.040600903 0.019624315 0.0010356531
-0.039910965 0.019637283 0.00097317994
-0.022520194 0.019854752 0.00024435669
-0.021563632 0.019671785 0.00049044937
-0.013044266 0.019955158 -0.00036993623
-0.017340088 0.019823583 0.0011762157
-0.017596165 0.019885115 0.00027038902
-0.016532118 0.019884851 0.00036409497
-0.0074416045 0.020130748 -0.0024939254
-0.0067719836 0.020142419 -0.0026188642
-0.0030928943 0.020126311 -0.0021815747
0.00038972497 0.02008467 -0.0014215261
4.3671578e-05 0.020151196 -0.0023794025
-0.0052926634 0.019751895 8.8185072e-05
0.0057885684 0.020189077 -0.0026813373
0.006647829 0.020209596 -0.0029416308
0.0013402123 0.019812398 0.0024724677
0.0022856053 0.019811416 0.0025245324
0.010090126 0.020098852 -0.0026735291
0.012816754 0.020220838 -0.0029312223
0.013399249 0.020215921 -0.0028500184
0.014009178 0.020126149 -0.0029624552
-0.020240465 0.017544257 -0.00019033253
-0.016249349 0.017830651 -5.7578087e-05
-0.00036370754 0.018614959 -0.0026875883
-0.032641128 0.019334134 0.00078096241
-0.02542367 0.016903792 -0.00016690046
-0.03063832 0.019434284 0.0007115975
-0.016993249 0.013186091 0.00098879635
0.032840505 0.020089889 -0.0010883436
0.0038018059 0.018896693 -0.0015568733
0.014077783 0.019418564 -0.0027477071
-0.029546415 0.01935767 0.000436984
-0.01969534 0.019462731 -0.00058858097
0.015597322 0.019517789 -0.0024041384
-0.037676215 0.018539369 0.00030522048
-0.03653387 0.018434543 0.00051279366
-0.026648661 0.018445686 0.0002059564
0.0062620603 0.020245535 -0.0034622177
0.0076061096 0.020232096 -0.0032279566
0.0084372032 0.020316934 -0.0043992773
0.010634588 0.020258207 -0.0035090744
0.011404022 0.0202507 -0.0033841357
0.012366185 0.020240651 -0.0032201409
-0.026683835 0.017512489 0.00036132336
-0.025539497 0.017410129 5.9552491e-05
-0.02458117 0.017407171 3.4466386e-05
0.028601402 0.018598963 -0.0031669065
0.029363867 0.018785499 -0.0033685118
-0.020738734 0.017597072 0.00021104515
-0.012858456 0.014428361 0.00045637786
0.032432713 0.018765721 -0.0030930787
-0.014073381 0.017637555 -2.6345253e-05
-0.0031278227 0.018911747 -0.0020878688
-0.0044909921 0.018848119 -0.0014006943
-0.003693074 0.018750789 -0.0014007017
-0.0022838134 0.018920928 -0.0021503419
-0.0026083048 0.018797826 -0.0030873939
0.032452956 0.020194866 -0.002556406
0.03345402 0.020183342 -0.0024158433
-0.0023345929 0.017869812 -0.0016661957
-0.029432042 0.018624309 0.00025867671
-0.035648867 0.017390247 0.00098013133
-0.045152478 0.019767847 0.0012855306
-0.038564295 0.01642137 0.00040467083
-0.044520527 0.019784568 0.0011605993
-0.043505028 0.019816888 0.00086906552
-0.04157488 0.019826043 0.001129359
-0.040608324 0.019843198 0.0010512695
-0.039810948 0.019855 0.0010200366
-0.033531614 0.01981659 0.0010044128
0.032353312 0.017826738 -0.0026376098
-0.019496525 0.020068165 -0.00073850155
-0.015472041 0.020079676 -0.00064657629
-0.012316594 0.020214427 -0.0010883436
-0.010671744 0.020145629 -0.0014631674
-0.0076148082 0.020337686 -0.0025876388
-0.0066647697 0.020344153 -0.0026251152
0.0024931896 0.017892737 -0.0016505793
-0.002807511 0.020345448 -0.0024314597
0.00032921694 0.02029684 -0.0015724897
5.0274655e-05 0.020352721 -0.0024002194
0.005824035 0.020398498 -0.0028375164
0.006739324 0.020404894 -0.002899982
0.0011543781 0.019713908 0.0014104843
0.010042967 0.020415863 -0.0029624552
0.012826407 0.0204225 -0.0029936954
0.013375897 0.020401727 -0.0026813373
0.01404456 0.02038968 -0.0024939254
-0.025323944 0.020066842 -7.3201954e-05
-0.02341946 0.020075483 4.8875809e-06
-0.00054137595 0.019537795 -0.0035285875
0.0084333625 0.019679721 -0.0045519844
0.010499671 0.019849967 -0.0033060461
-0.031571724 0.019743335 0.00077327341
0.02131395 0.020435981 -0.0030873939
-0.012838604 0.020179 -0.00060419738
0.01086669 0.019729564 -0.0042847395
0.024743795 0.02041216 -0.0027438104
0.0065482091 0.018761657 -0.0036059022
-0.037205517 0.018440776 -5.7578087e-05
-0.038737543 0.018660653 -0.00040116906
-0.0084182974 0.020079624 -0.0018275827
-0.025266798 0.019863591 -0.00018251687
-0.0062597822 0.020174116 -0.0018879622
0.0008034911 0.020053949 0.00048904121
-0.036367103 0.017393295 0.00070039928
-0.03542459 0.017465344 0.00092243403
0.0035001542 0.020056073 0.00056712329
0.018094361 0.018884651 -0.0033685192
-0.031661108 0.017381776 0.00066863
0.0017386377 0.019776002 0.0030034706
0.028982095 0.018255193 -0.0029312223
-0.0057183485 0.019760957 -0.0014631748
-0.044798195 0.016669936 0.0010773018
0.0065064244 0.020488111 -0.0041181594
0.0063835904 0.020449176 -0.0035559312
0.0051994696 0.020119421 -0.0017130524
0.029411962 0.02032084 -0.0014631674
-0.00054087676 0.018747579 -0.0035442114
0.032851771 0.020277906 -0.00090093166
0.034361575 0.020368267 -0.0022440478
-0.0085869711 0.019249838 -0.00095559657
-0.044539481 0.020004718 0.0011918321
-0.02866544 0.019498775 0.011593156
-0.028701587 0.019428806 0.01266557
-0.013479481 0.017781589 -0.00028663874
-0.018521966 0.020179691 -0.0006287396
-0.015332842 0.020356834 -0.00035431236
-0.015161181 0.020334095 4.8875809e-06
-0.020854743 0.019375369 0.00012592226
-0.012847373 0.020331491 0.00021312386
-0.010652864 0.020436911 -0.0012367144
-0.017627252 0.019399269 -0.00016608834
-0.0067264047 0.020533305 -0.0024522766
-0.0056324136 0.020256257 -0.0014899373
-0.0046001095 0.020098284 -0.00040896982
-0.00018660165 0.020044608 -0.0027646348
5.6779012e-05 0.020554142 -0.0024210438
-0.03470397 0.019413102 0.012249097
-0.005317634 0.019364391 -0.00082805008
0.0068597719 0.020609409 -0.0029936954
0.0071506053 0.020310562 -0.0029546544
0.0088609774 0.020615449 -0.0030249283
0.010227196 0.020608123 -0.0028791651
0.012826679 0.020619692 -0.0029936954
0.013166824 0.020594396 -0.0026084632
0.014237277 0.020584911 -0.0024470761
-0.023527818 0.020271648 0.00021728128
-0.003393529 0.011841161 -0.0020878688
0.021100512 0.020318281 -0.0028140917
-0.015538877 0.017869661 -0.00042458624
0.022670111 0.020604096 -0.0026605129
0.021415878 0.020636734 -0.0031498671
-0.0047350507 0.018311737 -0.00085719675
-0.034644656 0.0126257 0.00098098814
-0.01807856 0.019936685 0.0025661737
0.0064287521 0.019506721 -0.0040765107
0.00077924691 0.020356445 0.00058273971
0.0026929509 0.020135321 0.00087947398
0.028389586 0.018264527 -0.0030249283
-0.017140044 0.018446907 -2.6345253e-05
-0.0066609401 0.019901354 -0.0020566359
-0.011575105 0.019502684 -0.0013944432
-0.0038235337 0.016635101 -0.00059379637
0.01752479 0.019661412 -0.0045242235
-0.034916185 0.018822476 0.0010356531
-0.0094308835 0.018690623 -0.0025720224
0.0043746289 0.020234555 -0.00050268322
0.029435856 0.02045808 -0.0005261153
0.032861117 0.020468784 -0.00074475259
0.03342719 0.02040749 -0.0003439039
0.033478212 0.020207062 -0.001697436
0.034278136 0.020465303 -0.00072392821
0.034094565 0.020239864 -0.0018223748
-0.044581324 0.020222846 0.0012542978
-0.029126732 0.019304821 0.014529265
-0.031485856 0.020076262 0.00086608529
-0.035511158 0.019563369 0.001145795
-0.034668751 0.019557677 0.0011814088
-0.034370221 0.019133789 0.00082740933
-0.020061763 0.020303277 6.7360699e-05
-0.015485505 0.02049301 0.0007545352
-0.021419628 0.020098411 0.00065302104
0.023730822 0.020754155 -0.0019316971
-0.01275116 0.020509347 0.00069206953
-0.011595802 0.020554163 6.7360699e-05
-0.011042995 0.020558454 3.6127865e-05
-0.010416942 0.020610951 -0.00074475259
-0.0179077 0.020118259 0.0005171448
-0.016413121 0.020095896 0.00034847856
0.029441696 0.020645842 -0.00030746311
-0.014583381 0.020412529 0.00044842809
-0.0064737853 0.020615332 -0.0017638132
-0.0059456397 0.020669781 -0.0014007017
-0.0053477529 0.020323571 -0.000585109
-0.0046709049 0.02032567 0.00079357624
-0.0046022069 0.020438787 0.0013390779
-0.0040428154 0.020489421 0.0015041828
-0.0037097968 0.02035222 0.00044218451
-0.0033743512 0.020186562 -0.0016193464
0.00032794289 0.020598847 -0.0015646815
0.0005609896 0.02032844 -0.00053860992
6.0342252e-05 0.020754781 -0.0024314523
0.0060254652 0.020795418 -0.0028375164
0.010466987 0.020746883 -0.00196293
0.010292614 0.020774895 -0.0024002269
0.012826939 0.02081687 -0.0029936954
0.013066832 0.020791892 -0.0026032552
0.014513218 0.020772286 -0.0022752807
0.014055872 0.020743482 -0.0018379912
0.01575022 0.020742107 -0.0017911345
0.020335723 0.020740734 -0.0017286688
-0.023863064 0.020453729 0.00064521283
0.008414289 0.020601055 -0.0042821392
0.0085281879 0.020454956 -0.0034136325
0.0094382409 0.020510595 -0.0029187426
0.0025518108 0.019536644 0.00059835613
-0.025651554 0.017745368 -0.00015127659
0.021607874 0.020828104 -0.0030717775
-0.022672387 0.020059306 0.00032348931
0.030290946 0.020935766 -0.0047897175
-0.021272318 0.020209381 0.0013948604
-0.0070501771 0.018896535 -0.0021503419
0.011457277 0.020589314 -0.0034742281
0.012340722 0.020654285 -0.0032964349
0.022471786 0.020799607 -0.0026313663
0.023396406 0.020466587 -0.0026266724
0.030275377 0.020963134 -0.0052113906
0.003575936 0.019514177 -0.0017390773
0.011586052 0.020911219 -0.0044773668
0.017390523 0.0208962 -0.0041493922
0.00072144531 0.020573419 0.00041095167
0.013524906 0.020682214 -0.00090093166
0.033309538 0.019837633 -0.0030873939
-0.0046832357 0.016664535 -0.00034181774
0.029321022 0.020519897 -0.0024314523
-0.026667671 0.01939155 0.00034379214
-0.010950843 0.018639712 -0.0011820421
-0.02867225 0.018538039 0.00010483712
-0.0014963597 0.018431101 -0.0023547858
0.032753374 0.020677669 -0.00085408241
0.033511497 0.020627424 -9.5054507e-05
0.034223273 0.020627011 -0.00010443479
0.0052941795 0.014183726 0.00020568073
-0.044282615 0.017438304 0.00088988245
-0.035049349 0.019990221 0.01056239
-0.0095420722 0.020823099 -0.0007994175
-0.0090653431 0.020743987 0.00050465018
-0.0087406728 0.020708801 0.0010903105
-0.008058114 0.02073589 0.00069206208
0.0071750637 0.018399417 -0.0026188716
-0.044600636 0.020443283 0.0012855306
-0.043645397 0.020340258 0.0010758191
0.018631153 0.01843971 -0.0027813092
-0.039848931 0.020180002 0.0010825023
-0.039219804 0.020208931 0.00072330236
-0.045145109 0.020213686 0.0012855306
0.00071917474 0.020778453 0.00042136014
0.0010536853 0.020241939 0.0014194027
0.00099956058 0.020746652 0.0009419471
0.0024028383 0.020014452 0.0026286393
-0.02746232 0.017461313 0.00018038601
0.004385462 0.020706005 0.0017124191
-0.040677905 0.020258861 0.0011094809
-0.030605452 0.019450763 0.015903614
0.0050768517 0.020782866 0.00050465018
-0.031087888 0.020631682 0.00037971139
-0.029525345 0.019978084 0.0007545352
-0.02861012 0.020055057 0.00035472214
-0.034637295 0.020341983 0.0013524666
-0.033528693 0.02027698 0.0012374818
-0.018726295 0.018648528 -0.0013538375
-0.018475873 0.018509109 -0.00050361454
-0.017589344 0.018453017 -0.00014276803
-0.030671986 0.020408593 0.0023319125
-0.029635681 0.020085376 0.0024100021
-0.014658263 0.018513888 -0.00024648756
-0.013587823 0.018693985 -0.00040969253
-0.020699145 0.020108761 0.00056712329
-0.012733137 0.018550389 -0.00062293559
-0.024549043 0.020567486 0.0021913573
-0.015330879 0.020693861 0.00091070682
-0.015592521 0.020686917 0.0010044128
-0.0066640582 0.018842403 -0.001469411
-0.0057576802 0.018838359 -0.0013616532
-0.012290483 0.020718243 0.00072329491
-0.01152336 0.020722035 0.00071080774
-0.010708088 0.020734068 0.00056712329
-0.017963039 0.020110983 0.0015666485
0.029390121 0.020851213 -0.00035431236
-0.014972979 0.020699292 0.00084824115
-0.014483156 0.020676348 0.0012542978
-0.013759026 0.0206016 0.0011543483
-0.0060286615 0.020819295 -0.00054172426
-0.005612256 0.020600704 0.00050074607
-0.0043229517 0.02074692 0.0007076785
-0.0048993211 0.02069563 0.0015041828
0.034292437 0.020782467 4.8950315e-06
-0.0022246558 0.020962069 -0.0026501045
0.0042318124 0.018906008 -0.0016505793
0.0053651314 0.018915055 -0.0017130449
-0.03862565 0.018386556 0.00036721677
0.00047204457 0.02084084 -0.00058858097
0.0070403647 0.021028742 -0.0033685192
6.384775e-05 0.02095536 -0.0024418682
-0.0447281 0.017520536 0.0011345595
-0.037660785 0.019303028 0.017496616
0.0064335037 0.020996358 -0.0028687492
0.0075434204 0.021001328 -0.0029156059
0.0014016889 0.02001033 0.0026494712
0.0098478179 0.02093963 -0.001869224
0.0031326711 0.020082848 0.0016603544
0.011026978 0.02100586 -0.0028999895
0.012822497 0.02101207 -0.0029624552
0.013069309 0.020990828 -0.0026188716
0.014611023 0.020969933 -0.0022596642
0.014158055 0.020944038 -0.0018536076
0.015633721 0.02093266 -0.0016505793
0.016276203 0.020956669 -0.0020254031
0.02040248 0.02090976 -0.0012445301
-0.030552784 0.020270996 0.0013256893
-0.0074646641 0.018288609 -0.0014725402
0.031549223 0.021001054 -0.0027750432
-0.042849697 0.01922651 -5.7578087e-05
0.024591539 0.020863995 -0.00051569939
0.031037606 0.021027096 -0.0031810999
0.026256846 0.020719841 0.00037971139
0.018506952 0.020742718 -0.0034518167
0.0067683309 0.021036047 -0.003493458
0.0082764514 0.021013351 -0.0030873939
0.011392314 0.021068951 -0.0038995147
0.017460287 0.021073449 -0.0038745254
0.018406499 0.021053225 -0.0035434365
0.02149101 0.021005226 -0.0027625561
-0.0011923984 0.020988323 -0.0030249283
-0.0075330865 0.020692445 -0.00077599287
-0.034885161 0.019420514 0.019995429
-0.033085659 0.019383788 0.020776309
-0.030745054 0.020739665 0.002253823
0.028401872 0.019596601 -0.0034983829
0.030399831 0.019706843 -0.0037359819
0.031516965 0.019869134 -0.0034684688
0.032512125 0.019752022 -0.0032373294
0.016753396 0.020864358 -0.0036652461
0.017078679 0.020883832 -0.0039619803
0.022466585 0.020989612 -0.0025126711
0.029652791 0.020828446 4.8875809e-06
0.032775708 0.020855524 -0.0004792586
0.033206262 0.020830475 -8.8818371e-05
0.011263646 0.016622193 -0.0031915158
-0.036504529 0.020068539 0.013092443
0.0064351559 0.019785177 -0.0036183968
-0.044344448 0.01858422 0.00088728219
0.0076450035 0.019753911 -0.0034231767
-0.0086821523 0.020909492 0.0012293085
0.0065103211 0.018356444 -0.0026063696
-0.030491469 0.015052059 0.0011293665
0.018643945 0.019241044 -0.0029208064
-0.027501768 0.018465893 0.00010690838
-0.014069332 0.012009067 0.0013792366
0.0044050999 0.020918917 0.0016291216
0.027010264 0.019918086 -0.0040556863
0.029539714 0.019915856 -0.0040556863
0.029338941 0.01968316 -0.0037433282
-0.043087497 0.018036714 0.046982653
0.031341814 0.015538062 -0.0021944195
-0.034583405 0.020752039 0.0015276074
-0.033574574 0.020762529 0.0014885589
-0.032676369 0.020294517 0.0012777224
-0.031489387 0.020166418 0.0043778196
-0.016238494 0.018533722 -0.00015127659
-0.045979425 0.01791635 0.048763074
-0.037150696 0.018194843 0.044796191
-0.0051567163 0.015334005 4.9509108e-05
-0.0026520845 0.019706905 -0.0032591894
