# .PCD v0.7 - Point Cloud Data file format
VERSION 0.7
FIELDS x y z
SIZE 4 4 4
TYPE F F F
COUNT 1 1 1
WIDTH 1335
HEIGHT 1
VIEWPOINT 0 0 0 1 0 0 0
POINTS 1335
DATA ascii
0.042029981 0.03567449 0.05465091
0.050431367 0.03596203 0.050918303
0.039370298 0.020447049 -0.00059606135
0.052322067 0.036184315 0.051839732
0.054549202 0.036955293 0.046842106
0.059174508 0.025128501 0.046326719
0.056547187 0.033319838 0.046913229
0.02680075 0.023647068 0.0072202235
0.043627717 0.026378097 0.047070123
0.046119075 0.029344305 0.046993069
0.044813044 0.026243618 0.046935804
0.050663229 0.03635367 0.051174425
0.054554153 0.037260778 0.046857722
0.044429794 0.032345027 0.047161542
0.052820183 0.035723668 0.051980294
0.042050429 0.034409598 0.058185689
0.0086755734 0.019454032 -0.0020722523
0.043430477 0.031468708 0.047402613
0.042061135 0.035214111 0.05497887
0.05456217 0.037567548 0.046888955
0.046570048 0.029344453 0.046946205
0.043007307 0.025880521 0.068160139
0.0013260711 0.023010338 -0.0025798157
0.056400042 0.025428416 0.046312846
0.040346779 0.032472931 0.060163938
0.054570228 0.037874512 0.046920188
0.048374489 0.02170784 0.037245072
0.046724513 0.029949918 0.046951421
0.023269055 0.021858392 -0.00022937357
-0.020600179 0.021746924 0.00049684197
0.018597493 0.024361914 -0.00046363473
-0.018528895 0.021458853 0.00014230609
0.053691566 0.023648415 0.059101932
0.054062441 0.031641144 0.051917829
0.054294787 0.034443349 0.051386826
0.054577235 0.022241164 0.062287919
0.036382973 0.021405566 -0.00037276745
0.037316442 0.021507876 -0.00049681962
0.050705265 0.03735888 0.051743813
0.048568062 0.031619925 0.040204622
0.040275507 0.022297416 0.060538746
0.043194365 0.023627717 0.068300702
0.039915852 0.038444757 0.059903644
0.054420386 0.02976343 0.052167706
0.023586543 0.022807121 -0.0006448105
0.046399996 0.030445565 0.047002517
0.042047694 0.035222054 0.058133639
0.056402549 0.026335202 0.04631979
-0.027204508 0.017733514 0.00098879635
0.053737916 0.036328845 0.046639077
0.054104052 0.032119703 0.052136458
0.04038997 0.02962115 0.060282625
0.042147882 0.033496957 0.055900313
-0.030950816 0.021888845 0.00097317994
0.042209249 0.030302277 0.056587495
0.052611955 0.030153703 0.052284844
0.054066453 0.038284853 0.048336186
0.053568631 0.024075363 0.045936279
0.042030908 0.035700746 0.057946227
0.04252021 0.03237709 0.047419958
0.043660723 0.032303333 0.047396518
0.039913945 0.035809021 0.059976511
0.015412048 0.018677171 0.00020168722
0.05338297 0.026445858 0.057290293
0.042683613 0.033443153 0.047494136
0.055439271 0.03042639 0.046832331
0.053102881 0.03938669 0.054416634
0.040405765 0.036466263 0.05990883
0.042018753 0.036181107 0.057805665
0.052798346 0.03273588 0.051933445
0.054037083 0.036339745 0.051657535
0.053891324 0.036687434 0.047451191
0.054108657 0.032466721 0.051574253
0.053209476 0.035749301 0.052386351
0.054265581 0.035154186 0.052948587
0.053997599 0.035543066 0.051464923
-0.0086441059 0.022756424 7.3604286e-05
0.053813826 0.021404509 0.048919238
0.024810925 0.024187168 0.0034095272
0.048706692 0.032412495 0.040142156
0.042707033 0.035579376 0.047646411
0.053760022 0.032609172 0.048528798
0.0416837 0.038512349 0.047232546
0.050399214 0.031348631 0.049523138
0.012151257 0.022852851 0.00016106665
0.053752929 0.030559063 0.046316318
0.053446751 0.021379523 0.00024601072
0.0544741 0.038543791 0.047201313
0.056441538 0.038503323 0.046993054
0.053656727 0.028445419 0.046378769
0.04344061 0.033443026 0.047443397
0.051013183 0.038584858 0.052490465
0.045455236 0.039235517 0.047478519
0.047285505 0.03924061 0.047419958
0.058424987 0.035692457 0.046951421
0.053052366 0.030396804 0.052526914
0.024550859 0.023487633 -0.00054485351
0.052176587 0.033364028 0.051995911
0.053950317 0.037592597 0.049419008
0.053556923 0.023474872 0.045873813
0.041501071 0.029263752 0.047193505
0.052433446 0.036757983 0.053417109
0.040434755 0.024278618 0.060465865
0.047284052 0.028475517 0.046885036
0.047333553 0.030404992 0.046935804
0.048857167 0.034630183 0.041032352
0.053039916 0.031098878 0.055228762
0.050852109 0.040245444 0.053417109
0.052666061 0.040206395 0.054666527
0.0088983327 0.018667001 -0.0021971911
0.053696036 0.035103854 0.046451665
0.055453017 0.035436213 0.046784841
0.057494514 0.035458036 0.046951406
0.058540225 0.021500483 0.046246909
0.053654313 0.0290494 0.046357952
0.017778963 0.024295613 0.0033470616
0.05906368 0.036386989 0.047013901
-0.0085775796 0.022335464 -0.00031896681
0.054089569 0.025266483 0.047076367
0.059049152 0.03440354 0.047006093
0.055471726 0.032270253 0.046848781
0.039915774 0.039432451 0.05986198
0.059190139 0.023310747 0.046399616
0.048463386 0.023386074 0.037807323
0.022260582 0.023404274 -0.00060642511
0.023411833 0.023276901 -0.00026997179
0.058427215 0.034734279 0.046988912
0.052997828 0.029492166 0.055010118
0.054149203 0.037431743 0.047154449
-0.010150651 0.023047853 -2.6345253e-05
0.03528323 0.030373542 0.029896997
0.0061871652 0.017450664 0.00054977089
0.039961364 0.020795438 0.056821756
0.041940533 0.039577886 0.053604521
0.05742773 0.037058048 0.046951421
0.058485709 0.039445009 0.047100656
0.053185388 0.02916133 0.054229237
0.055308655 0.037380595 0.046914496
0.059085414 0.037460413 0.047076367
0.040352367 0.034272101 0.059997343
0.042031955 0.038628355 0.057852514
0.055503234 0.02633352 0.046430849
0.052531451 0.031386241 0.054135524
0.054418173 0.038178161 0.046920188
0.055296555 0.034524154 0.046798714
0.053145576 0.038211126 0.054395817
0.03608454 0.021725871 0.00019229949
0.047194816 0.031466458 0.047013901
-0.022616236 0.017749704 0.0012007579
0.042564854 0.038559061 0.047634147
0.042694785 0.034206614 0.047576137
0.043576717 0.034390077 0.04753866
-0.0010579508 0.023138586 -0.0020878688
0.051165357 0.039926644 0.053385876
0.053511553 0.039772157 0.047794767
0.055393532 0.039422724 0.047128417
0.059124716 0.039457172 0.047180481
0.042442515 0.0221292 0.00010249764
0.051893689 0.019757727 -5.7578087e-05
0.052596852 0.037618577 0.054354168
0.057525456 0.038511787 0.046996526
0.0019573811 0.022176774 0.0013167709
0.056308061 0.020730928 0.00055671483
0.053737849 0.032292575 0.045764484
0.045511864 0.029343406 0.047010429
0.056317128 0.04018949 0.047076367
0.041605745 0.034495864 0.047357477
0.059105255 0.038229425 0.047138833
0.055359155 0.03639131 0.046865515
0.053061403 0.038974743 0.053260945
0.05635133 0.017815221 0.00064833462
0.041978039 0.041340571 0.057180963
0.053449713 0.020348117 0.00024351478
0.057497825 0.020371387 0.00062374771
0.048435569 0.024381353 0.03763292
0.045806915 0.028284686 0.046951421
0.058429211 0.03528269 0.046982653
0.059059829 0.035472028 0.047024302
0.05308713 0.030785328 0.055509873
0.00066352636 0.022466704 -0.00051829964
0.053503744 0.02924387 0.059914045
0.054184906 0.037119888 0.051574238
0.0056534261 0.018390218 0.00029120594
0.030160502 0.022934256 0.0031908825
0.048591882 0.034395546 0.040751226
0.043392196 0.027526664 0.047128417
0.053189356 0.041350201 0.054838322
0.04198147 0.038978077 0.054041825
0.040408809 0.039431728 0.059830748
0.053651452 0.031767529 0.046295486
0.055606369 0.031490747 0.046878524
0.057455495 0.031497769 0.046864651
0.045410842 0.037386686 0.047203235
0.054316692 0.034503605 0.046503715
0.042013787 0.032766968 0.057852514
0.029726779 0.021891655 -0.00091654807
0.041608628 0.035406601 0.047357477
0.043501161 0.035464138 0.047580041
0.047325231 0.041092347 0.047622986
0.053133793 0.029359285 0.056759275
0.055576921 0.033538628 0.046813451
0.042070828 0.037354372 0.058300219
0.050729737 0.039443992 0.053349428
0.052640557 0.039554201 0.054541595
0.040411055 0.041409239 0.059768282
0.053909801 0.032966368 0.046014376
0.04172571 0.039282009 0.047163837
0.053945616 0.036355268 0.049434625
0.05351809 0.040386789 0.047805183
0.051481713 0.040738568 0.055322461
0.015578926 0.022800237 0.0014417097
0.054316297 0.029357646 0.046611302
0.04936292 0.035253868 0.044202723
0.0434695 0.015432321 0.00063220412
0.048337877 0.025288036 0.037555866
0.039913207 0.036467049 0.059945278
0.047222748 0.036322996 0.047081582
0.0057815965 0.022604197 0.0010981187
0.050544344 0.020373806 1.8931925e-05
0.058413669 0.03415722 0.04694248
0.046395026 0.0403191 0.047589175
0.055662278 0.037886679 0.046982653
0.04730738 0.026322046 0.046802185
0.052785758 0.036377911 0.05237595
0.054135669 0.036888182 0.050449766
0.056323141 0.040649198 0.047086768
0.042096883 0.034433972 0.055361502
0.058438562 0.036685832 0.046982653
0.054419205 0.039472081 0.047468238
0.04186888 0.028206302 0.056446932
0.042680919 0.036280621 0.047663592
0.043509666 0.036252372 0.047580607
0.044374444 0.03740111 0.04746943
0.053870104 0.027259747 0.058196105
0.041875951 0.041098662 0.052886121
0.042026274 0.039490536 0.057758801
0.056414548 0.039394747 0.047033764
0.014383301 0.018772595 0.00026102364
0.041610692 0.03631711 0.047347061
0.04039209 0.025335323 0.060351335
0.042597361 0.042302586 0.047763549
0.0531976 0.042316154 0.054843538
0.045386836 0.034495682 0.047110192
0.053743552 0.03552464 0.045873813
0.048158262 0.026362553 0.037679769
0.053120509 0.040570945 0.048169591
0.055413038 0.029362364 0.046717159
0.054400217 0.042507894 0.047458999
0.051003769 0.03936768 0.052401967
-0.0038603544 0.023041628 0.0016213134
0.059169024 0.026339389 0.046295486
0.050082415 0.042321753 0.050449766
0.051085725 0.041495819 0.054838307
0.053331695 0.041341066 0.048159175
0.056588605 0.037771214 0.046982653
0.058449224 0.03745069 0.047006063
0.054377314 0.040359404 0.047432981
0.047032878 0.029497301 0.046982653
0.042564668 0.037408307 0.047677644
0.043786772 0.037412882 0.047669835
0.039914422 0.037455741 0.059924461
0.040406562 0.037454516 0.059882812
0.051884361 0.020068126 -8.8818371e-05
0.056381702 0.043118693 0.047263779
0.042238157 0.031599347 0.056852989
0.058382958 0.032413371 0.046843819
0.056354582 0.04249388 0.047159664
0.046432838 0.043089427 0.047740109
0.054149278 0.035290457 0.046139307
0.041987136 0.040538758 0.05731111
0.041610137 0.037377533 0.04730282
0.0155116 0.023040939 0.0014312938
0.056335174 0.04141688 0.047112785
0.042002194 0.033411875 0.057717167
0.044417582 0.040318914 0.047708027
0.042479035 0.022689635 0.047138833
0.048189003 0.027333504 0.037737049
0.053643495 0.032671988 0.046233021
0.031666555 0.022935998 0.0086882785
0.041591678 0.041601386 0.046935804
0.041981809 0.041830193 0.05719658
0.058550157 0.043442883 0.04722213
0.057334173 0.027395185 0.046352752
0.05846677 0.038523212 0.047048606
0.053610433 0.041236259 0.047849439
0.054388031 0.041432824 0.047443382
0.041591879 0.042358011 0.046899371
0.040408462 0.038443737 0.059867196
0.049982488 0.021819398 -0.00012005121
0.0062219556 0.021428451 4.8875809e-06
0.050288614 0.043347456 0.051720001
0.054927669 0.022239203 0.062350385
0.05201624 0.04153144 0.058617778
0.043608584 0.038601499 0.047669835
0.053690001 0.033053383 0.048138358
0.050684191 0.04112681 0.054354168
0.022135183 0.021735214 0.00018449128
0.016443305 0.018395446 0.00034438074
0.053734578 0.027258651 0.057415225
0.045465194 0.024511231 0.046691127
0.053209782 0.026136341 0.054401018
0.049308471 0.042618759 0.047451191
0.050606925 0.038591646 0.052604996
0.05354777 0.042443961 0.047754623
0.0062833484 0.022221202 0.00049840659
0.05033141 0.04484421 0.051917829
0.051053219 0.044513337 0.054489516
0.039913952 0.046176136 0.059492372
0.053053916 0.038654476 0.053229712
0.012181172 0.024524959 -0.0034934506
0.042043194 0.036684327 0.058039926
0.042567976 0.039386515 0.047628202
0.043493573 0.03939715 0.047701083
0.044377044 0.033401396 0.047227733
0.047236562 0.037391141 0.047142737
0.018124625 0.024364982 0.00067644566
0.041957531 0.044342037 0.053542055
0.045421977 0.028478947 0.047000505
0.044349007 0.034504674 0.047354005
0.026343998 0.018458482 0.00019540638
0.05641488 0.036364418 0.046935789
0.055509876 0.044365704 0.047496311
0.05748143 0.039462581 0.047045119
0.039916776 0.040421151 0.059830748
0.020724185 0.017584093 -2.6345253e-05
0.051289029 0.041361839 0.055103816
0.047296964 0.039703816 0.047482423
0.0492514 0.043945991 0.047013901
0.058316626 0.045317911 0.047485895
0.058428995 0.036291506 0.046951406
0.053615704 0.04445143 0.047724493
0.047342457 0.042476136 0.047680251
0.042489734 0.041484993 0.047753133
0.058968969 0.030436467 0.046732776
0.054319289 0.033479605 0.046397708
0.045435771 0.038463559 0.047357492
0.04194025 0.042425036 0.053469174
0.057397079 0.040349115 0.04705032
0.058499016 0.040365502 0.047124945
0.059143081 0.040227763 0.047232546
0.053598553 0.043370049 0.047685452
0.054421544 0.043436617 0.04752668
0.041596904 0.040395789 0.047045134
0.042205743 0.032394491 0.056509413
0.042581283 0.040309854 0.047711484
0.043692306 0.040261917 0.047794782
0.040244587 0.040419705 0.059799515
0.051924698 0.0472591 0.055728517
0.054062303 0.037362389 0.048346601
0.042153269 0.043226689 0.047563635
0.044391043 0.038474921 0.047565736
0.041719418 0.047096748 0.057571404
0.025394838 0.022362273 0.0003157407
0.055375326 0.045419864 0.047607385
0.055416577 0.040347032 0.047208242
0.043123975 0.022605827 0.046566181
0.041591 0.043415897 0.046834297
0.039904784 0.046655491 0.059351809
0.049917631 0.046070643 0.049200363
0.049278073 0.043053795 0.047232546
0.047330387 0.03347937 0.047042288
0.047265142 0.046473764 0.04773622
0.051107567 0.042425331 0.052917354
0.039915517 0.045356154 0.059560038
0.055439327 0.042492766 0.047229074
0.039893154 0.048114963 0.059117533
0.041550867 0.047670573 0.055759765
0.041980468 0.043417692 0.053823166
0.053236507 0.046510726 0.054859154
0.04440482 0.039396591 0.047642089
0.055421691 0.041416381 0.047188275
0.057414662 0.041424148 0.047088064
0.058490947 0.041483976 0.047170065
0.054448672 0.044370368 0.047623001
0.050917119 0.043778181 0.053667001
0.04175432 0.04146133 0.047045119
0.043828197 0.041400656 0.047857247
0.039918855 0.041411094 0.059809916
0.053242527 0.021120524 0.05647818
0.051289469 0.042484172 0.055056967
-0.02120609 0.018750994 0.0010044128
0.052426219 0.02978351 0.053542055
0.049919814 0.045763802 0.049231596
-0.0017263535 0.021488272 -0.00094201416
0.042052958 0.038156107 0.05808679
0.053235065 0.047472108 0.054796673
0.055455465 0.046455692 0.047672085
0.054394256 0.031469367 0.046339221
0.042055592 0.046460409 0.057706751
0.050100051 0.046844669 0.050324835
0.05895178 0.029524015 0.04667031
0.044544253 0.022014383 0.00028600544
0.05743666 0.04250247 0.047144018
0.058542207 0.042522237 0.047229074
0.053523812 0.045423221 0.047806494
0.054364178 0.045419779 0.047689073
0.041916858 0.042229619 0.0471076
0.029538017 0.022479223 0.00031099468
0.046388596 0.025415674 0.046770953
0.042277493 0.042743023 0.047607385
0.043716371 0.042415384 0.047900982
0.039918564 0.042398386 0.059757866
0.040327311 0.042312834 0.059711017
0.05149284 0.042993523 0.055291228
0.051689431 0.044417243 0.056446932
0.05746698 0.021389967 0.00068213791
0.045524389 0.031463567 0.047069423
0.041901805 0.044908546 0.052948587
0.042046707 0.03929079 0.05797746
0.053241186 0.048439607 0.054775827
0.044431824 0.041396029 0.047776572
0.045340832 0.041392528 0.047688074
0.052760117 0.019336417 2.3633242e-05
0.054090571 0.035008386 0.050262354
0.041861773 0.045489173 0.052511297
0.050730787 0.042701151 0.05254253
0.057455696 0.043428153 0.047190882
0.053499747 0.046390302 0.047833823
0.054334924 0.046538886 0.047725372
0.040416375 0.0264236 0.06024202
0.059084609 0.020606695 0.045920663
0.057554577 0.037633218 0.046982639
0.03991935 0.043386925 0.059716217
0.040245388 0.04338292 0.059664167
0.042209424 0.04369995 0.059445508
0.05146509 0.043937929 0.055072583
0.04181869 0.046063103 0.05204276
0.058442906 0.049081054 0.047857247
0.04143931 0.049257614 0.052261405
0.039879918 0.048749067 0.05891452
0.057504945 0.049068905 0.047857247
0.047082491 0.048924491 0.047654219
0.045491412 0.026319962 0.046885468
0.042474467 0.04355181 0.047982194
0.044444926 0.042473745 0.047832958
0.04643333 0.031464633 0.047024302
0.047217898 0.03541154 0.047076367
0.04235024 0.025591044 0.061413325
0.045516938 0.030402923 0.04703211
0.04919694 0.048449628 0.046399601
0.056533135 0.047497168 0.047777437
0.051018491 0.047359969 0.054114692
0.052465241 0.047369249 0.054773621
0.039880261 0.049569201 0.05886247
0.059023961 0.033332769 0.046920188
0.04531306 0.039698139 0.047544889
0.047311671 0.040321931 0.047560535
0.058356121 0.046414278 0.047609992
0.053254023 0.049413212 0.054791473
0.055368509 0.048386686 0.047819771
0.055509046 0.043426111 0.047341876
0.044358466 0.036329448 0.047374852
0.041527696 0.049860131 0.05204276
0.041483968 0.050104327 0.051574238
0.056442395 0.048460342 0.047831692
0.058415264 0.022792684 0.00077795982
0.046496835 0.038463242 0.047284596
0.053753987 0.035521686 0.048419483
0.051580623 0.048530076 0.055541106
0.042179298 0.03302826 0.056228288
0.043038942 0.021543188 0.068488114
0.040207781 0.049568087 0.058841623
0.056389429 0.022408245 0.046264254
0.058424257 0.04845354 0.04780867
0.052597657 0.031565316 0.052175514
0.053387992 0.030844502 0.045717634
0.05337587 0.021415528 0.057259046
0.041874491 0.040782325 0.052886121
0.042634219 0.044627354 0.047982194
0.042115085 0.044363584 0.047638603
0.039920349 0.044375636 0.059674583
0.04024639 0.044371352 0.059622519
0.042219959 0.044369489 0.059518389
0.050227262 0.049455818 0.050980769
0.051565524 0.045779169 0.055603571
0.042073924 0.030588884 0.057404809
0.053229332 0.045543015 0.054869555
0.041408639 0.046603385 0.047872864
0.0500657 0.03540273 0.046701543
0.040220164 0.048112534 0.0590863
0.055400807 0.021365255 0.045920663
0.05327446 0.051036783 0.054807089
0.0574416 0.03043299 0.046818666
0.056469604 0.028454771 0.046625175
0.049444549 0.022130009 6.7360699e-05
0.041849904 0.04760265 0.05891452
0.041723832 0.046252772 0.051074468
0.057332002 0.044360496 0.047295012
0.058394469 0.04435296 0.047371708
0.058932319 0.044707902 0.047482423
0.053591147 0.047473844 0.047846846
0.054356813 0.047473926 0.047787838
0.046436023 0.032373365 0.047024302
0.041599441 0.04448469 0.046857722
0.042968281 0.048631445 0.047982194
0.056496404 0.029365914 0.046743192
-0.0054233354 0.012454496 0.0027275681
0.044467062 0.044324398 0.047919713
0.042642929 0.02646759 0.047240354
0.052073017 0.049488425 0.056509398
0.053902 0.038961321 0.04910665
0.05195085 0.050670188 0.055681668
0.044459015 0.043401375 0.047902368
0.041762583 0.049420673 0.048153974
0.056398984 0.043586358 0.047326244
0.050927285 0.037915669 0.051980294
0.050100502 0.043422908 0.050512247
0.053216629 0.044411737 0.054853939
0.046448819 0.028398708 0.046908461
0.047253083 0.050166078 0.047690652
0.053265437 0.050386339 0.054796688
0.055317648 0.049345836 0.047819071
0.042147562 0.045049958 0.047701068
0.053211622 0.043286234 0.054879971
0.046410829 0.041396081 0.047658123
0.051993266 0.046991423 0.056165822
0.043713182 0.045860011 0.047950946
0.044473745 0.045399345 0.047914512
0.044228099 0.026418913 0.047059007
0.04131614 0.047386393 0.046888955
0.049180523 0.044497468 0.046524547
0.050043769 0.040278424 0.050293587
0.043599598 0.029405607 0.047320001
0.044458389 0.029343128 0.0471128
0.041660193 0.046479858 0.050418533
0.041996576 0.038354836 0.054218821
0.050759777 0.022490293 0.0016603544
0.053889439 0.031605776 0.045936279
0.058946289 0.045328468 0.047513656
0.054372516 0.048405491 0.047815599
0.041637421 0.049391083 0.04999686
0.045430973 0.022408653 0.046423905
0.047251299 0.022408064 0.046413489
0.046466663 0.039423898 0.04747618
0.042408817 0.045523208 0.048055075
0.051557511 0.046578258 0.055509873
0.052011248 0.046358254 0.05631157
0.053603239 0.048402905 0.047857247
0.041498024 0.050956793 0.05497887
0.051617473 0.052111987 0.055541106
0.052816488 0.052023403 0.054916404
0.042363267 0.046501741 0.04821422
0.054158237 0.038608268 0.050512232
0.04916241 0.045391005 0.046357952
0.050019309 0.041349657 0.050090559
0.053117093 0.037527576 0.054379158
0.043059714 0.026016071 0.046888955
0.046319127 0.048313938 0.04773926
0.058449119 0.049546614 0.047857247
0.045395471 0.036317352 0.047120593
0.042063717 0.044842798 0.057883747
0.058979869 0.046421356 0.04760737
0.054380711 0.049331971 0.047801726
0.051856823 0.043720327 0.05752454
0.039880857 0.05055356 0.058799975
0.056758195 0.050928906 0.047904097
0.041477792 0.047435269 0.051691376
0.042046063 0.043195315 0.057790048
0.050440423 0.044454217 0.052636243
0.057374917 0.045303181 0.047451191
0.041606225 0.04509823 0.046888955
0.041910917 0.04160545 0.053214081
0.04336701 0.045339879 0.048024587
0.040240519 0.045350406 0.059497572
0.057464354 0.047505334 0.047756605
0.058396615 0.047513768 0.047735788
0.053254291 0.050531797 0.048025914
0.042644672 0.046775825 0.047950946
0.044478282 0.046472546 0.04788848
0.045394924 0.046473317 0.047843374
0.043737449 0.049401864 0.047935329
0.044499964 0.049399577 0.047880672
0.045413658 0.049395617 0.047805198
0.044465624 0.031462833 0.047133617
0.041523449 0.048833676 0.050465383
0.049162138 0.046449732 0.046295486
0.052737862 0.038248509 0.054213621
0.046329342 0.049394414 0.04774534
0.046460062 0.036320072 0.04709024
0.052563481 0.044510048 0.054822706
0.058977939 0.031500753 0.046753608
0.056455508 0.045301478 0.047517128
0.053286735 0.051530108 0.05484613
0.055334579 0.050433829 0.04783643
0.046443783 0.033435427 0.047055535
0.042140804 0.046301454 0.049044184
0.051034804 0.052321963 0.053901263
0.057488188 0.034391813 0.046951406
0.042371478 0.047416124 0.047865056
0.042049177 0.047101267 0.048107125
0.05056943 0.040333327 0.052636243
0.051006351 0.040156253 0.052386351
0.045399427 0.047394052 0.047822542
0.046316966 0.047395598 0.047780909
0.047234375 0.047396965 0.047735788
0.041432109 0.050450929 0.047846831
0.056413136 0.04435835 0.047357477
0.043776028 0.050421108 0.047932215
0.044509068 0.050480928 0.047881536
0.045423932 0.050477706 0.047812141
0.053148255 0.039728172 0.054666527
0.041912839 0.040344127 0.053292163
0.051680405 0.047970612 0.056197055
0.05643177 0.034415051 0.046924345
0.042470645 0.051217742 0.04832577
0.057416849 0.029368272 0.046718888
0.051872581 0.045361783 0.057540156
0.043405287 0.04646733 0.047906704
0.041546963 0.047363624 0.047369979
0.041754499 0.048491694 0.048138358
0.042335432 0.04844486 0.048240997
0.049967349 0.04533875 0.049559571
0.041780066 0.051436339 0.048180021
0.043907158 0.051411621 0.047930114
0.044519186 0.051411733 0.047898896
0.045435403 0.051409505 0.04783643
0.04635448 0.051411148 0.047794782
0.047263391 0.050636377 0.047732316
0.049202174 0.050423905 0.046303295
0.051999558 0.051201671 0.055947162
0.047145411 0.048267554 0.047674306
0.059177659 0.024674246 0.046342336
0.045324378 0.040314641 0.047607385
0.041449402 0.048332222 0.051339976
0.057423364 0.046405125 0.047623001
0.053462215 0.049332902 0.047878064
0.041746598 0.046494365 0.048190437
0.040236637 0.046331163 0.059393458
0.041507795 0.050652668 0.055103816
0.054027334 0.034286279 0.048252903
0.051747799 0.047407396 0.055634819
0.051672313 0.047640264 0.056165822
0.041424487 0.049676046 0.047826014
0.042484 0.049448863 0.048190422
0.042165592 0.04925701 0.049091049
0.041786976 0.052059837 0.048200838
0.042420164 0.052093595 0.048367418
0.043911263 0.052029062 0.047919713
0.053165652 0.048420899 0.048013426
0.047279291 0.051419616 0.04779131
0.041468911 0.05054912 0.051386826
0.049202733 0.051484726 0.046233021
0.053340912 0.052354645 0.054916404
0.045388386 0.045398276 0.047854654
0.04132358 0.048771672 0.053292178
0.046450052 0.034497757 0.047072895
0.041772019 0.050505586 0.048169605
0.041622475 0.046691276 0.053229697
0.04202456 0.042522542 0.057602622
0.050117649 0.047171082 0.050418533
0.051077478 0.043410756 0.054697759
0.058354259 0.030434672 0.046750985
0.049907297 0.050071567 0.048888005
0.043306418 0.05219315 0.04800301
0.045444578 0.052186254 0.047852047
0.047228113 0.052166097 0.047813527
0.041465368 0.051324517 0.051293112
0.049204625 0.052092664 0.046201773
0.056414671 0.049364015 0.047849439
0.057500422 0.03637246 0.046951406
0.042178117 0.05158459 0.049044184
0.049952824 0.048418023 0.049286254
0.056533903 0.031494755 0.04688894
0.054397956 0.050420061 0.047823422
0.04158577 0.048525386 0.056072108
0.051018622 0.049274497 0.054000176
0.059120685 0.050357006 0.048013426
0.05360318 0.052459627 0.048232071
0.046459496 0.045401163 0.047814287
0.042063244 0.045493469 0.057842098
0.059020959 0.047521044 0.047732301
0.053650506 0.050352082 0.047870629
0.047243521 0.021506775 0.046354495
0.054434158 0.032378122 0.046368368
0.058365896 0.031499095 0.046784826
0.042015273 0.028543763 0.057946227
0.053365916 0.051532615 0.048060276
0.041306149 0.053481638 0.052761175
0.041465867 0.052418239 0.05121503
0.025676819 0.023472562 0.0013323799
0.025586706 0.023046596 0.00041094422
0.047366008 0.044325028 0.047753133
0.05106324 0.050274745 0.054218821
0.053300411 0.053150307 0.054814897
0.053912979 0.03804069 0.049200363
0.060255691 0.021345319 0.00071914494
0.046455145 0.035408698 0.047083296
0.056386612 0.050385557 0.047866173
0.056479953 0.032407023 0.046907671
0.051873542 0.044873465 0.057571404
0.056408111 0.035450283 0.046930574
0.043919489 0.052958816 0.047919713
0.04392961 0.053280339 0.047982194
0.058425166 0.051358804 0.047919713
0.04714708 0.053128637 0.047826014
0.049473353 0.05265934 0.045920663
0.055340886 0.053290021 0.047994681
0.056495786 0.053274345 0.047990002
0.057437196 0.053290181 0.048001714
0.058542594 0.053313483 0.048039459
0.056362338 0.02150712 0.046128906
0.052018441 0.051543605 0.056040876
0.039893448 0.05352769 0.058727108
0.05200275 0.054798197 0.057758816
0.042426672 0.052564166 0.048393451
0.043310393 0.052658144 0.04800301
0.044526231 0.052338965 0.04788848
0.052680001 0.040693596 0.054728992
0.053164404 0.040376283 0.054734193
0.051854834 0.054959413 0.056821756
0.041629404 0.05324427 0.049627237
0.055356123 0.051526934 0.047874607
0.047375228 0.045401335 0.047759645
0.051007122 0.041927122 0.054322936
0.053009897 0.036737002 0.0530423
0.052135743 0.053284414 0.05664476
0.053151853 0.047489554 0.047992609
0.046473421 0.037387997 0.047151841
0.049929403 0.050556801 0.048997335
0.052418374 0.046498004 0.054819219
0.042552754 0.051753193 0.048185222
0.056413367 0.027393365 0.046363167
0.040224105 0.047298092 0.059185229
0.055704348 0.053100303 0.047950946
0.040207475 0.050550811 0.058768742
0.041831728 0.050525121 0.05852928
0.041563995 0.048131697 0.047794767
0.045455456 0.053119011 0.047867663
0.046376817 0.053122573 0.04783643
0.054342907 0.036329448 0.046587013
0.058398947 0.033328451 0.046895884
0.050017685 0.053899989 0.049325295
0.053443931 0.052989252 0.049262829
0.041487552 0.051578917 0.054822706
0.045403749 0.048314925 0.047798254
0.052162584 0.054288696 0.056738459
0.05349689 0.022346459 0.0004747808
0.059089683 0.049103655 0.047950946
0.057488285 0.048442721 0.047815599
0.053809009 0.051516335 0.047930114
0.047147609 0.05358845 0.047794782
0.049211957 0.053161383 0.04617054
0.050166503 0.049708933 0.050574712
0.051019739 0.045445926 0.054229237
0.052452419 0.0455717 0.054830514
0.049885038 0.052513279 0.048575662
0.059065282 0.048471969 0.047878064
0.059102952 0.049574547 0.047982194
0.056358941 0.051513098 0.047897853
0.050120521 0.049975097 0.050262354
0.051009819 0.046395648 0.054114692
0.052438393 0.032362442 0.052064635
0.051726535 0.052709304 0.056181438
0.053156383 0.052362781 0.05497887
0.049207687 0.049369082 0.046410017
0.056495469 0.046398729 0.047654234
0.043911688 0.052488308 0.04788848
0.052702297 0.041346144 0.054833107
0.049209796 0.052552961 0.046201773
0.047365949 0.034501165 0.047069423
0.047331408 0.041706 0.047638603
0.058420226 0.027397493 0.046387248
0.041792229 0.052527964 0.048216455
0.056018941 0.053260535 0.047950946
0.042168707 0.054796305 0.058289804
0.059145659 0.05114571 0.048075892
0.039888747 0.052535027 0.058747925
0.055519111 0.023421323 0.046380676
0.052675568 0.037108198 0.053885646
0.051739633 0.053209163 0.056228288
0.041638054 0.052641213 0.049762599
0.053310968 0.054452509 0.055498175
0.057378151 0.0284563 0.046548836
0.047144458 0.052666098 0.047841631
0.052439243 0.049402125 0.054774098
0.020260489 0.023801111 0.0023631528
0.049967226 0.047503419 0.049434625
0.05652076 0.030430362 0.046844684
0.041632317 0.053867809 0.04960642
0.042567797 0.053308912 0.048206024
0.045354784 0.042470098 0.047746204
0.04989513 0.051445931 0.048716225
0.053672671 0.028878588 0.057040401
0.051026694 0.050877601 0.053948112
0.056353353 0.037279189 0.04694856
0.053669922 0.053526476 0.04816439
0.048398457 0.030079257 0.039158233
0.041486494 0.05253613 0.054739408
0.053140309 0.046560757 0.047982194
0.039897837 0.047301777 0.059226863
0.052436776 0.043346308 0.054897659
0.041421287 0.053118557 0.050699659
0.053590402 0.035975717 0.045858197
0.049930781 0.052255675 0.048888005
0.051595084 0.050477363 0.055509873
0.052088227 0.049989209 0.056571878
0.049180061 0.0475251 0.046347536
0.041590773 0.032520413 0.047263779
0.04998425 0.046435632 0.04960642
0.052631304 0.042392544 0.05484613
0.044353187 0.035416517 0.047360934
0.048848853 0.053542934 0.045764484
0.0424072 0.050438717 0.048367418
0.042214651 0.054111332 0.049200363
0.043205973 0.050535627 0.048013426
0.051014237 0.048313402 0.054031409
0.058557771 0.05378874 0.048075892
0.052352771 0.052202508 0.055049159
0.051586844 0.051436476 0.055395357
0.057510998 0.049534254 0.047857247
0.041821152 0.053957749 0.04838825
0.043408867 0.04738719 0.047880672
0.056643821 0.052807517 0.047982194
0.052460048 0.051347136 0.054774098
0.042631857 0.045233391 0.06728556
0.041438423 0.051987164 0.047794782
0.054461926 0.05278112 0.04800301
0.056277726 0.052443858 0.047935329
0.046367697 0.052345604 0.047826014
0.047259226 0.038465641 0.047263779
0.041724406 0.053461678 0.048232071
0.043461088 0.048288703 0.047914036
0.044490978 0.04831931 0.047878064
0.045391023 0.035406239 0.047115393
0.048371058 0.03240018 0.039861031
0.040215373 0.051548399 0.058789574
0.044485137 0.047396239 0.04788848
0.054421972 0.051515408 0.047878064
0.05213882 0.055400208 0.056509398
0.051092826 0.041783877 0.052854888
0.054443922 0.052303251 0.047940545
0.041367076 0.054105811 0.050059326
0.041472245 0.053149827 0.05454158
0.050208703 0.054435365 0.050512247
0.055423371 0.053740457 0.048065476
0.050159484 0.041706879 0.048981719
0.051816709 0.054266289 0.056634344
0.048838034 0.053831745 0.045670785
0.04918202 0.053882465 0.045920663
0.055438228 0.054216489 0.048107125
0.039889462 0.051552899 0.058831207
0.055382915 0.052472584 0.047947474
0.041691866 0.045661237 0.047701068
0.042026155 0.037422538 0.054551996
0.041846476 0.0541519 0.05841475
0.047092486 0.049546324 0.047685467
0.055440452 0.047482647 0.047763549
0.043357171 0.053357191 0.048091508
0.044088922 0.053748909 0.047990002
0.057474315 0.033324458 0.046913229
0.042214029 0.054418579 0.049169131
0.044548638 0.054208092 0.047930114
0.045470156 0.054211367 0.047898881
0.053652849 0.054186925 0.048250817
0.042190939 0.053453457 0.049023367
0.048364021 0.0331182 0.039798565
0.053318404 0.054733217 0.050199889
0.040215496 0.052532025 0.058716692
0.045368679 0.043396674 0.04780867
0.041393612 0.055230327 0.053542055
0.056351002 0.053744286 0.048013426
0.04313039 0.049407981 0.048005618
0.05882027 0.051748455 0.047982194
0.053772986 0.054708451 0.048357017
0.05449193 0.054348182 0.048048131
0.05167333 0.056048162 0.055603586
0.055363409 0.038496815 0.047010414
0.052545477 0.038557064 0.053385876
0.045461524 0.053739674 0.047867663
0.041436873 0.051374178 0.047826014
0.050789293 0.055441357 0.054166757
0.051656879 0.055382621 0.055551521
0.05328507 0.055352986 0.055279516
0.043303039 0.05142346 0.048030771
0.051021259 0.054380789 0.053667001
0.051021688 0.053424463 0.053739883
0.046374999 0.046476509 0.047810398
0.046383142 0.053743288 0.04783643
0.042478949 0.02299184 0.047138833
0.057491675 0.052385882 0.047950946
0.045450974 0.052653834 0.047867648
0.05421257 0.028378025 0.061454974
0.052579068 0.052589655 0.054916404
0.044600319 0.053367313 0.047913469
0.057268586 0.052738622 0.047982194
0.051030215 0.051519416 0.053927295
0.042045586 0.036480431 0.054781057
0.053570881 0.054982491 0.049825065
0.045378417 0.044320628 0.04783643
0.046448857 0.044323236 0.047794782
0.058417447 0.054417595 0.048107125
0.058465786 0.050327614 0.047885008
0.049666889 0.052575201 0.047170065
0.059235148 0.054457642 0.048252903
0.04020657 0.048746549 0.058883287
0.041365955 0.055651277 0.053214081
0.052515738 0.055362724 0.055384941
0.041628506 0.054388914 0.048481949
0.042610541 0.054302339 0.048528813
0.043316297 0.054438822 0.048166744
0.045474868 0.054677606 0.047898896
0.052510601 0.054342836 0.05542957
0.051038366 0.055198058 0.053713851
0.042497948 0.048004515 0.047935329
0.047159076 0.054522321 0.047805198
0.057459787 0.051451184 0.047915243
0.046439186 0.043552168 0.047763549
0.041841626 0.055452276 0.058258571
0.05170273 0.056406319 0.05575975
0.052322112 0.056212422 0.055561937
0.057322171 0.055020064 0.048075892
0.050122939 0.044996023 0.050574712
0.053800307 0.055045471 0.048481949
0.055434816 0.054675151 0.048055075
0.049193002 0.053593092 0.046014376
0.042630002 0.055104777 0.048645936
0.043359641 0.055189591 0.048242487
0.044103086 0.055149369 0.04799781
0.04385563 0.043407798 0.047992609
0.040232807 0.057156645 0.058539696
0.039897401 0.055502545 0.058612578
0.041454084 0.055029914 0.054197989
0.058271803 0.052433454 0.047935329
0.039894018 0.054512173 0.058654211
0.040220819 0.05450891 0.058622979
0.04022425 0.055499151 0.058581345
0.052484207 0.053137537 0.054796673
0.051787905 0.056832328 0.05625952
0.054496378 0.055122159 0.048013426
0.051571682 0.049488787 0.05542659
0.040228784 0.056492206 0.058550112
0.054057106 0.038894027 0.048263304
0.053266838 0.05634572 0.055336364
0.058270477 0.055195466 0.048096709
0.039823048 0.056585424 0.058617778
0.041520298 0.054676294 0.049460642
0.042210169 0.054719884 0.04910665
0.052338757 0.056716785 0.055624403
0.059213579 0.053821653 0.048200838
0.053337529 0.053670049 0.054994501
0.053544275 0.055887625 0.04960642
0.057329535 0.055489521 0.048075892
0.058442578 0.028458301 0.046477698
0.046424542 0.042473033 0.047708891
0.058715567 0.052594922 0.04801967
0.053804044 0.05551232 0.048466332
0.054505154 0.055592917 0.048023842
0.055435866 0.055292144 0.048013426
0.053430632 0.041952323 0.048107125
0.040235303 0.057490095 0.058539696
0.044399589 0.054673798 0.047935329
0.046392616 0.054521918 0.047846831
0.053492941 0.05458995 0.049419008
0.05253119 0.053668447 0.05504135
0.05213831 0.052311838 0.056728043
0.041965857 0.054748386 0.056197055
0.056370042 0.054377895 0.048062004
0.044793092 0.055379063 0.047943138
0.045485094 0.055458773 0.047916241
0.052485868 0.057184268 0.055486448
0.047172293 0.055459473 0.047826014
0.049339499 0.055251263 0.04584258
0.043860205 0.044327881 0.047982194
0.05197873 0.057716124 0.057383992
0.053906538 0.055919342 0.048138358
0.040220276 0.053524554 0.058695875
0.053663149 0.055989705 0.048513182
0.039781053 0.057438329 0.058633395
0.040237825 0.057823695 0.058539696
0.047354806 0.043400563 0.0477219
0.053281676 0.057169892 0.055358909
0.052491073 0.057675295 0.05547864
0.04191374 0.056130655 0.049122281
0.043374654 0.055675797 0.048336186
0.047150906 0.053898931 0.047794782
0.048735313 0.055508532 0.044858672
0.054526255 0.056231014 0.048086308
0.055461898 0.056088638 0.048086308
0.056378577 0.055310324 0.048034243
0.042630084 0.044886015 0.06728556
0.040240373 0.058157437 0.058539696
0.052114461 0.057483833 0.056197055
0.044269361 0.055630252 0.048060276
0.05752499 0.050313205 0.047874607
0.0443675 0.056282617 0.048089273
0.051027697 0.052793056 0.05382318
0.053788789 0.056421503 0.048310153
0.054524958 0.056537718 0.048055075
0.058301143 0.056304216 0.048155703
0.058953725 0.056336448 0.048263304
0.048724703 0.055794902 0.044764958
0.057309628 0.054392047 0.048062004
0.053513519 0.056475904 0.049387775
0.048782505 0.055118598 0.045202263
0.04923299 0.055733159 0.045441724
0.057448283 0.053761922 0.048021235
0.054018475 0.039183192 0.048044659
0.041917711 0.0567552 0.04910665
0.041558828 0.055424467 0.048731826
0.042643216 0.055743683 0.048716225
0.04220907 0.055334289 0.049044184
0.051830173 0.058183864 0.056415699
0.053822361 0.05769483 0.054666527
0.044441305 0.056734279 0.048114933
0.054377232 0.056852825 0.048075892
0.04339309 0.056476131 0.048433341
0.024295865 0.023181625 0.00043176115
0.041631475 0.057286073 0.052521698
0.055463329 0.056706477 0.048044659
0.04167781 0.055320017 0.049319051
0.053400554 0.056697886 0.050512247
0.0537365 0.057153232 0.04882554
0.051039942 0.057114176 0.053573288
0.051962733 0.058023363 0.057259046
0.044878341 0.056082003 0.047950946
0.045535624 0.056358568 0.047935329
0.046420313 0.056400653 0.047902368
0.054476313 0.053409912 0.048034243
0.041639104 0.057932995 0.05254253
0.051181685 0.055847488 0.054572813
0.045511466 0.057032708 0.047992609
0.04718728 0.056400273 0.047857247
0.056405935 0.057187162 0.048023842
0.057366192 0.05722212 0.048117541
0.051093794 0.056702003 0.053948112
0.041429427 0.056377165 0.052480064
0.042220462 0.056434724 0.049059801
0.053581484 0.058161728 0.051418059
0.03992087 0.059163421 0.058570929
0.052665889 0.048508149 0.054728992
0.044451807 0.057212479 0.048161782
0.051078938 0.058600731 0.053698234
0.054386504 0.057325326 0.048087604
0.05546803 0.057327874 0.048018627
0.05641102 0.057500809 0.048023842
0.057367034 0.057531718 0.048096709
0.058962964 0.057272725 0.048232071
0.053702109 0.05793637 0.050324835
0.050555419 0.05753804 0.052495681
0.041645013 0.058261134 0.052573763
0.0523495 0.058346778 0.05555848
0.053289216 0.058309607 0.055312075
0.041264124 0.058120929 0.051917829
0.047217853 0.057365581 0.04799781
0.041256186 0.056847144 0.051949061
0.053735197 0.039346427 0.048185222
0.058321461 0.057250287 0.048176549
0.041572459 0.056527909 0.04877349
0.049669076 0.053187758 0.047138833
0.042658292 0.056540959 0.048789106
0.041718848 0.057540923 0.049117066
0.054397397 0.05779985 0.048107125
0.055478562 0.057801567 0.048034243
0.051893413 0.057285264 0.056884222
0.048985384 0.056941696 0.044390135
0.054515675 0.055911832 0.048055075
0.05376647 0.057651818 0.048950486
0.056416154 0.057814598 0.048023842
0.057367947 0.057841368 0.048075892
0.039918374 0.058501497 0.058602162
0.040242903 0.058655143 0.05852408
0.041250594 0.057463616 0.051834531
0.052441284 0.050366558 0.054725505
0.053598389 0.057551365 0.051563837
0.048986286 0.056643225 0.044421367
0.052353561 0.059160478 0.055515088
0.053307127 0.059139095 0.055348508
0.053727034 0.0590287 0.054010592
0.05372826 0.058549285 0.054057442
0.041259311 0.05858162 0.051824115
0.056395065 0.056405343 0.04803165
0.042246424 0.057654038 0.049204834
0.056425542 0.058133006 0.048044659
0.057371087 0.058153316 0.048065476
0.051256292 0.057867836 0.054885171
0.050529182 0.058136776 0.052277036
0.050938077 0.058733605 0.052792408
0.053701874 0.058037713 0.053948112
0.039758377 0.060152374 0.058508463
0.041589506 0.057178162 0.048888005
0.042753875 0.057422839 0.048880197
0.042254306 0.058199234 0.049231581
0.040175851 0.059962839 0.057602637
0.046405666 0.057453349 0.048035733
0.04124251 0.05901508 0.05160547
0.058317244 0.057864159 0.048107125
0.058973961 0.057901785 0.048232071
0.0434172 0.057442203 0.048565216
0.044464223 0.057694547 0.048224263
0.040170517 0.060275398 0.057508923
0.050907053 0.059168167 0.052558146
0.044410586 0.058155075 0.048290081
0.045453437 0.058177896 0.048133902
0.053691138 0.059239239 0.051949061
0.046468906 0.058163732 0.048117541
0.053726271 0.059348322 0.053979345
0.053697824 0.059634104 0.053791933
0.04648139 0.058644772 0.048169591
0.047250945 0.058337517 0.048153974
0.051651657 0.053600695 0.055650435
0.039762288 0.059834346 0.058586545
0.046404909 0.055458434 0.047864191
0.042845953 0.058145165 0.048950486
0.045197673 0.056715138 0.047982194
0.056433402 0.05860427 0.048044659
0.057376966 0.058622584 0.048055075
0.040162951 0.059480108 0.058477215
0.053700253 0.058559798 0.050262354
0.052620389 0.038990434 0.053495206
0.048550092 0.057579201 0.044258945
0.049145788 0.057555396 0.044395335
0.041649316 0.058743931 0.052573763
0.057348967 0.056433663 0.048096709
0.053281985 0.05765488 0.055322461
0.048666168 0.056765452 0.044296436
0.053721257 0.059210509 0.050324835
0.040216088 0.060717069 0.058008693
0.047236845 0.057701308 0.048107125
0.053695992 0.059561476 0.051949061
0.055498909 0.0584407 0.048086308
0.058323011 0.058487862 0.048082836
0.058989696 0.059154846 0.048200838
0.041613061 0.059076719 0.048950486
0.0428553 0.059088945 0.048950486
0.045524631 0.057514291 0.048055075
0.039764922 0.060661301 0.058539696
0.053666744 0.0574269 0.050168641
0.041615583 0.058465518 0.049033783
0.053494781 0.055379152 0.050254561
0.058282569 0.055669405 0.048117541
0.058935747 0.055392884 0.048252903
0.053770706 0.058121651 0.048934855
0.054418012 0.058440126 0.04816439
0.058982886 0.058529243 0.04822167
0.046341583 0.050478179 0.047763549
0.05369959 0.060116626 0.053760715
0.052361257 0.059655584 0.055520289
0.041444626 0.059547417 0.052573763
0.051732197 0.060165688 0.055634819
0.039934166 0.061165176 0.058539696
0.049401931 0.057098206 0.045108549
0.056444045 0.059233114 0.048044659
0.057387915 0.059251763 0.048055075
0.058332115 0.059269704 0.048060276
0.052542083 0.060974732 0.055509873
0.053336147 0.060954317 0.05536411
0.043938182 0.054211996 0.047982194
0.046588548 0.057036225 0.047950946
0.047203243 0.057036959 0.047919713
0.053627841 0.058689669 0.051636703
0.042396642 0.058636896 0.04906372
0.044340461 0.058670036 0.048398666
0.04540357 0.058644049 0.048224263
0.050911151 0.059649527 0.05254253
0.042855062 0.059396893 0.048919238
0.053604752 0.060080789 0.051386826
0.051729392 0.059352532 0.055686869
0.040091384 0.061474055 0.05841475
0.043432958 0.05839473 0.048620768
0.053640418 0.060522385 0.053385876
0.053821199 0.059267186 0.049117081
0.05237345 0.060318679 0.055537648
0.040094137 0.061809219 0.058414765
0.041440122 0.059380978 0.050345652
0.05372861 0.059688956 0.050324835
0.042702869 0.059710279 0.048919238
0.053672813 0.059849307 0.051792882
0.053350195 0.061296016 0.055416159
0.053798575 0.060245208 0.050668411
0.053786524 0.058605194 0.048981719
0.049210593 0.058761597 0.045702018
0.051542811 0.058511227 0.055611394
0.052383732 0.061465286 0.055499472
0.04728727 0.059317432 0.048330985
0.050353728 0.06044995 0.051457115
0.042099312 0.060050942 0.049059801
0.050029427 0.060245089 0.050918303
0.055508271 0.059376836 0.048055075
0.05645214 0.059705123 0.048044659
0.057396241 0.059724025 0.048055075
0.058339536 0.059741043 0.048055075
0.053797923 0.060558207 0.050637178
0.041620668 0.059555955 0.048981719
0.04221091 0.059385642 0.049075417
0.048564255 0.059081733 0.044421382
0.042705119 0.060177684 0.048895814
0.043457691 0.060136683 0.048679791
0.054473203 0.060203657 0.048310153
0.055522535 0.060164817 0.048060276
0.056460358 0.06017752 0.048044659
0.051571272 0.061947644 0.055494256
0.057404693 0.060196675 0.048055075
0.058350481 0.060216308 0.048065476
0.053355172 0.061626248 0.055416159
0.045427971 0.059301309 0.048359595
0.054434903 0.059385642 0.048174791
0.053704038 0.06115339 0.051855348
0.051566578 0.061617315 0.055494256
0.041536029 0.060462087 0.052334286
0.053756945 0.061133534 0.050356068
0.053771619 0.061971329 0.054010592
0.048570544 0.059541121 0.044421382
0.043447025 0.059345536 0.048658945
0.044356853 0.059315436 0.048478462
0.053814366 0.060892783 0.050699659
0.050459675 0.061510697 0.052219771
0.042103194 0.060522497 0.049051993
0.046508521 0.059304371 0.048315354
0.045422539 0.06039308 0.048463203
0.047315918 0.060287774 0.048450701
0.053837873 0.062379554 0.054354168
0.05335857 0.062278405 0.055377997
0.042107131 0.060994335 0.049044184
0.053888559 0.060437545 0.04938776
0.054478079 0.060673125 0.048294537
0.055531643 0.060638569 0.048065476
0.056468666 0.060650229 0.048044659
0.057415452 0.060672052 0.048065476
0.05836378 0.060694359 0.048086308
0.041474387 0.060962565 0.048934855
0.042714071 0.061122231 0.048888005
0.041351128 0.061346523 0.049231581
0.053764693 0.061613455 0.050356068
0.052407607 0.06295567 0.055509873
0.053379111 0.062953725 0.055436991
0.044394601 0.061235391 0.048617296
0.045316894 0.061226822 0.048533998
0.046497971 0.061177991 0.048531912
0.047339194 0.06109719 0.048544414
0.053892478 0.06137608 0.049325295
0.05328086 0.060328931 0.055334188
0.041157745 0.060227878 0.050590329
0.053383105 0.059698775 0.055267803
0.048550434 0.05846177 0.044384934
0.054378193 0.06125138 0.048210196
0.055432215 0.061299801 0.048081569
0.040091325 0.062457316 0.058315836
0.049165502 0.058182567 0.044468231
0.053640302 0.060598478 0.051543005
0.039875083 0.06296809 0.057633869
0.041632824 0.061742388 0.048888005
0.041178998 0.060532972 0.049137898
0.043541871 0.060689904 0.048684992
0.044377569 0.060432151 0.0485496
0.0427709 0.061699301 0.048877589
0.043449186 0.061451674 0.04872898
0.044400677 0.061709821 0.048622511
0.046413034 0.061716057 0.048544399
0.042573679 0.061925188 0.048950486
0.042115219 0.061938949 0.049028568
0.041067876 0.061275907 0.046295486
0.054046642 0.061950922 0.04838825
0.05744537 0.061942704 0.048096709
0.050646827 0.061947741 0.052698709
0.052416887 0.063454948 0.055520289
0.053427387 0.063511774 0.055393867
0.05395947 0.063186079 0.05497887
0.047193788 0.061729945 0.048560031
0.053768344 0.062401682 0.050304018
0.042115256 0.062247805 0.048997335
0.044406809 0.062184609 0.048627712
0.045332279 0.062180825 0.048565246
0.04642012 0.062191531 0.048552223
0.051771984 0.063946992 0.055541106
0.053805582 0.061533764 0.054244854
0.053948626 0.062848501 0.054947637
0.052395955 0.062291577 0.055499472
0.05332654 0.064137265 0.055403672
0.040111125 0.064339548 0.056384467
0.058379479 0.061330184 0.048103653
0.059044674 0.061534613 0.048247688
0.041518338 0.062383302 0.048711009
0.04272756 0.062386222 0.048888005
0.04348778 0.062356986 0.048731841
0.045336157 0.062496699 0.048565246
0.046424188 0.062507488 0.048552223
0.047306027 0.062414519 0.04855483
0.054335125 0.062387802 0.048211239
0.050130822 0.061179318 0.051496156
0.059072867 0.062340386 0.048304953
0.052427113 0.064117946 0.055520289
0.04134756 0.060443886 0.048742257
0.042709135 0.060648873 0.048888005
0.056555547 0.062333927 0.048102669
0.039923668 0.06474027 0.058039926
0.041211002 0.061691098 0.049356528
0.042111952 0.061468348 0.049044184
0.051771939 0.064270981 0.055509873
0.042118568 0.062564313 0.048997335
0.055414215 0.062382802 0.048111029
0.057459801 0.062423535 0.048122741
0.053697675 0.061619729 0.051777266
0.045326531 0.06170734 0.048565246
0.041637793 0.062833712 0.04882554
0.042734422 0.062864713 0.048903622
0.059097022 0.062987633 0.048357017
0.05369851 0.062411614 0.051709585
0.055428077 0.062863924 0.048138358
0.053888828 0.06183815 0.049262829
0.051758654 0.063279361 0.055520289
0.041211989 0.06254378 0.049278446
0.042121906 0.062880978 0.048997335
0.054461226 0.061887518 0.048091508
0.055403493 0.061905921 0.048099317
0.056458645 0.061401524 0.048070215
0.051664338 0.064703897 0.05547864
0.052431405 0.064610474 0.055499457
0.039745398 0.065851353 0.059820332
0.04858169 0.060008116 0.044452615
0.05747655 0.062907435 0.048159175
0.05383284 0.064302854 0.05414594
0.040280346 0.065956712 0.060226388
0.040018324 0.065345258 0.059133165
0.053864934 0.062428907 0.049075417
0.039773948 0.06626977 0.06013269
0.053750098 0.063430302 0.051907413
0.041680966 0.06516581 0.055634819
0.047306024 0.062466547 0.047045134
0.054498412 0.062862448 0.048200838
0.041333508 0.063950308 0.052074008
0.056527995 0.062884271 0.048138358
0.041629769 0.064214595 0.051824115
0.051615655 0.065090261 0.05547864
0.052435819 0.0651033 0.055478655
0.047047257 0.062468044 0.04517103
0.059110351 0.06331303 0.04838825
0.039805088 0.066697612 0.060476281
0.041883647 0.066018157 0.057696335
0.053642627 0.064230472 0.051220231
0.051787399 0.065591052 0.05547864
0.052443773 0.065601632 0.05547864
0.053373136 0.065311678 0.055420093
0.05388926 0.065186575 0.054385401
0.043494344 0.062833793 0.048742257
0.044414259 0.062662408 0.048643343
