# .PCD v0.7 - Point Cloud Data file format
VERSION 0.7
FIELDS x y z
SIZE 4 4 4
TYPE F F F
COUNT 1 1 1
WIDTH 1304
HEIGHT 1
VIEWPOINT 0 0 0 1 0 0 0
POINTS 1304
DATA ascii
0.033906151 0.015400427 0.033957578
-0.0006396044 0.016776761 0.010132916
0.0071699955 0.02101795 0.0035657063
-0.026485575 0.020537842 0.016507491
-0.012342246 0.02054311 0.015075885
0.017546458 0.017041437 0.0092942491
-0.011398302 0.019307557 0.0014885589
0.013710983 0.020881016 0.0098595992
0.014163652 0.020883083 0.0098283663
0.015096771 0.020394072 0.010515541
0.0071044005 0.021148253 0.005002521
-0.012555586 0.021474052 0.0042021275
-0.0058950279 0.022080638 0.0014417097
-0.0056934375 0.022234581 0.0026325509
-0.02708449 0.01976287 0.015122734
-0.006616028 0.018570969 0.0085789636
0.041345865 0.020468609 0.02363237
0.042360846 0.020469138 0.023593321
0.010308323 0.019725883 0.013810858
-0.01353926 0.022123281 0.0041310713
-0.012552394 0.022122279 0.0041982234
0.018267635 0.021323156 0.00411091
0.013220037 0.020862162 0.010187574
0.0089954827 0.021705586 0.016215965
0.0061374698 0.022268396 0.0039249137
0.0063138902 0.018132471 0.0064081028
0.00049317069 0.017072856 0.010667801
0.0076943319 0.020490274 -0.0011820495
-0.028375516 0.022004783 0.013571389
-0.008374894 0.020224851 0.012639537
-0.028726982 0.019487286 0.014354348
-0.00065085106 0.019143462 0.0042841136
-0.0061777215 0.022546371 0.0021288842
0.0093073156 0.021727301 0.015747443
0.0105814 0.021674654 0.013550557
-0.020958034 0.019109983 0.0078761652
0.02727483 0.021547411 0.019683078
0.028227532 0.02164096 0.017642379
0.018205039 0.022263639 0.0035813153
0.018796233 0.022549372 0.0024724677
0.019230515 0.022223944 0.002436772
0.0064857677 0.021004166 0.0037843511
0.0063545816 0.021370132 0.0042856038
0.030386742 0.022207348 0.010187574
-0.006540833 0.019241823 0.010187574
-0.027501905 0.020579219 0.016420737
-0.025408475 0.020722874 0.015403852
0.017494578 0.022373572 0.0064705834
0.010765985 0.022149451 0.01153069
0.011436043 0.022144929 0.011640005
-0.0054901261 0.022372603 0.003093265
0.0086788069 0.02081662 6.7360699e-05
-0.01266518 0.022445915 0.0042008162
-8.4258616e-05 0.022600217 0.0010668859
-0.00067612715 0.018184207 0.01044786
0.03043507 0.020290941 0.012829542
0.030933097 0.020367738 0.012819141
0.00045777485 0.018459246 0.010359369
0.0076767895 0.021168977 0.012826942
0.010081636 0.022050427 0.013779618
0.0047456641 0.019565206 0.0042841062
-0.028537201 0.022240877 0.01363907
-0.012611033 0.020267209 0.012550287
-0.010663046 0.020056119 0.01338397
-0.026459852 0.016720269 0.0074649006
0.018820643 0.020508952 0.0034563765
-0.017294368 0.017158568 0.0048775896
-0.00061501749 0.01941115 0.0035578981
-0.0062816981 0.022743596 0.0024412349
0.011584417 0.018481657 0.014414743
0.02678683 0.02130359 0.019683078
-0.00028181076 0.022777148 0.0017852932
0.028114738 0.021851491 0.018308729
0.028469564 0.021874676 0.017777726
0.028935589 0.021910157 0.016965613
-0.013462888 0.017436132 0.0058675036
0.021608869 0.021238256 0.023688994
0.0021214727 0.021466414 0.0024055392
0.0053926036 0.021844702 0.0038967952
0.0057497416 0.021257037 0.0039795712
-0.026400337 0.021307781 0.016611613
-0.02692339 0.021447524 0.015341379
0.0025492441 0.021429431 0.0036500618
0.01253295 0.02112698 0.0094379261
0.0066468809 0.020444276 0.013373561
0.007773729 0.020587182 0.013336085
-0.013530871 0.022556227 0.0041123256
0.0017544571 0.020909805 0.0016915873
-0.027420959 0.020064114 0.015466318
0.016520591 0.021482822 0.0097919255
0.00026226044 0.021535268 -0.001412414
0.00079397671 0.021861121 -0.0006198138
0.016727749 0.022342961 0.012374036
0.0015805028 0.020134961 0.0023683459
-0.010165075 0.017317247 0.011187099
-0.0094025563 0.021079089 0.0096878111
0.039218534 0.020832933 0.023993537
-0.0064087566 0.022833366 0.005502291
0.02564094 0.020348156 0.01336395
0.0016191434 0.01901922 0.0074701086
-0.011813385 0.020333862 0.014612563
0.0031821728 0.018208783 0.010302104
0.017381549 0.016593084 0.0073228478
0.017458377 0.020428993 0.0043064132
-0.012731424 0.018599192 0.0043309703
0.033644374 0.021418067 0.034353219
-0.00077090226 0.022541374 0.0023943856
0.00050069578 0.022601647 0.00046560913
0.011693693 0.017769128 0.012217857
0.028713031 0.022105468 0.017996378
0.028944854 0.022126291 0.017496616
0.004085077 0.022682436 0.0095003918
-0.018499507 0.020391088 0.0043465868
0.019123439 0.022973021 0.0022850633
0.0060358029 0.022536654 0.0076575205
0.0062314048 0.022728926 0.008355096
0.014551007 0.019407034 0.010676928
0.010575937 0.02252844 0.011530682
0.017495897 0.019585378 0.0043564513
0.0045285299 0.022289077 0.0034433678
0.0053718984 0.022476807 0.0039967522
-0.027377522 0.021377636 0.017545693
0.027153524 0.021652633 0.020057902
0.0084916484 0.020431962 0.014382862
0.0066297129 0.022352284 0.0052211732
0.0063733011 0.021932269 0.0065122247
-0.028751368 0.020112468 0.014177866
0.040401522 0.017024796 0.025013879
-0.028155228 0.02039128 0.016809441
0.041880459 0.021768475 0.022822216
0.042461459 0.021596961 0.022416167
0.012413182 0.020141164 0.014662012
0.018137097 0.022902222 0.0040654689
-0.013098272 0.020475488 0.012092918
0.0088131949 0.020697344 0.015122734
-0.00081523508 0.021791723 0.00066082925
-0.028006209 0.021538295 0.013342328
-0.011894336 0.019333355 0.0085841566
0.030431271 0.021919776 0.011561923
0.040905833 0.021531953 0.025367886
0.041124471 0.021290835 0.025024302
0.041080587 0.021563333 0.024649478
0.042239044 0.021199895 0.02331157
0.0036156159 0.02043766 0.0054059923
-0.021584095 0.011235757 0.0080948099
0.0036211535 0.016770838 0.011608772
0.011074921 0.017812012 0.0064861998
0.0040272623 0.020344691 0.0051899329
0.029321546 0.021519931 0.012780093
-0.0084443148 0.018841818 0.012467742
0.0077636037 0.020650964 0.0026911199
0.0081652068 0.02064376 0.0045183823
-0.01193974 0.021168668 0.012217857
-0.011986287 0.021360416 0.013029978
0.026549187 0.020913683 0.017808974
-0.011966521 0.021140378 0.015060268
0.016041715 0.020678274 0.0058458745
0.020812415 0.022189058 0.021994486
0.011097359 0.019475181 0.012385741
-0.018305087 0.021461442 0.0041019171
0.014708087 0.019849798 0.011967979
0.041775018 0.012206572 0.025930122
0.034843635 0.02162726 0.035987861
0.034623791 0.021466 0.035404794
0.015225681 0.019754652 0.0083290711
-0.015547307 0.021467665 0.0042578205
-0.014533987 0.021455951 0.0041767582
-0.0003138911 0.015617741 0.0052055493
-0.028730942 0.022604391 0.013514124
0.00073184632 0.022714067 0.0013292655
0.036930293 0.021555156 0.037768267
0.011380648 0.022559093 0.011405744
0.028965151 0.022319783 0.018652312
0.0035484638 0.022832142 0.011468217
0.019010611 0.02312658 0.0037218779
-0.028275175 0.022192989 0.020994954
-0.028557481 0.022145929 0.022181898
0.0076665003 0.019825242 0.012217857
0.014565674 0.023057062 0.0055647567
-0.016589733 0.021435123 0.0042494163
0.015131075 0.020475963 0.0091880485
0.016099539 0.022988919 0.0073764026
-0.01179214 0.018433064 0.0064783841
0.013819842 0.019159336 0.013670303
0.033770412 0.021701798 0.034129359
0.015344093 0.019461185 0.0062831715
0.015863776 0.022415835 0.005502291
0.015674811 0.0220589 0.0062519386
0.033539195 0.022045203 0.032302104
0.039848305 0.016937476 0.025055535
-0.0017076805 0.020299252 0.0045652315
0.04026743 0.021379041 0.02362439
0.041393403 0.021482935 0.02358748
-0.01267519 0.01993035 0.0030659437
0.011068009 0.021909188 0.0118118
0.040333793 0.02046679 0.023692884
-3.8444996e-06 0.018590372 0.0072514638
0.0014728326 0.022602543 0.0034720004
-0.027118808 0.021184444 0.015747443
0.015227071 0.019202355 0.0054085851
0.014557175 0.022943486 0.0030190945
-0.0097219702 0.021155503 0.00053589046
-0.0092263985 0.019895533 0.014154442
-0.0085722711 0.019765479 0.014379337
0.029357329 0.022137582 0.01443556
0.0063805487 0.021716869 0.0064705834
0.026552655 0.021210283 0.016684495
0.027147423 0.020967346 0.016778208
0.028889976 0.021209793 0.01435747
0.03069628 0.021508284 0.012650691
0.034233406 0.01504095 0.034894623
-0.012119329 0.021106727 0.013404801
0.016583409 0.021266803 0.0069078729
0.017213648 0.021798367 0.0071577504
-0.018355435 0.022402365 0.004034251
0.014315833 0.020170545 0.013114765
0.011568687 0.019469295 0.014515065
-0.01268092 0.022768222 0.0042424649
0.013062392 0.019227915 0.016059794
0.014228959 0.019657735 0.013147108
0.034904849 0.021866759 0.037018619
0.0080057569 0.022752484 0.013623446
0.009224629 0.022287114 0.013662495
0.0092379674 0.022244457 0.014685445
0.0093558896 0.022066806 0.015185207
-0.028722377 0.022963841 0.013498507
-0.00052420609 0.023028074 0.0022225827
0.00049928576 0.023185056 0.0020429865
0.00047800876 0.023027286 0.0018040463
-0.0064772163 0.022865435 0.0046901777
0.028319372 0.022343364 0.019289508
0.01876195 0.023320613 0.0041904077
0.018720051 0.023033595 0.0034095272
0.0053404067 0.022530375 0.0077980757
0.039266828 0.021979522 0.027054593
0.014585066 0.020870127 0.010062627
-0.016565228 0.022444969 0.0040514246
0.015585177 0.020652495 0.0080791935
0.01274048 0.019185148 0.016101435
0.013278839 0.019439038 0.015258089
0.0060141739 0.022864753 0.010624863
-0.027090563 0.021772604 0.019027136
0.015440459 0.023109285 0.0041799992
0.03542139 0.02159388 0.035425641
0.042245038 0.022391068 0.030053176
0.036165059 0.021668684 0.034925871
0.036061868 0.021370942 0.035441242
0.010466788 0.022898259 0.0097658932
0.028246259 0.022780443 0.019308254
0.028964732 0.022682995 0.018636696
0.021986464 0.021237098 0.023712419
-0.010280887 0.017718913 0.0065486655
-0.013545873 0.022244103 0.021491587
0.008436285 0.020808557 0.019745551
0.030356668 0.019453775 0.012746893
-0.027474543 0.021318499 0.016309679
0.04241015 0.021927029 0.022025719
-0.011540277 0.020247016 0.0015822724
0.016498584 0.023029517 0.012374036
0.017398842 0.023022801 0.012561448
0.017113771 0.023000587 0.013186149
0.00095110945 0.022980418 0.0019414723
0.001087619 0.023057647 0.0026442632
0.001459619 0.023090241 0.0034532547
0.001511462 0.023236033 0.0045027584
0.0013732761 0.023277057 0.005346112
0.027361803 0.019258095 0.010687329
0.028261308 0.019268546 0.010531157
-0.0013479069 0.021377737 0.0025349408
-0.0075768325 0.020747634 0.0076783374
-0.028098794 0.021256894 0.016700111
0.041206524 0.022180766 0.023548439
0.034551911 0.021914028 0.035769217
0.042739548 0.022325184 0.031896047
0.014465963 0.02238434 0.003282845
0.027397973 0.021290183 0.017255239
0.028602159 0.021422151 0.016590789
0.028792519 0.021266591 0.015528791
0.029126728 0.021782432 0.014560498
0.013712792 0.021748466 0.0038468167
0.030930633 0.02128927 0.012772284
-0.012238724 0.021171097 0.014435567
0.012668278 0.020490026 0.012702011
0.038315307 0.021409707 0.023881629
-0.0021982417 0.020716084 0.0047526434
0.0040010009 0.022768281 0.013170533
0.013549796 0.019676341 0.014633387
0.038714506 0.016379263 0.025024295
-0.0017677601 0.019578949 0.0047704801
0.03933898 0.020435257 0.02383738
-0.028737741 0.023201998 0.01352974
-0.027602701 0.023184767 0.014091976
0.0030850098 0.022870723 0.010437459
0.020812381 0.022437874 0.021994486
0.0044635776 0.022789013 0.012623921
0.0046878457 0.022716399 0.01153069
0.0054536741 0.022753518 0.010578014
0.0054548439 0.02258963 0.0081468672
0.006318884 0.022300314 0.0042632893
0.0071775895 0.022427291 0.0041904077
0.0021461602 0.020657642 0.0024100021
0.0032746457 0.02063733 0.0039092898
0.035418514 0.021616703 0.036253355
0.015282713 0.023010124 0.0034657493
-0.012644211 0.023073969 0.017746493
0.013360884 0.018627755 0.014576115
0.0080751013 0.021311479 0.014591739
-0.014174191 0.023396209 0.0080635771
-0.013872234 0.023382153 0.0084904581
-0.012841554 0.022835677 0.017590322
-0.010608101 0.017458916 0.0057365596
0.016501546 0.023259412 0.012342803
-0.005665509 0.022870732 0.0045756474
-0.0024201963 0.02140956 0.0045131594
-0.0019667186 0.021234227 0.0031908825
0.034218326 0.021538209 0.034769692
0.040105581 0.022209171 0.031411894
0.042384207 0.022618838 0.03120888
0.018797502 0.02275813 0.0024568513
0.019120986 0.02276402 0.0023162961
0.013398983 0.021709045 0.0046120808
0.014980258 0.021853238 0.003878057
0.012270206 0.020466853 0.013092443
0.0038179513 0.022798173 0.012374036
0.02812524 0.023022134 0.019355111
0.038514499 0.020623092 0.023864135
0.038052317 0.020526648 0.02405601
-0.0014520586 0.02294028 0.0029097646
-0.028768906 0.023439299 0.013592213
0.011291545 0.023601517 0.0087507516
0.0044925343 0.022638008 0.010624863
-0.028599637 0.021752693 0.01940196
-0.011944881 0.022084001 0.0042736977
0.013922442 0.023307694 0.010905981
0.007896442 0.022779498 0.012905039
0.015771663 0.022950079 0.0084071606
0.01528211 0.023129489 0.0075117499
-0.0046125557 0.021521792 0.0044246688
-0.013845293 0.023366304 0.016184732
-0.013586471 0.023195663 0.017742582
-0.017542845 0.021459201 0.0041923672
-0.011662191 0.018429447 0.005845882
0.039820351 0.021923836 0.035425626
0.04020448 0.022722941 0.036487631
0.014782541 0.023327535 0.010312505
-0.0020613465 0.022243239 0.0042841136
-0.028332176 0.022679534 0.01637996
-0.027457369 0.022673041 0.016598597
0.0018323362 0.022824943 0.0040862933
0.039389838 0.019716181 0.023873061
0.015137317 0.023457948 0.013311096
0.016786039 0.023183158 0.013236128
-0.0059555825 0.022684494 0.0026052222
-0.011734957 0.021370646 0.0062050745
-0.0053923558 0.022719486 0.0030451193
0.017341482 0.023345146 0.01322259
0.027478656 0.019556131 0.011517301
-0.0094563048 0.020843625 0.0098439828
-0.0088906158 0.020655457 0.009203665
0.018793853 0.019749776 0.0037843511
0.014391262 0.021766294 0.0035063624
0.027632743 0.023174569 0.018410243
0.028600495 0.023048148 0.01857423
0.028246313 0.023267211 0.019297846
0.040235836 0.022202915 0.035394393
0.040088542 0.022325141 0.037216447
-0.02935447 0.023652062 0.014498033
-0.027119519 0.023647845 0.014685445
0.01053701 0.023848886 0.0078761652
0.010573307 0.023723956 0.0083603114
0.011108436 0.023462625 0.0096097216
0.0039954856 0.022631925 0.005346112
-0.028080197 0.021776935 0.018870965
0.0078649949 0.023142356 0.015841149
-0.0021039024 0.020356487 0.0036594123
-0.016612275 0.023208246 0.0042528808
0.016509557 0.021466209 0.010484301
-0.012019994 0.019362304 0.0097815171
-0.011702089 0.023101088 0.0040342361
0.036680862 0.021844413 0.024118476
-0.0033801589 0.016622275 0.00947541
0.01327989 0.020086706 0.014289796
-0.003711177 0.016756281 0.0083993524
0.034768127 0.022452671 0.036289804
0.034635168 0.022514639 0.037226863
0.0081286356 0.022961244 0.014279388
0.03917608 0.021297798 0.023998745
-0.00065830909 0.023337224 0.0051508918
0.00060339831 0.023872878 0.0070952848
0.017343843 0.023691783 0.013196565
-0.016828099 0.023557058 0.0076783374
-0.028463962 0.022263719 0.01759813
-0.026564268 0.020260975 0.015772425
0.00063323788 0.023340017 0.0035657063
-0.0038127545 0.022898145 0.0039249137
-0.0036657769 0.022492751 0.0043426827
-0.0035241991 0.022487868 0.0055272803
-0.0027733166 0.022847248 0.0052315891
0.029433375 0.020267837 0.012597889
-0.027514523 0.022353379 0.018519565
-0.012310361 0.020325746 0.013368353
0.0045773946 0.022554692 0.0072046071
0.019391324 0.020791052 0.0028629154
-0.013367897 0.02327851 0.015200824
0.042072006 0.022178754 0.028616346
-0.012687141 0.022999542 0.012967505
0.027108733 0.02275447 0.017798558
0.018900458 0.022965573 0.0024724752
0.028726839 0.022794731 0.018902197
-0.0051954109 0.023298487 0.0094145015
-0.0057297368 0.023605805 0.010414027
0.026789039 0.021150563 0.017871432
0.016089713 0.022782927 0.004393436
0.016089736 0.022452937 0.006633006
0.017694686 0.022582248 0.0066579878
0.01741953 0.02244683 0.0072983131
0.0012330562 0.021805348 0.00046560913
0.011961871 0.020989103 0.011967979
-0.017497858 0.023175661 0.0040342435
0.0030598044 0.023357332 0.010756053
0.0054938588 0.023487166 0.012413085
0.01390782 0.02047726 0.012936272
0.013512021 0.020328872 0.013208464
0.040504664 0.022997128 0.036675043
0.0075892732 0.023278376 0.016528323
0.03945864 0.021346413 0.023856103
-0.00642295 0.022996766 0.0069391057
0.010287685 0.023331521 0.010195382
0.01056003 0.023390444 0.0093709826
0.028200766 0.020658454 0.015195616
-0.027700437 0.021967083 0.02033902
-0.016561298 0.023699708 0.0083946735
-0.01652885 0.023260765 0.0054918677
-0.01545999 0.023159094 0.004310146
0.0087410081 0.020750578 0.016309671
-0.014571814 0.02320105 0.0041747913
0.013799102 0.024008462 0.010062627
0.013432865 0.024026411 0.0094066933
0.013956209 0.023993114 0.010624863
0.01440503 0.020495879 0.012623921
0.0079524145 0.022973435 0.013935797
0.015692541 0.023944231 0.012405269
0.030659679 0.022259235 0.011585347
-0.0075829048 0.023468466 0.010725766
-0.00617362 0.023406357 0.011296421
-0.006840812 0.022974191 0.0075325742
0.017046135 0.023937119 0.012655154
-0.0015277416 0.023083273 0.0047214106
0.00032396615 0.023498427 0.0051691085
0.00026886165 0.023376804 0.0045444146
-0.026828358 0.023349836 0.016512699
0.0053503383 0.022846904 0.011093393
-0.011069549 0.018208474 0.0059083477
0.041612983 0.022800833 0.033988811
0.017470598 0.023925964 0.013061211
-0.0060258452 0.019708183 0.010031395
-0.0056496393 0.023061791 0.0052211732
0.031209614 0.022617524 0.012577064
0.013426169 0.02203827 0.0044090524
0.028435461 0.020482378 0.013297208
-0.028904522 0.022045497 0.018371202
0.0080453083 0.019224636 0.0094223097
0.0076795071 0.019530734 0.011491641
0.034504998 0.022497036 0.034957103
0.035599411 0.022403883 0.035363145
0.029356979 0.022953503 0.01443556
0.027378948 0.022351962 0.018530853
0.027636832 0.022425486 0.019058369
0.026726276 0.018981854 0.0093650371
0.040412582 0.023302021 0.035769217
0.040498871 0.023279028 0.036612578
0.041031759 0.023286555 0.036331452
-0.02728104 0.020163521 0.0144668
-0.013720224 0.023149209 0.0043465868
0.0038708467 0.023808591 0.013233006
-0.013526576 0.022880621 0.0041029453
0.004634738 0.023868456 0.015278913
0.0044114161 0.023902537 0.014029503
0.018806275 0.021840218 0.0027744025
-0.028437426 0.021368958 0.013519339
0.0033093169 0.021486741 0.0039197057
0.037363492 0.021504035 0.024013631
0.014059953 0.024216453 0.010702945
0.0078856796 0.023007855 0.012967505
0.015861427 0.024186486 0.011874273
0.040789887 0.021576162 0.024352737
-0.0072589163 0.022965088 0.0077668428
0.027034435 0.023866406 0.024493299
-0.0060643423 0.022954814 0.0024412349
-0.025826937 0.024016794 0.0099689215
0.014814341 0.023580035 0.013092451
0.01514147 0.02380533 0.013272054
-0.025808869 0.02043717 0.016169116
0.0094726011 0.017826553 0.0062769204
-0.0084856208 0.023493268 0.010840662
0.029257676 0.022337385 0.015255488
0.028580701 0.020700123 0.014445975
0.029272132 0.020753376 0.0131393
-0.027870068 0.022249933 0.019558147
0.015754925 0.020204799 0.0065018162
0.029169995 0.022870179 0.016778201
-0.02933993 0.02417407 0.023275129
0.0034751222 0.023379941 0.011453643
0.0185997 0.021508649 0.0035835505
0.0055845249 0.023163646 0.011316508
0.041044921 0.023562938 0.036456399
0.042627163 0.023524988 0.037955679
-0.02725883 0.024175394 0.012873799
-0.013464777 0.023092829 0.0056662709
-0.0139827 0.023220759 0.0066892281
-0.018603945 0.022356775 0.0034993291
-0.014597761 0.023393154 0.006494008
0.028197734 0.024085347 0.022400543
0.013795181 0.024344001 0.01009386
0.013446624 0.024363289 0.0092973709
-0.01554217 0.022447009 0.0040517151
0.016249504 0.024264116 0.011796191
0.016596125 0.024103172 0.012150183
0.017309748 0.02425213 0.012269922
0.015582271 0.023533659 0.012367785
0.0164984 0.023629995 0.012381852
-0.0015293621 0.023207348 0.005252406
0.042988651 0.021104597 0.023525007
-0.0017481372 0.024434207 0.011343271
-0.0038507283 0.022133578 0.006626755
0.0028544609 0.022800755 0.0065018162
0.033343323 0.021713838 0.033832632
0.029175069 0.022503581 0.017028086
-0.015995191 0.023814246 0.0090943351
0.036197018 0.023258384 0.037409075
0.036107663 0.023015022 0.036112793
0.028938664 0.0242886 0.017184258
0.040705264 0.023855718 0.035894163
0.040331978 0.023844939 0.036362685
0.042156894 0.02300665 0.036331452
0.042771354 0.0219319 0.02190078
-0.012516556 0.019882761 0.010499924
0.012395781 0.024386836 0.0056647211
0.019649927 0.017550368 0.0036021471
-0.013907013 0.022156389 0.02084659
0.0083481222 0.021052316 0.015075885
0.016513467 0.022806548 0.012217857
0.011322663 0.021517664 0.014241897
-0.0049989801 0.021581607 0.0037218854
-0.017431328 0.023682013 0.0074919686
-0.01720106 0.023451423 0.0063456371
0.027687469 0.018939577 0.0089277476
0.034641717 0.023260187 0.037346594
0.035209578 0.023328986 0.037409075
-0.015525555 0.023447394 0.0065018162
-0.014561741 0.023734143 0.0085410327
-0.014009239 0.023596039 0.0088444576
0.027413636 0.02413116 0.024024777
0.028435899 0.024367675 0.024805658
0.0033279993 0.021736078 0.0041948706
0.0041198432 0.021174222 0.0044611096
0.012596916 0.02451993 0.0073451623
-0.017573981 0.022460857 0.0040524453
0.013083322 0.024378646 0.0086570457
0.041376241 0.023615539 0.034353219
0.016345251 0.024647739 0.011599399
0.017351534 0.024567414 0.011790991
0.0012259595 0.024123618 0.0059395805
0.0032996889 0.020419415 0.0043064281
-0.0038750414 0.023063028 0.0052211732
-0.003879346 0.019902961 0.010624863
-0.0036886875 0.02221686 0.007220231
0.030475397 0.02406452 0.010624863
0.0021706987 0.023420505 0.0065910593
0.0036729109 0.022689659 0.0093129799
0.028914634 0.023376599 0.015809909
0.02123067 0.022341445 0.020214081
-0.012779588 0.024544176 0.013675511
0.0028457101 0.022907039 0.0094691589
-0.015705919 0.020365102 0.0052648857
0.035420086 0.023010347 0.036279403
0.042862028 0.024149455 0.035175748
-0.015596094 0.0237223 0.0083993524
0.0036590118 0.023942269 0.012577064
-0.0018025786 0.023742469 0.011551507
0.012210659 0.021312263 0.010156333
-0.011800019 0.020704975 0.0044715255
0.0059062578 0.023947287 0.012374036
0.040674992 0.02416838 0.034269921
0.040396623 0.0241402 0.035613038
-0.028185302 0.024892323 0.012686387
-0.027447948 0.024900299 0.01222828
-0.00237431 0.023384269 0.0085633397
0.0043098368 0.02317328 0.012616977
0.0054682493 0.024150388 0.013436034
0.013260881 0.024925489 0.0090006292
0.0062511992 0.024249405 0.011293292
-0.016414041 0.023373235 0.0065018088
0.0094944444 0.024750093 0.012342803
-0.0043723974 0.020715266 0.0083759204
-0.0035245661 0.02298028 0.0074310675
-0.0026473533 0.02319839 0.0075169578
-0.0015447177 0.023430433 0.0071889907
-0.0010714345 0.023433685 0.0070952848
0.0011876468 0.023821285 0.0073451772
0.015246111 0.021724492 0.0043309703
0.015412393 0.0215475 0.0056897029
0.0027960837 0.023438066 0.010364577
0.016289826 0.021387026 0.0074869245
0.010528484 0.024105333 0.006533049
0.010789756 0.024239231 0.0055647567
0.011337779 0.02434713 0.0055179
0.012372321 0.024432581 0.0045384541
0.01228069 0.024714196 0.0034876168
0.033851918 0.022015616 0.033082984
-0.013193948 0.024116583 0.015060268
-0.012584319 0.024671543 0.014529273
-0.011907721 0.024839986 0.014544882
0.027511744 0.023657283 0.018418051
0.027761174 0.023503818 0.019526899
0.011397461 0.023858838 0.0075325742
0.013096463 0.01889253 0.015778676
0.0088766813 0.021432079 0.016965613
0.016441613 0.022498094 0.011384919
0.017108416 0.022352414 0.0094847754
0.016954076 0.022799484 0.012405269
0.011261176 0.021897791 0.012061685
0.04012033 0.024417561 0.03564427
0.040074378 0.024119556 0.036596946
-0.016477866 0.023813562 0.0091151595
0.0088719819 0.024805048 0.015497558
-0.015168091 0.02363373 0.0076262802
-0.028232655 0.025128191 0.012780093
-0.027546668 0.025133315 0.012426093
0.0010910891 0.022094017 0.00044843554
0.012554316 0.025156414 0.0053070709
-0.015645446 0.025133096 0.011515066
-0.0004746411 0.023603907 0.0086726621
-0.017499743 0.024397723 0.0084358007
-0.0023420677 0.018333411 0.0075950474
-0.023544667 0.019064162 0.01223661
0.038080171 0.019815186 0.024071626
0.0084551554 0.025082748 0.01302997
0.0084822085 0.025130842 0.010171957
0.0097171608 0.02510502 0.011655629
0.028525049 0.02492482 0.021963246
0.013672873 0.025127567 0.010171957
0.013078951 0.025042232 0.0086882785
0.01394449 0.02511823 0.010718569
0.0013845693 0.022331467 0.0024551228
-0.027009698 0.022895105 0.015528791
0.0023179781 0.022182429 0.0036698133
0.0033763256 0.022365699 0.0043719634
0.038899057 0.022023262 0.025961354
0.016368456 0.025106303 0.011355773
0.017380532 0.025104091 0.011460401
0.029156692 0.025118249 0.010437451
0.00033737533 0.023606412 0.0085945725
0.0025385935 0.023427576 0.0086383
0.0026463289 0.023382109 0.0096342564
0.011162445 0.02384147 0.0081260428
0.028936762 0.0230988 0.017059319
0.035735629 0.024675101 0.036831208
0.035369594 0.024344089 0.037393443
0.035817876 0.024088539 0.038080625
0.016329756 0.022327906 0.010432996
0.017169876 0.022728538 0.011280805
0.028712746 0.024990868 0.018027611
0.028927546 0.025015494 0.016559556
0.040807042 0.02471986 0.034207456
0.039962597 0.024674565 0.036893688
0.041576929 0.024686949 0.036175273
-0.028264401 0.025364911 0.012842566
-0.027624799 0.025367782 0.01258228
0.011241356 0.025391581 0.0075950474
0.011692529 0.025198337 0.0060332865
-0.0029596724 0.0233413 0.0098439828
-0.015538367 0.025359401 0.011858657
-0.014536196 0.025233468 0.011589691
0.037455168 0.019681089 0.024206974
0.014311755 0.023279535 0.0095316321
0.0083071794 0.025310893 0.01321739
0.015359863 0.023284955 0.01158274
-0.017798455 0.024372403 0.007635653
-0.0025939122 0.022718487 0.0044246688
-0.016701287 0.024170877 0.0096622482
-0.015173515 0.024048546 0.0088132247
0.0083094016 0.025331168 0.011843041
0.0024268944 0.022627 0.0044277832
-0.0026661064 0.021162495 0.0063924938
0.040458325 0.024526255 0.033512466
0.041778207 0.024387464 0.033621795
0.041274723 0.024159549 0.034691609
0.016377892 0.025334507 0.011255816
0.017390057 0.025332604 0.011351086
-0.026284074 0.024119724 0.015091501
-0.025491493 0.024756508 0.013420418
0.021137392 0.024796708 0.015653737
0.03059694 0.02519723 0.01111839
0.030862235 0.025335595 0.010937214
0.0024908129 0.023479767 0.0072586685
0.021626562 0.017748721 0.0061269924
0.034064136 0.024670821 0.0370811
0.042092659 0.024972357 0.035769217
0.036069654 0.02466201 0.037612088
0.016248532 0.022366174 0.0076325312
0.0030360278 0.023994736 0.010656096
0.0033225827 0.023973117 0.011447385
-0.0018755216 0.023545977 0.010515541
0.013139057 0.021283548 0.0065642819
0.033773437 0.023833383 0.036893688
-0.028280539 0.025602283 0.012873799
-0.027692525 0.025603179 0.01271762
-0.026552627 0.025371775 0.012207448
-0.024841832 0.025407357 0.012792587
-0.016672345 0.025292607 0.011786819
-0.014666403 0.025588356 0.01199922
0.041977044 0.024950707 0.037237279
-0.014826292 0.024048083 0.0088288411
0.013353957 0.025611389 0.0074232519
0.016390454 0.025562692 0.011124633
0.017398898 0.025560569 0.011249572
0.017952602 0.025558317 0.011405744
0.020694818 0.025561459 0.01106216
0.0070987679 0.021329781 0.0042945221
-0.025904106 0.024614355 0.014560498
-0.0041897949 0.02298132 0.007392019
-0.0033826921 0.023148729 0.0089069232
0.030531513 0.025558159 0.0111949
0.0073922183 0.020459257 0.0093129873
0.028136207 0.023600066 0.020440534
0.038575068 0.019823605 0.023915447
0.027631706 0.021736629 0.018191598
0.017869776 0.022451842 0.0046901703
0.018310102 0.022776777 0.0036906376
-0.0025631227 0.023660133 0.010496795
0.029050194 0.025451228 0.010734193
-0.014481625 0.025588842 0.011936747
0.034319103 0.023421014 0.036612563
-0.017238015 0.023835024 0.0083759278
-0.028281068 0.025840104 0.012873799
-0.027661918 0.025841117 0.012655154
-0.026608421 0.025842451 0.012319371
-0.024796912 0.025833733 0.01274886
-0.0045352671 0.023494288 0.0092100799
0.0098237339 0.025722349 0.0075013414
0.010404063 0.025615063 0.0073139295
0.010015067 0.021798056 0.014216915
0.010627491 0.025621075 0.0068245679
-0.016530758 0.025734678 0.012221761
0.012737477 0.025912803 -0.00035431236
0.013126845 0.025911147 -0.00022938102
-0.014521195 0.025816556 0.012358427
0.014050846 0.025823481 0.008001104
0.030726643 0.023439722 0.011364102
0.031171158 0.023507778 0.011600971
0.0085824635 0.018346209 0.0074180514
0.0095414594 0.018232472 0.0073674843
0.010359952 0.018078189 0.0073630139
0.037685033 0.021865167 0.029959463
-0.001626946 0.024546303 0.0097294524
-0.028206276 0.023990028 0.020276546
0.015620247 0.022375908 0.0042598322
0.002697086 0.024022888 0.009625338
-0.012487879 0.025332782 0.013311096
0.015512434 0.021535937 0.0067391992
-0.01164989 0.025294844 0.014344692
-0.011462895 0.025068218 0.015029028
0.010473246 0.024625311 0.0075794309
0.0037798546 0.023548573 0.01228033
0.02825238 0.024715578 0.01987049
0.027520182 0.023977052 0.020089135
0.0043998975 0.023641158 0.013560966
-0.0061847437 0.026048578 0.01056239
0.013892302 0.02375222 0.011155866
0.013570969 0.023252647 0.012551039
0.014290331 0.023594014 0.012631737
0.021145167 0.025673956 0.011093393
0.039712165 0.021750472 0.026304945
-0.0085959267 0.019257776 0.013487145
0.013721141 0.022068448 0.0037843511
0.033909462 0.024445068 0.034176223
0.013938552 0.018799059 0.010749802
-0.013141872 0.022752475 0.019932963
0.0070004687 0.025679622 0.011452593
0.041403942 0.024951452 0.037174799
-0.0017489288 0.022081982 0.0031908825
-0.028469058 0.022881547 0.015856765
-0.027488241 0.022897374 0.015445501
-0.027600361 0.026079275 0.012530208
-0.026593747 0.026078887 0.012288138
-0.024642596 0.026070429 0.012686387
0.028852824 0.023715137 0.012311563
-0.004464535 0.024641909 0.010410123
-0.0047092792 0.024213575 0.0095888972
0.037521284 0.021815598 0.03120888
-0.01723952 0.026057389 0.0121658
-0.016857149 0.026051506 0.012733243
-0.0092553776 0.02375894 0.010999687
-0.0086068418 0.023251336 0.011105888
0.013144633 0.026114989 -0.00035431236
-0.014522141 0.026046816 0.012680151
0.0064635109 0.026023313 0.011257373
0.006492937 0.025457101 0.011103146
0.0071925167 0.025784196 0.012295954
0.0086595099 0.025435755 0.012498975
-0.01459063 0.024290349 0.009475857
0.017526424 0.026014872 0.011082985
0.018194456 0.026013345 0.011218324
0.020681126 0.026011428 0.011301622
0.039604522 0.022000376 0.026523598
0.027705129 0.026005816 0.011780567
0.030529529 0.02601148 0.011124633
0.013133802 0.026095785 0.0019102395
0.033805486 0.025789557 0.03751839
0.02960933 0.026016258 0.010546774
0.030065656 0.026014587 0.010749809
-0.014568457 0.026279865 0.012800917
0.033605658 0.024182361 0.033613987
0.041165669 0.025145462 0.036706291
-0.027647654 0.026315689 0.012623921
-0.02660981 0.026314851 0.012319371
-0.024599126 0.026307315 0.012592681
-0.018570883 0.026182257 0.011550203
-0.017805228 0.026178623 0.011759758
0.012909506 0.026320871 -0.00083845854
0.013067089 0.02631871 -0.00052610785
0.013793092 0.02479212 0.010109484
0.014051716 0.024666009 0.010770626
0.015670823 0.024815558 0.010781035
0.014232775 0.026157409 0.0074076429
0.014046665 0.026263073 0.0080323443
0.017759643 0.026241399 0.010999687
0.018208532 0.026240863 0.011041343
0.020678543 0.026237668 0.011343271
0.026683653 0.026240589 0.01064048
0.027471054 0.026241407 0.010506168
0.027252479 0.026000135 0.012457326
-0.0026122406 0.024336044 0.01067172
0.01317292 0.026314205 0.00016106665
-0.01288115 0.022805769 0.018433668
0.0029117242 0.024007525 0.010187574
0.030177316 0.026240297 0.010708153
-0.014498511 0.026513066 0.012936272
-0.014408318 0.026434351 0.013019562
0.034544054 0.024287179 0.036612578
0.0080956258 0.025543867 0.013092443
-0.027556261 0.026552195 0.012694195
-0.024555793 0.026543805 0.012498982
-0.018472383 0.026530204 0.011603571
-0.017917247 0.026528019 0.011733718
0.012999427 0.026521998 -0.00076037645
0.014346022 0.026485587 0.0073764026
0.01517775 0.026478881 0.008766368
0.042085879 0.025008684 0.033301629
-0.027576094 0.022385979 0.01750356
0.017762147 0.026467502 0.010968454
0.020685529 0.026464798 0.011218339
0.026683861 0.026466038 0.010562398
0.027470974 0.026466312 0.010493673
-0.0018503051 0.02479591 0.010421835
0.013494675 0.026511492 0.0015510321
0.026787626 0.025712362 0.018058844
0.015693743 0.021366049 0.0072599724
0.030064337 0.026465653 0.010702945
-0.014590805 0.026746977 0.013178341
0.016656464 0.022656757 0.0131393
-0.024660135 0.026780264 0.012452118
-0.018473072 0.026762724 0.011603571
-0.017950134 0.026760548 0.0118118
0.013075618 0.026723249 -0.00058858097
0.040454779 0.023429522 0.037299745
0.014378528 0.024424257 0.011468209
0.0065319855 0.026248995 0.01149945
0.034659818 0.025084034 0.037658937
0.035342339 0.025229966 0.037284113
0.016162984 0.023284409 0.011599399
0.0020339768 0.02320254 0.0044402853
-0.0036656186 0.022131322 0.0083030462
0.028838983 0.02396502 0.011530682
0.029318308 0.024234306 0.011633769
0.030682504 0.024520965 0.011187091
0.031100236 0.02442494 0.011243321
-0.012500169 0.024475915 0.012280338
-0.012761252 0.024592398 0.011405744
-0.011934863 0.020788265 0.014966562
0.0033215284 0.022766732 0.0073659867
0.0034168418 0.022704398 0.0089381635
-0.010338718 0.024864843 0.013154916
0.027148504 0.02331686 0.017730877
0.028702868 0.023327595 0.017371669
-0.0025706366 0.025277115 0.011798419
-0.0016332492 0.025354777 0.010905981
0.012185109 0.023914589 0.0056272298
-0.014177514 0.023559384 0.017808959
-0.01353729 0.023682289 0.01778163
-0.012654873 0.023560449 0.017777726
0.04243248 0.02267094 0.03236457
0.036547299 0.021610599 0.036383502
0.036895338 0.021855051 0.037299745
-0.01224055 0.026501914 0.014091976
-0.011562465 0.026733132 0.015310146
0.027270259 0.025707558 0.018511757
0.010172633 0.025054662 0.0080791935
0.011143204 0.025161376 0.008250989
0.010545101 0.025211301 0.0097398609
0.01274286 0.025166549 0.0078865737
0.014739378 0.024312705 0.012314692
0.015226424 0.024496807 0.012261584
-0.022561675 0.026539106 0.012236074
0.029357713 0.023465691 0.012158863
-0.0075423699 0.024327809 0.010820597
-0.0074893925 0.024802953 0.011102319
0.040184591 0.022095386 0.030865289
-0.014472341 0.02698143 0.013186157
0.040213384 0.022442732 0.032458283
0.014201032 0.023011146 0.0067829341
0.014654252 0.023200693 0.0075638071
0.0084884427 0.025459673 0.010796659
0.0093764365 0.025272628 0.012636416
0.0019994788 0.022020033 0.0024100021
0.0067607965 0.026931917 0.01274886
0.014326802 0.026922787 0.0075325742
0.013524028 0.026924511 0.0013323873
-0.016593272 0.026661018 0.014240339
-0.0025356878 0.024460901 0.011456504
-0.0019033011 0.024064507 0.012374036
-0.029325495 0.024433766 0.023243897
0.0340771 0.026775574 0.037315361
0.015563788 0.024594584 0.011444785
-0.0236807 0.026487401 0.012357213
0.030686177 0.023025999 0.012384452
-0.014500549 0.027216449 0.013259031
0.034256738 0.025521008 0.036315836
0.0081707742 0.022737242 0.014029503
0.0080854259 0.026700227 0.012467742
-0.029016463 0.023656799 0.014341854
-0.027346766 0.023890577 0.014622971
-0.026821213 0.02354759 0.014600657
-0.011925904 0.021010455 0.010843508
-0.018480292 0.027128328 0.01178503
-0.018072812 0.026993774 0.0118118
-0.0092149284 0.024252921 0.011114217
-0.0086342152 0.024612615 0.011261284
0.013102276 0.026925333 -0.00077599287
-0.0044992622 0.021313075 0.0055647567
-0.0040411931 0.02177437 0.0050337613
0.014407226 0.025469532 0.011414081
0.013933076 0.025342401 0.010812275
0.015665226 0.025378874 0.010833092
0.014281415 0.027142517 0.007907398
0.017758086 0.023077246 0.01103092
0.016613562 0.020762574 0.0044611096
0.013607875 0.027130749 0.0014729425
0.042254586 0.022813799 0.033567138
0.010558764 0.022865351 0.01064048
-0.0026039928 0.024180599 0.012358412
0.014412163 0.02643327 0.0033314377
0.014159807 0.026416408 0.0027134269
-0.012555575 0.026433786 0.013424024
-0.011676023 0.026600424 0.014422171
0.038787853 0.024264505 0.036362685
0.039725345 0.024412805 0.035894163
0.033789776 0.026634898 0.037206031
-0.01446216 0.027450943 0.013154909
-0.027426785 0.023196846 0.013732769
0.012259906 0.019889899 0.014935322
0.0067408625 0.026358062 0.01244171
0.0066960398 0.027389364 0.011843041
0.0077005625 0.027329952 0.01169467
0.0073201917 0.027074318 0.012377948
0.0082403868 0.027271602 0.011561923
0.016463537 0.024875931 0.011546306
0.017370928 0.024875123 0.011569731
-0.012457529 0.025271278 0.011663437
0.0023293551 0.023110513 0.0051961914
-0.011922499 0.02492287 0.010187574
0.013628718 0.027336461 0.0013167709
0.01117558 0.021601729 0.013467275
0.007419141 0.0204308 0.012639537
-0.005350085 0.026433758 0.010652974
-0.0054729488 0.026145928 0.0096003562
-0.0045222025 0.02643317 0.011017531
0.016710531 0.021544112 0.0085945725
0.0095686615 0.024913328 0.0097502768
0.0098608043 0.024668345 0.010749802
0.027531242 0.024047982 0.022228748
0.027033292 0.024147801 0.023306362
0.028311748 0.024489064 0.025102384
0.018067274 0.025785208 0.011390127
-0.025616268 0.025531573 0.01255776
0.0277701 0.023713447 0.020776309
-0.002379911 0.025785776 0.013279863
-0.0025493503 0.025632942 0.012213394
-0.014447374 0.027685443 0.013113268
-0.017204368 0.024909392 0.011187099
0.037537377 0.020486521 0.024187885
-0.017646777 0.02519037 0.0095316246
0.019003645 0.02691862 0.0094691589
0.013913962 0.025792262 0.010968454
0.013640461 0.025404586 0.010437459
-0.016683226 0.027319035 0.015348583
0.0066898074 0.027618162 0.011874273
0.0073244479 0.027614987 0.011546306
0.0082812924 0.027611878 0.011319853
-0.026523331 0.024779763 0.012280338
0.013697602 0.026382614 0.0023600236
-0.012161231 0.026040383 0.012842566
-0.010519231 0.02550385 0.013506316
-0.0096568186 0.025329813 0.013272919
0.011215789 0.024111133 0.0063144043
0.028717503 0.024503855 0.018329561
0.0126697 0.024749633 0.0068141669
0.02892979 0.024656659 0.016684495
0.013607327 0.0275435 0.0014729425
0.035154358 0.022444829 0.036508448
0.04212933 0.023906782 0.033676453
-0.014528254 0.022448383 0.0040654764
-0.015877111 0.020830827 0.0048385337
0.02847372 0.025229616 0.01815255
0.012899664 0.025158446 0.0083655119
0.034803957 0.02303832 0.035331927
0.0079373345 0.02002757 0.012655154
-0.014568163 0.027920591 0.01310806
-0.013588699 0.027468674 0.013372272
0.034072652 0.025538314 0.03464476
-0.01670791 0.024762169 0.011304229
-0.023637721 0.027342174 0.012349039
0.033438027 0.022271901 0.03164617
-0.019102274 0.02699711 0.011936747
0.019109016 0.027476011 0.0095472559
0.043001674 0.020720134 0.02361872
0.040721569 0.024967805 0.036050327
0.014529584 0.026013112 0.011530682
0.014827119 0.026244083 0.010905981
0.015492486 0.026169747 0.010682121
0.0033151917 0.022196278 0.0038988739
0.0067589823 0.027843662 0.01149945
0.0074395742 0.027842669 0.011543177
0.008501729 0.027839214 0.011366703
0.0090416912 0.027839819 0.011561923
0.010088731 0.027837107 0.011452593
-0.025346605 0.024635408 0.012124158
-0.0015994012 0.027215345 0.011645213
-0.00071995705 0.027631178 0.011239156
0.013468209 0.025523324 0.0085321069
-0.013586828 0.024131861 0.01768402
0.041318655 0.023252815 0.032583214
-0.012647798 0.024048494 0.017756909
0.0094999671 0.019774184 0.014253356
-0.0035696067 0.025450027 0.01244431
0.011753852 0.027562616 0.0041591749
0.011269175 0.027569935 0.0052367821
-0.015640466 0.027316928 0.014454305
-0.0018321853 0.025350161 0.011218332
0.014485838 0.027297119 0.0034858659
-0.012138436 0.027571123 0.015544407
-0.011903232 0.027318493 0.015660673
0.017843971 0.02298658 0.0074388683
0.018178672 0.02309875 0.0073607787
-0.011924269 0.021391593 0.0057990178
0.014645093 0.026705403 0.0066996366
0.01456977 0.026776811 0.0073347464
0.015052899 0.026922118 0.0069391057
0.0080637317 0.021377228 0.013279855
0.0094307214 0.025146216 0.0092192814
0.0092505962 0.025353001 0.010312513
0.02727963 0.025674874 0.021619663
0.010175027 0.025332496 0.011655629
0.010093372 0.025095837 0.012186624
0.0012950283 0.022223884 0.001507014
0.018447604 0.026918998 0.0094535425
0.039315727 0.024663962 0.03751839
0.033504874 0.027758064 0.037127949
0.034144469 0.027548041 0.037252896
0.014708875 0.025096826 0.011967979
0.015198573 0.025493661 0.011240199
0.016401168 0.025790136 0.011012189
-0.014229493 0.023814011 0.0091099516
0.01740361 0.025787625 0.011194907
-0.013596872 0.023203766 0.0071785823
-0.014569117 0.028155336 0.01310806
-0.013919713 0.028154749 0.013326712
0.041446265 0.023368344 0.033322461
0.034513269 0.026457261 0.036494337
0.0081495363 0.026929919 0.012092918
0.0093596168 0.027846389 0.012436509
-0.027210126 0.024138629 0.014341854
-0.026525414 0.024138546 0.014341846
-0.018487493 0.025844887 0.010489509
-0.017470451 0.025550446 0.011497229
0.028486261 0.025676861 0.010713354
0.027932711 0.025778303 0.011780567
0.029224919 0.021707505 0.013670295
0.030415317 0.025785578 0.011093393
0.013544303 0.021446113 0.0055491403
-0.013495749 0.025805609 0.013186157
-0.013661681 0.025203288 0.011785775
-0.026793567 0.027747218 0.015060268
-0.011652069 0.025586486 0.011749335
0.011611507 0.02467962 0.0034772009
-0.015475737 0.028067501 0.013373569
0.017374378 0.026882559 0.0094066933
0.0045224093 0.028096452 0.013456859
0.005130114 0.028093897 0.013342328
0.0064762365 0.028068839 0.011171483
0.0074036643 0.028072696 0.011741526
0.0084695648 0.028068649 0.011554115
0.0094694328 0.028068766 0.011749335
0.010328909 0.028063376 0.011374511
0.0044742469 0.027830482 0.015103996
0.0051627681 0.027639898 0.014987387
0.016172463 0.022934798 0.0088132247
0.015060331 0.027465949 0.0068688318
0.015317503 0.027620904 0.0073014423
0.016207885 0.023089547 0.010687336
-0.0015427805 0.028100986 0.012317814
-0.011810964 0.021342803 0.0043096766
-0.02466101 0.019239496 0.013508916
-0.0045298245 0.022437403 0.0042023063
0.033326227 0.028181 0.037320577
0.01566726 0.026475819 0.0093858689
0.0090138894 0.025560074 0.011749335
0.0028920081 0.02806795 0.010250039
0.0032274257 0.028077995 0.011327654
0.010860622 0.027573911 0.0057834014
0.014531141 0.027769886 0.0040654689
-0.0060903002 0.022377569 0.001223065
0.015318381 0.026812484 0.0075013489
0.0082432088 0.024668556 0.016434617
0.030369939 0.023791667 0.0096878111
-0.013633041 0.023666101 0.0095222592
0.033772051 0.026215248 0.03686244
0.038337089 0.021653321 0.024110667
0.015160564 0.024156043 0.013092451
0.029723909 0.02579046 0.010624863
0.029952759 0.025789158 0.010749802
-0.016718229 0.027944887 0.015185207
0.012821767 0.024435908 0.0082420632
0.0053366926 0.027746262 0.013482884
-0.017279325 0.024490044 0.0093286037
0.0036611054 0.028177738 0.012211613
-0.003459448 0.021027861 0.0068141669
0.0073159337 0.028301986 0.011801392
0.0083086528 0.028300142 0.011822209
0.0073273517 0.026378483 0.01270096
0.015618177 0.027461018 0.0084453449
0.010119701 0.022293109 0.01352974
-0.0028917175 0.028333256 0.012092918
-0.0024959706 0.028185092 0.011823528
-0.0019042138 0.02832783 0.011905506
-0.001422951 0.028331134 0.012303762
-0.0049816761 0.02244062 0.0035032332
0.03348466 0.028175354 0.036706276
0.014310333 0.026253276 0.0095316321
0.0011184104 0.028307389 0.010968454
0.0024374537 0.02829482 0.010237537
0.0032661818 0.028310124 0.011676446
0.038910121 0.024660228 0.037737034
0.036302008 0.022409476 0.035184674
-0.016711371 0.027429856 0.014627434
0.013723303 0.027748959 0.001379244
0.034251161 0.025115354 0.035378776
-0.025977859 0.023761909 0.010781042
0.03769137 0.028577087 0.034925871
0.030508809 0.023655405 0.010499924
0.041381024 0.022570539 0.025024302
-0.027592966 0.021798393 0.018402435
0.020692354 0.025787011 0.011103809
0.0045305006 0.021765895 0.0036370978
0.0025967192 0.027725125 0.0095472485
0.0028648674 0.027730247 0.010374986
-0.0031217653 0.026365787 0.013826475
0.0030034445 0.02773276 0.010781042
-0.0025808066 0.026372034 0.012527086
0.015144642 0.026016224 0.011109009
0.0035227258 0.028544091 0.012092918
0.034637697 0.027440999 0.036651604
0.0070535187 0.028530566 0.011764951
-0.014589047 0.023522051 0.0076366961
0.010760579 0.028056541 0.010781042
0.03923624 0.02178682 0.025445975
0.014537498 0.028248759 0.0085320994
0.015402989 0.02813937 0.0087195188
-0.0032569636 0.028490778 0.01228033
-0.0026002191 0.028565809 0.01231157
-0.026165763 0.023765441 0.010656096
0.00037949532 0.028332967 0.011448994
0.00156953 0.028301015 0.010523349
0.002462374 0.028062839 0.0096331462
0.0024910551 0.028524235 0.010499932
0.037548728 0.028852701 0.034873806
0.0043897219 0.0283581 0.012439348
-0.01514714 0.02737632 0.013675511
0.014761001 0.027419128 0.0067650899
0.041957211 0.022782043 0.03458228
0.0054021496 0.022165004 0.0038530603
0.030263616 0.028429121 0.023574986
-0.0095517728 0.019453734 0.01352679
0.039470904 0.023602989 0.03766676
0.040618628 0.027759677 0.036393918
0.0033212751 0.022712734 0.0051170588
-0.018142829 0.025628248 0.0093910769
-0.017888965 0.02504958 0.0086258054
0.030106507 0.027777102 0.020588897
0.0078837033 0.026468607 0.012967505
0.016821112 0.027142089 0.0089693964
-0.027693553 0.023856699 0.015872382
0.017243521 0.027612589 0.0088991225
-0.026906816 0.023436757 0.013717152
0.018360753 0.0274744 0.009147428
-0.017087461 0.024696425 0.010312513
0.034629732 0.028438849 0.036567442
0.035309542 0.02845691 0.036725782
0.01642951 0.026243763 0.010718569
0.017361676 0.026448248 0.010616347
-0.027329432 0.02678851 0.01274886
-0.026498428 0.026668722 0.012348004
-0.025568521 0.026410311 0.012459517
-0.017663596 0.027319644 0.012359448
-0.0044924412 0.025477255 0.01055263
-0.012235546 0.028237229 0.014409527
-0.012169825 0.028088022 0.015393443
0.014812441 0.02825458 0.0090318695
0.01482815 0.028503397 0.010874748
0.010995053 0.027817357 0.0092192814
-0.026262371 0.023965165 0.011874273
0.030186631 0.027401548 0.019058377
0.014392141 0.027633376 0.0074388757
0.016369265 0.027491845 0.0088082924
0.036646672 0.029143447 0.03580045
0.037545696 0.029128451 0.034832157
0.017513461 0.02733561 0.0089850128
0.038105641 0.029130219 0.034894623
0.026471483 0.028582405 0.01681985
0.026489509 0.028770151 0.017371677
0.027145468 0.028576178 0.016387768
-0.0087280404 0.025418876 0.01238966
0.013758312 0.028162824 0.0073868111
0.014214461 0.028008685 0.0066475868
0.041229174 0.023794161 0.03555838
0.042381719 0.023577852 0.035847314
-0.011852143 0.028166642 0.015422598
0.027781276 0.023920443 0.02233807
0.032984558 0.028611707 0.038049392
0.041803777 0.02493594 0.038236804
-0.015580295 0.024784598 0.010437451
0.029229874 0.024798406 0.010699823
-0.022648955 0.027165843 0.012332387
0.030439328 0.028933639 0.023525007
0.0040780101 0.022585675 0.006454967
0.039365005 0.024307599 0.036529265
0.0052720346 0.028595401 0.012422621
0.039445505 0.028610934 0.035454027
0.040239811 0.028777864 0.035873346
0.040514417 0.028347276 0.036130153
0.020685999 0.02669117 0.011207923
-0.026395893 0.024154184 0.013717152
0.023201635 0.028463354 0.0086079612
-0.00096206367 0.02313054 0.0034720004
0.0033785962 0.029005969 0.012217857
0.0043860767 0.029006364 0.012397461
0.018399546 0.026543539 0.010531157
-0.013605395 0.028161256 0.014133617
0.014034647 0.027971091 0.0029722378
0.015615864 0.028329106 0.0091463998
0.015956353 0.024887649 0.010937214
0.017048169 0.028028568 0.0089069232
0.032696746 0.02945756 0.037924446
0.033190466 0.02928975 0.036393918
0.00068266876 0.029015828 0.012295946
0.0024814438 0.028996458 0.011554107
0.036358025 0.029418804 0.035659887
0.037542664 0.029404052 0.034790508
0.038244817 0.029406972 0.034894623
0.002212422 0.027774516 0.0085164905
-0.0062562246 0.025704285 0.010796659
0.014431941 0.02812754 0.0075560063
0.039394654 0.029277664 0.035308503
0.04023011 0.029240634 0.035769217
-0.016583303 0.024461458 0.010549903
0.020928476 0.027820358 0.010905981
0.022898924 0.027833181 0.012561448
0.030559022 0.027671117 0.023337595
-0.0079872515 0.022920594 0.0089381635
-0.027293427 0.027104776 0.012759268
0.0036632959 0.029241063 0.012514599
0.0044335518 0.029243195 0.012730122
0.0055469107 0.029257741 0.013592206
0.0061741304 0.029251534 0.013373569
0.041536521 0.024526063 0.035806708
0.0083346087 0.028788229 0.013717152
0.0038024615 0.027708996 0.013165332
0.010273423 0.028304549 0.012488559
-0.026709633 0.021458134 0.017454974
-0.025728522 0.02519675 0.013206974
0.030018177 0.028906349 0.02190078
0.00022992492 0.028998865 0.011288621
0.0024518389 0.029238384 0.012199126
0.037543051 0.029680373 0.034790508
0.038239863 0.029682256 0.034832157
-0.026657177 0.023485435 0.0121658
0.0078297127 0.019785954 0.009375453
0.038605474 0.029341113 0.035050802
0.013472506 0.028561145 0.011580661
0.0062042754 0.027511531 0.013233006
-0.021256538 0.025716133 0.012092918
0.016815417 0.028362971 0.0090162531
0.017455535 0.028211808 0.0090886578
