# .PCD v0.7 - Point Cloud Data file format
VERSION 0.7
FIELDS x y z
SIZE 4 4 4
TYPE F F F
COUNT 1 1 1
WIDTH 1211
HEIGHT 1
VIEWPOINT 0 0 0 1 0 0 0
POINTS 1211
DATA ascii
0.0119085051 0.0168507770 0.0070448052
0.0100036003 0.0193389878 0.0100199636
-0.0102311168 0.0183783285 0.0020515081
0.0296013206 0.0185248964 0.0130927321
-0.0240632463 0.0118309502 0.0075523760
0.0416436344 0.0170341600 0.0276262071
0.0077172923 0.0177700948 0.0051472615
0.0084289480 0.0178610869 0.0054049548
-0.0101627950 0.0186648909 0.0121400487
-0.0011479692 0.0187241361 0.0044531431
-0.0200239960 0.0186952949 0.0083801132
-0.0042553605 0.0129285790 0.0070760380
-0.0409960225 0.0206509195 0.0297762360
-0.0028225188 0.0169208385 0.0056157913
0.0045900955 0.0139820650 0.0066215675
0.0183549747 0.0190455988 0.0035334434
0.0188521650 0.0190481711 0.0036167409
0.0195570420 0.0190482792 0.0036479812
0.0205652229 0.0190480351 0.0036792140
-0.0099051315 0.0178650189 0.0126437228
0.0386091694 0.0199995488 0.0261919927
0.0260191411 0.0194631554 0.0136744808
0.0258128941 0.0194317214 0.0129248332
0.0262346268 0.0194801614 0.0140805375
0.0267822128 0.0195204243 0.0150410291
0.0276835561 0.0192958377 0.0150722545
-0.0394723564 0.0207649171 0.0296981465
-0.0101041514 0.0186294243 0.0030420106
-0.0357613638 0.0207090005 0.0293233301
-0.0098191407 0.0189214442 0.0021643024
-0.0098334420 0.0188825987 0.0011491608
-0.0346788764 0.0200692825 0.0267308038
0.0323598981 0.0193484798 0.0163398813
-0.0402491316 0.0194970071 0.0296591055
0.0099994000 0.0189079214 0.0100511964
-0.0095272157 0.0198820122 0.0151893860
-0.0083502699 0.0199054778 0.0159234162
-0.0074048438 0.0199002363 0.0159468483
-0.0216415729 0.0192527287 0.0112537500
0.0087425672 0.0192555152 0.0030623134
0.0092363209 0.0192682296 0.0033980962
0.0095945634 0.0192782339 0.0036583897
0.0437018722 0.0194095150 0.0268264394
0.0198854581 0.0160292555 0.0045850333
0.0159033835 0.0193320885 0.0053346809
0.0177066959 0.0174460746 0.0044586714
-0.0261166003 0.0200711191 0.0163294729
-0.0255092029 0.0200568251 0.0161316525
-0.0040534274 0.0195696987 0.0087705534
0.0141913518 0.0175706092 0.0088017862
-0.0143806059 0.0152871534 0.0071369614
-0.0135813933 0.0153809488 0.0067487787
-0.0269572604 0.0171233416 0.0098013114
-0.0100647788 0.0186085142 0.0009461250
-0.0020119199 0.0159086399 0.0097700786
-0.0263852309 0.0174777061 0.0099372920
0.0276812185 0.0196600743 0.0156618264
0.0179929081 0.0160470940 0.0061155614
-0.0262014028 0.0164151192 0.0068574008
-0.0261323433 0.0166470259 0.0079792570
-0.0263315793 0.0166569687 0.0086456146
-0.0180492271 0.0176721886 0.0054971036
-0.0351088867 0.0209140070 0.0280739199
0.0146483704 0.0194416270 0.0077554118
-0.0074183964 0.0172619261 0.0111600440
0.0260159839 0.0196930058 0.0138306599
0.0089532360 0.0188407153 0.0003214236
0.0256081522 0.0182387065 0.0122626405
-0.0111150015 0.0181579553 0.0035230350
0.0307222810 0.0196437724 0.0159195121
0.0009517162 0.0176664107 0.0111131947
0.0003649010 0.0172792412 0.0121712815
0.0089546368 0.0183190834 0.0073649716
0.0090454016 0.0183978360 0.0076304656
0.0323524699 0.0197971277 0.0161420610
0.0096509177 0.0184452441 0.0091016497
-0.0083705802 0.0193434134 0.0150399050
-0.0074424096 0.0192800499 0.0151529443
-0.0280989725 0.0183732808 0.0142679494
-0.0099984016 0.0200110488 0.0128623676
0.0447876900 0.0201213621 0.0267464276
0.0453644693 0.0201736279 0.0269494485
-0.0411684960 0.0205554180 0.0293483119
-0.0404270291 0.0202238820 0.0293024983
0.0280213095 0.0200085640 0.0158297103
0.0086065121 0.0186481550 0.0029920395
0.0083162338 0.0184292663 0.0039134752
0.0436201766 0.0184146725 0.0271895807
-0.0100845601 0.0193677582 0.0130428430
-0.0325106680 0.0199139006 0.0231387522
0.0178526230 0.0188436359 0.0035074186
0.0115171913 0.0171225853 0.0074899029
0.0295381732 0.0152316615 0.0051075127
-0.0119304042 0.0195348375 0.0018363353
-0.0186498072 0.0180723220 0.0059906151
-0.0102339666 0.0192677584 0.0006598067
-0.0039952607 0.0197765417 0.0085831415
-0.0024922010 0.0192882679 0.0048661511
-0.0374285355 0.0212535672 0.0291671511
-0.0363855883 0.0212394260 0.0291202944
-0.0351120755 0.0211775862 0.0280739199
-0.0244061965 0.0174375139 0.0099762436
0.0046520340 0.0188641995 0.0044288542
0.0047473698 0.0184593834 0.0046818536
0.0036126333 0.0184121523 0.0053763222
0.0036309916 0.0184883438 0.0059781279
0.0286612511 0.0193704218 0.0150436219
0.0275677200 0.0200013109 0.0156735312
0.0296125971 0.0197834149 0.0158734377
0.0295280050 0.0194899961 0.0151998010
0.0302644651 0.0191566311 0.0143772718
0.0008001267 0.0176396016 0.0100043397
0.0148136802 0.0194567330 0.0035074186
-0.0223694127 0.0124995150 0.0070124771
0.0085785557 0.0183893871 0.0048599001
0.0154221524 0.0194550641 0.0035074186
-0.0255321804 0.0205668621 0.0169463735
0.0403962471 0.0197674669 0.0265433919
0.0237633772 0.0185383279 0.0114738252
0.0245057717 0.0182485897 0.0114657041
0.0247122310 0.0184475631 0.0118316095
-0.0055982606 0.0168484021 0.0068183523
-0.0101093296 0.0188224856 -0.0004750732
-0.0051443302 0.0201028585 0.0107696038
0.0093753636 0.0184848271 0.0081458520
0.0449417979 0.0205356181 0.0266370978
0.0277942941 0.0202360936 0.0158297028
-0.0048942589 0.0200318694 0.0093015488
0.0233450830 0.0144299641 0.0079115760
-0.0123733450 0.0197667293 0.0023673307
-0.0114998352 0.0197574347 0.0023360979
0.0226544421 0.0136397779 0.0080287140
0.0097397342 0.0192973651 0.0073129069
-0.0042380379 0.0199964419 0.0086456146
0.0125463232 0.0185309965 0.0119174998
0.0126322266 0.0181598086 0.0109431352
0.0135516152 0.0181298535 0.0111712050
0.0135556236 0.0184383467 0.0120368656
0.0142390598 0.0180797838 0.0116441902
-0.0200354401 0.0191335622 0.0083957296
-0.0192478467 0.0193886943 0.0067402627
-0.0362934396 0.0214959793 0.0289406907
-0.0254524294 0.0180338304 0.0108789336
-0.0244283583 0.0186085105 0.0120547172
-0.0234370548 0.0184863657 0.0119981896
-0.0232250150 0.0187590662 0.0130289551
-0.0035262168 0.0173677020 0.0056275111
0.0036163661 0.0145289917 0.0069242101
0.0040358393 0.0183132235 0.0045225602
0.0296398774 0.0191387795 0.0142401811
-0.0007123244 0.0172831491 0.0099991392
0.0417125002 0.0187856555 0.0270900112
0.0098057985 0.0188170392 0.0039915573
-0.0100635942 0.0195322633 0.0101370942
0.0068319715 0.0143984035 0.0065528508
0.0257822294 0.0186725836 0.0129069742
-0.0113162566 0.0197834633 0.0029295664
-0.0073121996 0.0201352499 0.0111340117
-0.0063506276 0.0201215222 0.0109882560
-0.0322185829 0.0205408819 0.0230918955
0.0623848289 0.0166231543 0.0433088988
-0.0003370945 0.0166929867 0.0117457192
0.0006333492 0.0166925751 0.0119096916
-0.0331451818 0.0196915977 0.0238259267
0.0093271378 0.0174422096 0.0083051380
0.0176952239 0.0183720924 0.0041373428
0.0172138344 0.0185520574 0.0046995636
0.0085920244 0.0192339383 0.0025547426
0.0085123256 0.0197368786 0.0032627415
0.0086740926 0.0194843970 0.0036479812
0.0426912159 0.0194066167 0.0268166792
-0.0116900746 0.0199603550 0.0022736248
0.0097728930 0.0192025267 0.0080052894
-0.0099767875 0.0202300586 0.0139399823
-0.0011851587 0.0172039531 0.0095826667
-0.0073413276 0.0202959143 0.0098950174
-0.0063722902 0.0201858394 0.0100355800
-0.0064941705 0.0202328190 0.0087393131
-0.0057795593 0.0202536695 0.0092703160
-0.0305062756 0.0192634687 0.0193280559
-0.0262076352 0.0183050632 0.0123313647
-0.0254382696 0.0182909202 0.0120398458
-0.0244447310 0.0181437284 0.0110585298
-0.0243938807 0.0189937558 0.0128936004
-0.0318459123 0.0213838108 0.0223578718
0.0285134111 0.0197015479 0.0157412197
0.0062904856 0.0183094237 0.0046787392
0.0112271160 0.0201270208 0.0153768044
0.0096199755 0.0187652539 0.0001236033
-0.0100739989 0.0194572806 0.0080476757
-0.0263628047 0.0075808987 0.0093835350
-0.0014914931 0.0169661231 0.0083644968
0.0136242881 0.0145088602 0.0040618461
-0.0262938906 0.0203139149 0.0164231788
-0.0253701676 0.0203016810 0.0163607057
-0.0246430654 0.0200285316 0.0156579148
0.0386317372 0.0206299461 0.0261498298
0.0396289900 0.0205095150 0.0263809618
0.0406115986 0.0204242915 0.0263982322
-0.0243895631 0.0104876347 0.0080818739
0.0425607003 0.0164297000 0.0276636984
0.0083012916 0.0200595632 0.0029607993
0.0235865284 0.0183745231 0.0118940677
-0.0051558004 0.0202064179 0.0041998085
-0.0100129154 0.0193554536 -0.0007171500
0.0211261772 0.0171431322 0.0043351483
-0.0321853906 0.0211677663 0.0230138134
0.0613406077 0.0157604199 0.0438476950
-0.0096150171 0.0201604739 0.0152299982
-0.0254295673 0.0166473016 0.0083124395
-0.0100714806 0.0186783783 0.0001079869
-0.0110824052 0.0194605589 0.0003370475
0.0045810207 0.0174164213 0.0079896729
-0.0012531863 0.0166674927 0.0116949435
0.0089502390 0.0199948438 0.0017738622
0.0028883065 0.0185805354 0.0061467942
0.0157051329 0.0184000507 0.0082161259
0.0253955685 0.0158511158 0.0079740565
-0.0181931499 0.0193741508 0.0048453268
-0.0110285822 0.0193430930 0.0007118713
-0.0240756106 0.0180094335 0.0103323143
0.0165660083 0.0200447254 0.0032481607
-0.0055263438 0.0200627558 0.0098637845
-0.0101830568 0.0194601789 0.0122064259
0.0102218855 0.0192726962 0.0035855081
0.0000511347 0.0175913163 0.0079272073
0.0113126989 0.0207039416 0.0155485924
-0.0266174320 0.0196209401 0.0168292355
0.0024641915 0.0196542107 0.0043268185
0.0029615755 0.0192583743 0.0057095047
0.0083652548 0.0202441029 0.0026484486
0.0236111172 0.0194232352 0.0126957726
-0.0051465691 0.0204112604 0.0041685607
-0.0099701826 0.0199828632 0.0030545052
-0.0326796100 0.0216996372 0.0234198701
0.0256650131 0.0157739017 0.0070422050
-0.0180565882 0.0198278576 0.0043289047
0.0125761069 0.0177251659 0.0100407954
0.0276118405 0.0158428550 0.0070276242
0.0137569699 0.0201898292 0.0058656763
-0.0275864322 0.0196638517 0.0177288111
0.0088710357 0.0200155266 0.0021643024
0.0027395184 0.0194537789 0.0050015058
0.0089216549 0.0201485083 0.0009305086
0.0250698403 0.0158539601 0.0083020236
0.0165662020 0.0202459358 0.0032419171
-0.0098249037 0.0203742646 0.0111027788
-0.0100378338 0.0195431598 0.0110741463
0.0444543660 0.0205574818 0.0263693612
0.0450687818 0.0207871459 0.0266370978
-0.0387401059 0.0178115107 0.0297606196
0.0186706483 0.0174326301 0.0042922031
0.0125256144 0.0169034209 0.0071359109
0.0113509428 0.0209179930 0.0152987074
0.0015966143 0.0195453726 0.0042364504
0.0236306489 0.0195137747 0.0097388458
-0.0002887980 0.0186508559 0.0043187123
0.0236179773 0.0191960912 0.0125396084
0.0010881140 0.0181224328 0.0045850333
0.0006550918 0.0185210872 0.0044189077
0.0256026927 0.0193025768 0.0124719273
-0.0325355083 0.0219363421 0.0231387522
-0.0363911763 0.0222128443 0.0283987578
0.0136588514 0.0178254787 0.0103010815
0.0135790166 0.0175853483 0.0093405973
-0.0410923138 0.0210288949 0.0291515347
-0.0404306948 0.0212711766 0.0287610944
0.0093570482 0.0203333609 0.0007430967
0.0034251153 0.0195732266 0.0050535630
-0.0235572215 0.0194966532 0.0142813381
0.0291872192 0.0213206187 0.0188907664
0.0236512553 0.0141750462 0.0069589075
-0.0244437885 0.0196033902 0.0148301851
0.0036961599 0.0198246017 0.0041834470
0.0032064836 0.0193324480 0.0058552679
0.0285455566 0.0202089883 0.0162045415
0.0426431708 0.0203927793 0.0264028218
0.0015383302 0.0188363362 0.0044632163
-0.0043290392 0.0177975986 0.0069276746
-0.0102671552 0.0202145875 0.0035230350
0.0316911004 0.0203374885 0.0160535779
-0.0115378965 0.0200165100 0.0034605619
-0.0112821367 0.0169678219 0.0061218124
-0.0084441248 0.0204058699 0.0119669568
0.0302806031 0.0195267275 0.0151737686
0.0145720597 0.0196990967 0.0038562175
0.0158718880 0.0195756592 0.0039525162
0.0169873927 0.0196757317 0.0039759483
0.0174526274 0.0193167739 0.0039134752
-0.0090023484 0.0199018344 0.0157360118
-0.0264306162 0.0205677748 0.0167550575
0.0026159617 0.0204458944 0.0039193537
-0.0013624677 0.0195457265 0.0042349454
-0.0174363758 0.0195259266 0.0048713293
-0.0083128642 0.0179984123 0.0137603786
-0.0077880681 0.0178871509 0.0139399823
0.0407076925 0.0193472914 0.0267821010
0.0416846201 0.0194048695 0.0268323030
-0.0115693379 0.0182737764 0.0038353931
0.0137202088 0.0193525739 0.0106134247
0.0144395605 0.0193644427 0.0109413993
0.0112692844 0.0213600770 0.0150800701
0.0022514216 0.0189385191 0.0045381766
-0.0104147028 0.0205649659 0.0082629751
0.0058519556 0.0162883122 0.0071307030
0.0416405946 0.0203911625 0.0264242943
-0.0271517280 0.0188122746 0.0136588644
-0.0050326907 0.0210278481 0.0041321199
-0.0043913820 0.0210219733 0.0041243117
-0.0113935713 0.0205494575 0.0040984284
-0.0357422307 0.0222733952 0.0286986288
0.0130372755 0.0213190764 0.0107696038
-0.0362959951 0.0226602629 0.0283706542
-0.0356674045 0.0227939710 0.0285424497
0.0104739629 0.0193042979 0.0132293757
-0.0125995111 0.0181658044 0.0057980027
0.0185972676 0.0204342753 0.0031007435
-0.0096025895 0.0203372538 0.0141117778
-0.0097489227 0.0207156502 0.0134558361
-0.0096470211 0.0205481164 0.0120636281
-0.0230963286 0.0203718171 0.0132371914
-0.0153219867 0.0176542178 0.0054971036
0.0105206277 0.0185413547 0.0120606553
0.0116492528 0.0183161385 0.0120033976
-0.0186102819 0.0203671642 0.0049077924
-0.0172673818 0.0201712772 0.0046475064
0.0396950170 0.0191858336 0.0266579371
0.0092556737 0.0203067884 0.0002641510
0.0113027077 0.0215735845 0.0148614179
0.0121239331 0.0216065310 0.0154548865
-0.0098240208 0.0200097486 0.0080521386
0.0056981663 0.0186830126 0.0045329761
-0.0075161853 0.0206584707 0.0084582027
0.0080468580 0.0183728188 0.0037260633
-0.0051607364 0.0202069469 0.0084113460
-0.0047721104 0.0201957151 0.0082395505
-0.0244520586 0.0212205052 0.0160171222
0.0385986157 0.0216139741 0.0260338690
0.0396074913 0.0214971490 0.0261347350
-0.0004029707 0.0162306093 0.0109466072
0.0006009634 0.0162425507 0.0111881550
-0.0050291852 0.0212333985 0.0041165035
-0.0102622714 0.0202970095 0.0041204076
0.0316634513 0.0213841088 0.0159598645
0.0145109054 0.0172762237 0.0070963483
0.0152597241 0.0179460626 0.0071463194
-0.0324224830 0.0224275775 0.0229096916
-0.0380742773 0.0219717361 0.0274023619
0.0288297422 0.0207973123 0.0178443845
0.0292934179 0.0208007619 0.0179068577
-0.0100064818 0.0192759931 0.0001079869
-0.0114920605 0.0211913809 0.0041126069
-0.0042626732 0.0145776495 0.0066847336
0.0140174273 0.0187137350 0.0141430106
0.0143291410 0.0211538151 0.0047412049
-0.0215680841 0.0185725540 0.0111131947
-0.0073913061 0.0162144993 0.0063217189
-0.0134363715 0.0192273892 0.0057407375
-0.0051072338 0.0167975556 0.0060114395
0.0121036954 0.0204009563 0.0140961539
-0.0253641251 0.0163018741 0.0068534892
0.0195997395 0.0204343945 0.0031407159
0.0137080494 0.0197920725 0.0062092673
0.0140433479 0.0195429735 0.0053346809
0.0150009468 0.0194290504 0.0074899103
0.0315844864 0.0194703601 0.0160446968
0.0107597373 0.0187020153 0.0130854826
0.0103940275 0.0183689166 0.0110507291
0.0115782749 0.0180689432 0.0110663380
-0.0373238623 0.0230729245 0.0283862706
-0.0362978205 0.0230570696 0.0283628460
0.0457565114 0.0227350704 0.0296044406
0.0115403738 0.0167479310 0.0060999449
-0.0099493060 0.0205826722 0.0108112525
0.0108624119 0.0198075771 0.0148114394
0.0294613559 0.0222399458 0.0223266389
-0.0301232859 0.0226308517 0.0185159426
-0.0299989935 0.0221594423 0.0187970605
0.0113116242 0.0217960998 0.0147989523
-0.0102569815 0.0206297524 0.0091266315
0.0185715407 0.0195425153 0.0033793356
0.0195954591 0.0196724385 0.0033788662
-0.0244209338 0.0155370906 0.0066481438
-0.0272583049 0.0204981267 0.0172799136
-0.0057536312 0.0195541047 0.0133933630
-0.0050009773 0.0190123543 0.0110507216
0.0090546571 0.0205046535 0.0002745744
0.0084616505 0.0204184167 0.0021799188
0.0091626123 0.0207265578 0.0007118639
-0.0101020653 0.0203941949 0.0050223228
-0.0233970750 0.0180067103 0.0104260202
0.0147202164 0.0176557135 0.0080365222
-0.0248944145 0.0192630626 0.0138931256
-0.0114874933 0.0215021782 0.0040930789
0.0137162749 0.0186573491 0.0129337665
-0.0174355078 0.0206271298 0.0042773690
-0.0173942652 0.0165689681 0.0057594609
0.0150225461 0.0185334384 0.0089735817
-0.0403398946 0.0223278590 0.0285736825
-0.0364286974 0.0217487961 0.0286439639
0.0204801783 0.0203640647 0.0033130553
-0.0066151568 0.0201152451 0.0157047715
-0.0339392275 0.0202879310 0.0258562174
0.0160752069 0.0193440318 0.0056157913
0.0160121508 0.0195355229 0.0052878242
0.0165067725 0.0196762159 0.0050301384
-0.0126060639 0.0186323747 0.0050067063
0.0145722702 0.0203436129 0.0038666185
0.0267757028 0.0197665729 0.0155017432
-0.0098353047 0.0201475285 0.0086768400
0.0128898118 0.0152191035 0.0035334434
-0.0002558422 0.0175814051 0.0074742865
0.0094727930 0.0206677318 0.0169385653
0.0128492936 0.0196373127 0.0120918956
0.0298208166 0.0224735253 0.0222017001
-0.0094564538 0.0184965543 0.0130310412
-0.0091801677 0.0187848490 0.0138797518
0.0185894575 0.0184754711 0.0037729349
0.0262306985 0.0197136216 0.0142991897
-0.0243010502 0.0223132484 0.0146427732
-0.0101122875 0.0206294060 0.0100902449
-0.0232169647 0.0224222615 0.0129248332
0.0165468976 0.0198514126 0.0034105834
0.0177143253 0.0195492133 0.0033397805
0.0446247198 0.0221373178 0.0261334311
0.0171920639 0.0192065351 0.0048817676
-0.0370891392 0.0197300203 0.0295185428
-0.0375497118 0.0194813497 0.0296624582
0.0452473238 0.0221370980 0.0260904860
-0.0366251394 0.0195411295 0.0294125658
0.0196286906 0.0192479435 0.0035959240
0.0204977598 0.0197264440 0.0034980457
0.0016828175 0.0205528960 0.0038991254
-0.0213609617 0.0204344466 0.0101448949
-0.0273410846 0.0191240422 0.0142601412
-0.0272343885 0.0192078687 0.0150332134
-0.0109348614 0.0216516145 0.0082707833
-0.0253525209 0.0194265433 0.0150644537
-0.0409040004 0.0210460164 0.0296044406
-0.0394944996 0.0217019469 0.0282613318
-0.0383007675 0.0211903341 0.0292385500
-0.0373666063 0.0215010233 0.0287767109
0.0400006697 0.0230969004 0.0315097943
-0.0362003297 0.0220027901 0.0284799766
-0.0114962850 0.0217113420 0.0041086953
0.0140432119 0.0188495517 0.0147989523
-0.0067321160 0.0198854618 0.0157047715
-0.0050326944 0.0207185298 0.0041399281
0.0127376821 0.0206976421 0.0113318395
-0.0099491309 0.0191387888 0.0041997936
-0.0102205891 0.0196982995 0.0013053399
-0.0102228746 0.0198597498 0.0021424349
-0.0097911675 0.0197465755 0.0069901478
-0.0153343808 0.0187630840 0.0051535126
-0.0403327867 0.0205841660 0.0297293942
0.0100780688 0.0196713582 0.0102073681
-0.0385065451 0.0204235092 0.0296148416
0.0452666655 0.0227928162 0.0291879829
-0.0088073034 0.0182106141 0.0131590944
-0.0355949998 0.0184774697 0.0252939817
-0.0403374434 0.0174263716 0.0301416945
0.0271147452 0.0197699890 0.0155798327
-0.0300917402 0.0218057111 0.0189844649
0.0385240987 0.0233770795 0.0358671099
0.0299466737 0.0227359049 0.0225140508
0.0303508136 0.0223469324 0.0209835228
0.0303062126 0.0227267034 0.0223734882
-0.0240384731 0.0190084726 0.0134246033
-0.0030426369 0.0195453912 0.0059281494
0.0447467119 0.0173935685 0.0276553687
0.0117457621 0.0174419805 0.0091349687
-0.0074930326 0.0184609927 0.0142018031
-0.0285950173 0.0230168477 0.0173290055
0.0151009560 0.0171704516 0.0051941257
0.0081620421 0.0207038224 0.0036167409
0.0158265401 0.0177419186 0.0048765596
0.0436089933 0.0204475597 0.0263693612
-0.0049409256 0.0220724531 0.0073649641
-0.0100344475 0.0213703588 0.0110234004
-0.0219409447 0.0222695433 0.0108008441
-0.0215438250 0.0223716907 0.0107227545
-0.0327746123 0.0214565396 0.0236072820
-0.0380131453 0.0206531696 0.0295419749
0.0136450995 0.0105524696 0.0040358212
-0.0207632799 0.0218497217 0.0078959670
0.0457200855 0.0230341889 0.0302447658
-0.0363250449 0.0207136646 0.0292920899
-0.0074145035 0.0201325491 0.0159702655
0.0416281782 0.0213858560 0.0262915548
0.0138942450 0.0195142962 0.0093640219
0.0141911674 0.0194874294 0.0087705534
-0.0143660326 0.0215381794 0.0041539948
0.0091629513 0.0201896690 0.0017113890
-0.0104832593 0.0215230845 0.0089642089
-0.0107682962 0.0211427175 0.0069901478
0.0144298654 0.0183317214 0.0127061885
-0.0403224379 0.0210400410 0.0296252724
-0.0143759791 0.0194481201 0.0050667655
-0.0136519540 0.0193597153 0.0051660072
-0.0207464118 0.0196180679 0.0093796384
0.0387911424 0.0231368281 0.0342272520
-0.0122874286 0.0195981935 0.0031872597
-0.0100022685 0.0196492299 0.0139243659
0.0032800934 0.0218040757 0.0074899103
0.0039389259 0.0219160579 0.0092390832
0.0042590084 0.0219472907 0.0097388458
0.0115421303 0.0186716784 0.0131881069
-0.0101412255 0.0219510905 0.0048036780
-0.0105520021 0.0218602046 0.0033824723
0.0126906205 0.0209342726 0.0116441902
0.0128776953 0.0203210451 0.0103947800
0.0131532885 0.0207312703 0.0099887233
-0.0022314531 0.0214420334 0.0039863717
0.0055394634 0.0184473544 0.0046232026
-0.0291803759 0.0214811563 0.0179155227
0.0232560467 0.0131663978 0.0109257828
0.0102018956 0.0194778591 0.0107539874
0.0102370847 0.0194827244 0.0121517684
0.0423599631 0.0235226341 0.0338524431
-0.0069926404 0.0222352967 0.0094889607
-0.0064152204 0.0221823044 0.0087861698
-0.0049105794 0.0221569426 0.0086143743
0.0439267457 0.0200292766 0.0266058650
-0.0101956110 0.0213351995 0.0131185036
-0.0095816832 0.0219208263 0.0110299047
0.0404259749 0.0235593133 0.0331756771
-0.0097642634 0.0196205787 0.0041789766
0.0423045121 0.0237543173 0.0333526731
0.0028453539 0.0225199759 0.0147989523
0.0035972944 0.0225313418 0.0150332134
0.0117006190 0.0196244493 0.0150062423
0.0122868754 0.0194744058 0.0147833284
0.0137604810 0.0191922784 0.0141625386
-0.0103362035 0.0185398459 0.0081636962
-0.0022426681 0.0197020285 0.0042570662
0.0126327574 0.0174126793 0.0091953482
-0.0071399086 0.0188772026 0.0147989523
0.0148651041 0.0210490040 0.0031013619
0.0149747115 0.0213423744 0.0045225602
0.0156017635 0.0211724453 0.0031794365
0.0055474001 0.0195992142 0.0039883014
-0.0098543260 0.0218911134 0.0105197262
-0.0237168949 0.0230623670 0.0154861268
-0.0290191043 0.0220819116 0.0176725909
0.0063902843 0.0197629742 0.0035959240
0.0097931996 0.0195142329 0.0090711992
0.0435482934 0.0231919698 0.0280989092
0.0101018064 0.0196683742 0.0126124825
-0.0217797030 0.0177924465 0.0113162231
-0.0143574271 0.0221625306 0.0041165035
-0.0133634228 0.0221498795 0.0041102599
-0.0122848470 0.0221399702 0.0041539874
-0.0180189777 0.0213591568 0.0039290916
-0.0173726212 0.0215385184 0.0040370058
-0.0113536399 0.0221378431 0.0042804908
-0.0102239978 0.0185451657 0.0050015058
-0.0104023460 0.0220573768 0.0032731500
-0.0103170816 0.0185620487 0.0090551507
-0.0383873433 0.0195535161 0.0298933592
-0.0383877233 0.0234650299 0.0283438619
-0.0101672430 0.0215032063 0.0100284722
-0.0308084488 0.0186509453 0.0191562604
-0.0084464382 0.0171154402 0.0109466072
-0.0220767800 0.0198360793 0.0116441902
-0.0015393742 0.0186556540 0.0047177803
-0.0298484433 0.0189743508 0.0180786457
0.0100380089 0.0212827176 0.0156266820
-0.0134093706 0.0205348320 0.0042144787
0.0108977761 0.0216946974 0.0131538939
-0.0061427751 0.0173363537 0.0097388458
0.0076103169 0.0195178725 0.0034733396
0.0077647823 0.0192823671 0.0035855081
0.0117463246 0.0217488632 0.0168292355
0.0292196460 0.0219945535 0.0222641658
0.0449285731 0.0228370875 0.0292296242
0.0042089238 0.0218998305 0.0090204310
0.0383438282 0.0228022188 0.0353205055
0.0043622400 0.0227673538 0.0152154174
0.0064539718 0.0228297375 0.0162670072
0.0064727995 0.0227012224 0.0144553613
-0.0356054381 0.0230506696 0.0284175035
-0.0402799174 0.0225105211 0.0285143461
0.0178745799 0.0221021064 0.0081927013
0.0177545100 0.0222922564 0.0093640219
-0.0264690388 0.0188183635 0.0140430611
0.0046084202 0.0145934094 0.0068171527
-0.0013812450 0.0214014538 0.0037684646
-0.0228039119 0.0185235571 0.0129248332
-0.0223894622 0.0174506437 0.0099446382
0.0027425992 0.0227098726 0.0142575335
-0.0143116172 0.0184461623 0.0053709131
-0.0054455907 0.0221201181 0.0080000814
-0.0044163563 0.0221186392 0.0081146117
-0.0100304652 0.0214246958 0.0119565409
-0.0291695725 0.0225793421 0.0173379239
0.0030887607 0.0227414593 0.0147364791
0.0036069057 0.0227558278 0.0149863642
0.0287375450 0.0231902860 0.0221079942
0.0260597840 0.0178477056 0.0116441902
0.0454103127 0.0233197398 0.0346645564
0.0289970599 0.0232490487 0.0246536639
0.0055659763 0.0227816030 0.0155173596
0.0306431148 0.0231289752 0.0212334078
-0.0234824587 0.0204130672 0.0140336882
0.0195473693 0.0184462834 0.0037666913
-0.0114041623 0.0136619676 0.0069523435
-0.0180011559 0.0205528066 0.0040423255
0.0308175310 0.0229394324 0.0185784083
0.0308075137 0.0224456601 0.0181827676
-0.0163514111 0.0205798484 0.0043483060
-0.0093131457 0.0216002464 0.0118888672
-0.0244960133 0.0231474824 0.0165793579
-0.0101910215 0.0213178322 0.0140180718
0.0196159519 0.0174538884 0.0041520130
0.0206070095 0.0175176356 0.0041263830
0.0141429342 0.0207371973 0.0046162661
0.0202091504 0.0210316107 0.0030545052
-0.0153602678 0.0222807154 0.0041290056
-0.0142826680 0.0223758779 0.0041914713
-0.0133324694 0.0223708004 0.0042882990
-0.0127187315 0.0223710053 0.0043976214
0.0388666429 0.0237053968 0.0367260724
-0.0043917173 0.0205069259 0.0041379835
0.0093567111 0.0189561602 0.0007743370
-0.0034021088 0.0205214359 0.0040956866
-0.0102201868 0.0221926272 0.0039737057
-0.0133616645 0.0215248130 0.0041240063
-0.0256077778 0.0208127536 0.0170947444
-0.0048023299 0.0192073472 0.0104260202
-0.0101379883 0.0224133395 0.0100355800
-0.0095840674 0.0221910998 0.0100876298
-0.0290817898 0.0232480653 0.0170895290
-0.0083859619 0.0185955297 0.0140639823
-0.0225903634 0.0230986439 0.0128779840
-0.0283646155 0.0225892924 0.0173706468
-0.0274900142 0.0224759653 0.0169151258
-0.0260161664 0.0229813494 0.0173446219
0.0443952754 0.0236372054 0.0290734377
0.0048731430 0.0223080888 0.0118940752
0.0044509000 0.0230033211 0.0153299477
-0.0124462638 0.0225296579 0.0066777896
0.0066332831 0.0229927413 0.0153611805
-0.0103018042 0.0222824328 0.0035542678
0.0062536090 0.0224325061 0.0106446650
0.0134886187 0.0195407905 0.0099418741
-0.0096982606 0.0200672261 0.0048349109
0.0142423231 0.0217512213 0.0091297608
0.0360428877 0.0234536752 0.0350706130
0.0096545853 0.0208908208 0.0160900112
0.0098115951 0.0203868560 0.0151841845
0.0366421193 0.0233818553 0.0360111445
0.0175729841 0.0219862908 0.0080365222
0.0153144021 0.0230310895 0.0164075624
0.0165369958 0.0212385990 0.0032218155
0.0019046641 0.0229858868 0.0148614179
-0.0401005149 0.0244084485 0.0318221450
-0.0397667065 0.0243989639 0.0317596793
-0.0211277213 0.0210746154 0.0096451398
0.0289987382 0.0236338116 0.0248566922
0.0299573988 0.0232668184 0.0231699850
0.0304295532 0.0234600939 0.0224828105
0.0278008319 0.0224778913 0.0137057137
0.0147573147 0.0230913423 0.0172040593
0.0156070925 0.0230633877 0.0168604758
0.0048758141 0.0218604133 0.0084894355
0.0282493457 0.0228667445 0.0159858894
0.0282504857 0.0225980319 0.0170478877
-0.0096068215 0.0215084255 0.0128207263
0.0288249217 0.0205268711 0.0170791205
0.0297046565 0.0202362724 0.0161805134
0.0301181003 0.0217742734 0.0186408814
-0.0123562794 0.0205955356 0.0040873569
0.0192531943 0.0221191607 0.0069901478
0.0134537164 0.0212342404 0.0093952548
0.0303683113 0.0218258277 0.0194842350
0.0419964306 0.0240824521 0.0306039732
-0.0233465824 0.0180787016 0.0110507216
-0.0097679514 0.0200358592 0.0041789692
-0.0224025678 0.0181367155 0.0119922515
0.0435484685 0.0242371112 0.0326342583
0.0105649121 0.0206021443 0.0149915647
-0.0100569408 0.0195790417 0.0090391692
-0.0135084260 0.0227261968 0.0062639248
-0.0126748029 0.0227865353 0.0072296094
0.0084959175 0.0212798566 0.0000871625
-0.0097264480 0.0220474079 0.0095514338
-0.0291844588 0.0237188525 0.0169385653
-0.0088735055 0.0229231976 0.0096763726
-0.0284051020 0.0234941617 0.0170138013
-0.0275713336 0.0234474763 0.0168344434
-0.0262459759 0.0233629681 0.0167589616
-0.0123119745 0.0186059698 0.0043039154
-0.0125857163 0.0224214830 0.0051316451
0.0114239901 0.0230979770 0.0140493046
-0.0103040766 0.0225289278 0.0040956791
0.0066318023 0.0225276835 0.0120190140
0.0074459533 0.0221029930 0.0091245528
0.0419119373 0.0229970552 0.0298855584
-0.0403115153 0.0231232606 0.0285008010
0.0110374857 0.0218387544 0.0136744808
0.0111359432 0.0218890235 0.0144709777
0.0104171988 0.0204906315 0.0142783578
0.0114898849 0.0205304548 0.0166418292
0.0047441009 0.0231584385 0.0153924134
0.0383544415 0.0234854296 0.0351910889
0.0186363738 0.0219803080 0.0079896729
0.0154402629 0.0232528485 0.0163086485
0.0167246014 0.0232321955 0.0160874035
0.0176412147 0.0232290551 0.0160795879
0.0183239467 0.0232296623 0.0161108281
0.0133031886 0.0228383839 0.0168292355
0.0131675955 0.0225608163 0.0161420610
0.0160844680 0.0183676276 0.0072712582
0.0324396938 0.0223845653 0.0158029404
-0.0097536314 0.0197667517 0.0062639248
-0.0404005051 0.0247426964 0.0326342583
0.0066106371 0.0139803402 0.0065997075
-0.0007256051 0.0217750631 0.0035230350
0.0076913717 0.0187702700 0.0034566652
0.0006848830 0.0215718709 0.0037092101
0.0016916501 0.0215518959 0.0037781429
0.0294303317 0.0236369483 0.0248918366
0.0297296643 0.0233867094 0.0242736395
0.0304216072 0.0236714371 0.0220767539
0.0302550029 0.0234257877 0.0228420254
-0.0032275678 0.0190592967 0.0068652015
0.0451349802 0.0185430422 0.0271472763
-0.0095082093 0.0193622373 0.0141325947
0.0197500736 0.0155889131 0.0047750305
-0.0164361093 0.0201181993 0.0045954417
-0.0153835360 0.0205437727 0.0043635424
-0.0138858017 0.0168765225 0.0062248837
-0.0387445316 0.0188974477 0.0302916151
-0.0384883806 0.0189045928 0.0306352060
-0.0137907006 0.0161385555 0.0068027359
0.0174472015 0.0221405514 0.0072244089
0.0136368498 0.0215661526 0.0101240780
0.0451523103 0.0245148875 0.0327279717
0.0144086480 0.0105313361 0.0052565988
-0.0130805876 0.0227636769 0.0068495851
0.0289990846 0.0238832235 0.0248879250
0.0086261071 0.0212771073 0.0010450389
-0.0082319025 0.0227107219 0.0114099290
-0.0073586428 0.0222662389 0.0098950174
-0.0284172799 0.0239474475 0.0169541817
-0.0275216196 0.0239348523 0.0169750061
-0.0267844517 0.0239287950 0.0170478877
0.0114940666 0.0191520881 0.0141028520
0.0452048630 0.0246941037 0.0351018459
-0.0120951515 0.0230116732 0.0074586701
-0.0041557276 0.0201313607 0.0070213806
0.0265838653 0.0186644904 0.0131356847
-0.0100183655 0.0228033401 0.0050223228
-0.0101432670 0.0227659531 0.0045069437
0.0068758312 0.0221151039 0.0092546921
0.0108866822 0.0206187107 0.0160717797
0.0114680119 0.0204791725 0.0161177646
0.0046686190 0.0234624892 0.0153768044
-0.0088306572 0.0231323652 0.0095514338
-0.0060331509 0.0191104598 0.0135495421
0.0081820339 0.0215068161 0.0050067138
0.0426288359 0.0213871710 0.0262622740
0.0045779436 0.0196204074 0.0039853361
0.0325988941 0.0187867247 0.0166105907
0.0386445671 0.0190155506 0.0266136732
0.0317023024 0.0224166065 0.0157110151
0.0129923970 0.0198857374 0.0103635471
0.0417578854 0.0243501589 0.0372445732
-0.0010301904 0.0217754394 0.0034918021
-0.0003152662 0.0215313770 0.0036849063
-0.0262562316 0.0211911760 0.0170999449
0.0026557832 0.0214712396 0.0038592797
0.0294947736 0.0241484754 0.0251169857
-0.0036253952 0.0200799368 0.0060530882
0.0285779554 0.0186677668 0.0132293832
0.0286332797 0.0181748606 0.0120155346
0.0047373301 0.0215668157 0.0072400253
-0.0372180045 0.0237840302 0.0271056276
-0.0378068015 0.0233338550 0.0281988587
0.0152854752 0.0182545185 0.0103010815
-0.0144140292 0.0166164823 0.0072025415
-0.0383460298 0.0225779302 0.0283351522
0.0455517471 0.0247811712 0.0327279717
-0.0144974645 0.0226414427 0.0049286168
0.0006577871 0.0205558278 0.0038304161
-0.0101563279 0.0220277421 0.0091844182
0.0452767089 0.0248501413 0.0336337835
-0.0112873260 0.0231905505 0.0071150865
0.0059380098 0.0231517889 0.0156048145
0.0064813192 0.0234264843 0.0156485494
0.0062522045 0.0234642066 0.0155251678
-0.0100585166 0.0191063676 0.0069276746
0.0175858177 0.0225666799 0.0132059511
0.0184561424 0.0225800872 0.0134246033
0.0114835985 0.0214986317 0.0161594134
0.0206499472 0.0193686932 0.0036229845
0.0168058723 0.0182617996 0.0049090963
0.0450607240 0.0210351534 0.0265746247
0.0058925967 0.0224445872 0.0107852202
-0.0026516472 0.0217862576 0.0049754735
0.0423019975 0.0244137459 0.0369603485
0.0423150212 0.0241000988 0.0383503139
-0.0071442747 0.0204508491 0.0086768474
-0.0273971502 0.0214249678 0.0172561165
-0.0239703711 0.0213969611 0.0150175961
0.0046355962 0.0212382339 0.0037104394
0.0282516088 0.0233511440 0.0178600010
0.0284887031 0.0232429877 0.0195467006
0.0284902528 0.0230428837 0.0200464632
0.0129858591 0.0190279000 0.0134714525
-0.0185321923 0.0218649618 0.0051785018
0.0308202468 0.0234141946 0.0186721142
-0.0394014120 0.0224762820 0.0284203570
0.0134639647 0.0217573605 0.0108320769
0.0304220226 0.0241540112 0.0220767539
0.0026349514 0.0209523812 0.0038353857
0.0035735960 0.0205374546 0.0038316529
0.0046255640 0.0205278024 0.0037691873
-0.0291558895 0.0239535421 0.0168760922
0.0063223722 0.0201015770 0.0035855081
-0.0174073931 0.0221929699 0.0039837491
0.0066100690 0.0220275261 0.0079584327
0.0416544192 0.0226665847 0.0287454780
-0.0251608286 0.0226697326 0.0163919441
-0.0062459358 0.0193631500 0.0142054837
0.0055189985 0.0218690373 0.0086768474
-0.0094178561 0.0241313614 0.0164856520
-0.0081018377 0.0241187960 0.0165012758
0.0308057461 0.0235228501 0.0180682372
0.0318462849 0.0227028392 0.0152549800
0.0166439470 0.0187410116 0.0060718339
-0.0091493558 0.0240109041 0.0150175961
0.0425103381 0.0242747255 0.0388656855
-0.0284859668 0.0214862116 0.0179198589
-0.0278181080 0.0211033411 0.0176413562
-0.0261175539 0.0214843638 0.0179599505
0.0028494573 0.0218481049 0.0049910899
0.0035504471 0.0213043690 0.0038353708
0.0037348042 0.0218239464 0.0078334939
0.0054169199 0.0218571573 0.0084894355
-0.0372340009 0.0206507221 0.0294701289
-0.0338875577 0.0267420374 0.0417861789
-0.0300990790 0.0252482556 0.0239040162
-0.0150852706 0.0170063339 0.0071775522
-0.0074729719 0.0143589173 0.0066510197
0.0005147676 0.0118848607 0.0066881981
0.0105081797 0.0226874389 0.0114567783
-0.0123692844 0.0215129815 0.0041118246
-0.0114923660 0.0219183750 0.0040930714
-0.0103418920 0.0219134241 0.0042102095
0.0306373741 0.0228722841 0.0209835228
0.0147736650 0.0186087079 0.0143928882
0.0158474110 0.0224114172 0.0109570157
0.0099091996 0.0212492086 0.0150332134
0.0106480122 0.0213598199 0.0150410216
-0.0050454387 0.0215459280 0.0041555520
-0.0043440224 0.0214805044 0.0041522067
-0.0034564310 0.0212600864 0.0040956866
-0.0134102572 0.0230208412 0.0073649641
-0.0133110341 0.0232717730 0.0083072241
-0.0125146005 0.0234747306 0.0089758094
-0.0117626358 0.0238166042 0.0094577279
-0.0113355089 0.0234717242 0.0079428162
-0.0105803031 0.0236489661 0.0075836163
-0.0094367284 0.0235466585 0.0078178775
-0.0291722622 0.0244260728 0.0167846140
-0.0283907708 0.0244208686 0.0168865081
0.0406454206 0.0214058533 0.0262477007
-0.0275410358 0.0243807100 0.0169346612
-0.0268197898 0.0241732709 0.0171103533
0.0409569852 0.0233023353 0.0306352060
0.0405231006 0.0232716836 0.0301979166
-0.0098093953 0.0192820188 0.0010814797
0.0425123721 0.0234810635 0.0301416945
-0.0292154271 0.0205380693 0.0180903655
-0.0285072867 0.0205258615 0.0179849472
0.0157858506 0.0241662636 0.0162669998
0.0165710505 0.0241173878 0.0157151874
0.0176545400 0.0241309069 0.0159156062
0.0403145477 0.0229617320 0.0294170361
-0.0333239809 0.0261953585 0.0414191633
-0.0094661843 0.0243191235 0.0159234162
-0.0335323140 0.0265835933 0.0416924804
0.0312001090 0.0231829882 0.0156110656
0.0153792184 0.0194068216 0.0070057642
0.0165179744 0.0192690454 0.0067839902
-0.0124565531 0.0191204362 0.0041165035
0.0397570953 0.0234644599 0.0331027955
-0.0022482336 0.0221962556 0.0064279120
-0.0017880765 0.0221857801 0.0063342061
-0.0086186770 0.0210198574 0.0109257828
-0.0286133271 0.0221950822 0.0176413562
0.0147035345 0.0205426589 0.0034012254
0.0155527089 0.0204515122 0.0032619145
-0.0406717435 0.0167545900 0.0300573539
0.0098033380 0.0191652086 0.0058344435
-0.0100690182 0.0208439119 0.0136900973
0.0175839439 0.0204400718 0.0031594615
0.0033660601 0.0220512860 0.0080104973
-0.0090147201 0.0201344118 0.0157672446
-0.0083858799 0.0201416314 0.0160249304
-0.0376444831 0.0203390978 0.0295888241
-0.0300957263 0.0255012102 0.0238883998
0.0134447031 0.0190238114 0.0133933630
-0.0164134931 0.0215869471 0.0041070040
0.0097422749 0.0211915262 0.0140180644
0.0434200168 0.0243190974 0.0337587297
0.0447544865 0.0248551443 0.0337274969
0.0008942126 0.0177506879 0.0060530882
-0.0102132019 0.0235272534 0.0070213806
-0.0290997569 0.0249000080 0.0167355370
-0.0283578578 0.0248928182 0.0168058109
-0.0275694672 0.0248773657 0.0167823862
0.0000625900 0.0227475800 0.0113943126
-0.0158933569 0.0229735933 0.0063029733
0.0416683257 0.0238098279 0.0361482203
0.0295293033 0.0181753077 0.0121394899
0.0066345609 0.0211882070 0.0032870378
0.0458094925 0.0261657499 0.0365074277
-0.0088294949 0.0202584714 0.0135183018
0.0404025316 0.0227172263 0.0269390400
0.0419332907 0.0225408077 0.0267308038
0.0419517495 0.0228733942 0.0279802140
0.0309116673 0.0236812048 0.0161524769
0.0316691734 0.0234681517 0.0148926657
0.0323234983 0.0234996155 0.0152830910
-0.0056973645 0.0225722753 0.0113630723
-0.0022895415 0.0222557448 0.0072712582
-0.0023340941 0.0225049146 0.0077710282
-0.0013769460 0.0225031003 0.0078584831
-0.0004084245 0.0225263499 0.0082895216
-0.0271673035 0.0229240395 0.0199527573
-0.0329024792 0.0212159976 0.0238571670
0.0026167291 0.0220907591 0.0078897160
0.0165691171 0.0206471309 0.0032085981
0.0035569905 0.0221491940 0.0094577279
0.0377821550 0.0227819867 0.0350081474
0.0098479651 0.0222513340 0.0114567783
0.0296389088 0.0164415054 0.0100303721
0.0236517899 0.0197061449 0.0092546996
-0.0161295328 0.0234391578 0.0081146192
-0.0210130978 0.0224373937 0.0101136696
-0.0133858006 0.0235768184 0.0089454707
0.0295370165 0.0206183568 0.0170603823
-0.0023591020 0.0205707438 0.0040228125
-0.0096665751 0.0232558101 0.0063758548
0.0296947490 0.0187972002 0.0137447622
0.0309523307 0.0237992406 0.0147989523
0.0310136825 0.0231847465 0.0171572119
0.0436379127 0.0222672559 0.0262700822
-0.0101284403 0.0239909664 0.0118316021
0.0437547117 0.0228259340 0.0271524768
0.0304527022 0.0241619684 0.0178131443
0.0163534433 0.0185587071 0.0067714956
0.0306671094 0.0204285048 0.0161125772
0.0004961654 0.0225546286 0.0087783616
0.0323509760 0.0201372951 0.0160952117
0.0024830154 0.0223352723 0.0089267250
0.0447743833 0.0240458548 0.0299584474
0.0451285988 0.0243570097 0.0306352060
0.0122140963 0.0203635953 0.0133621302
-0.0099201184 0.0193693154 0.0061030593
-0.0099322665 0.0190381221 0.0051785018
-0.0270510335 0.0252022445 0.0223734956
0.0151291285 0.0187949762 0.0133308973
0.0379713364 0.0248471349 0.0356640816
0.0457987227 0.0251873471 0.0344927609
0.0025521568 0.0188220497 0.0048934799
-0.0140967760 0.0230107643 0.0071150791
-0.0011728951 0.0228027627 0.0090360474
-0.0095567983 0.0235020928 0.0072478335
0.0408095457 0.0236371122 0.0317284390
-0.0097500738 0.0194739737 0.0031872597
-0.0254699308 0.0247241296 0.0182816815
0.0445494130 0.0214208215 0.0262358394
-0.0243541207 0.0234427489 0.0157516282
-0.0096384306 0.0222365856 0.0124563109
-0.0097419154 0.0224814340 0.0127374213
-0.0086480547 0.0228759609 0.0131538939
0.0309827402 0.0215023719 0.0160405468
0.0316628814 0.0218380801 0.0159234162
0.0149371177 0.0216684230 0.0063342061
0.0324209332 0.0215715915 0.0159025919
0.0159760565 0.0218754523 0.0063654389
-0.0394745618 0.0211672187 0.0296929311
0.0176094584 0.0215550065 0.0047661941
0.0188081171 0.0218533836 0.0061624106
-0.0339391828 0.0274796709 0.0418720841
0.0453502573 0.0243367925 0.0303540882
-0.0164387804 0.0221853219 0.0040602889
-0.0218773577 0.0177802444 0.0107696038
0.0433500074 0.0239344724 0.0321032628
0.0036837845 0.0229949690 0.0151487868
0.0284974407 0.0236838683 0.0222537573
0.0287427548 0.0237436630 0.0230450463
-0.0109872650 0.0223348401 0.0041789766
0.0304268263 0.0239321403 0.0223266389
0.0145318396 0.0220876001 0.0093640219
0.0377466567 0.0244890153 0.0348457247
0.0005798577 0.0195462443 0.0041265097
0.0116374232 0.0226346180 0.0150644463
0.0117274895 0.0224311948 0.0159972515
0.0123918131 0.0226195417 0.0162114799
0.0126322415 0.0222625323 0.0150800701
-0.0108356532 0.0212868191 0.0082187187
-0.0238371436 0.0237499364 0.0121439528
-0.0144634638 0.0232969262 0.0079740640
-0.0006856979 0.0220187642 0.0040852707
0.0165301524 0.0229809582 0.0157750454
0.0177809577 0.0229807757 0.0158193018
0.0183288157 0.0229973756 0.0160639714
-0.0251103435 0.0229679383 0.0173290055
0.0388705172 0.0222523510 0.0262622815
0.0396342278 0.0221372508 0.0263950136
-0.0290756244 0.0253297426 0.0167230349
0.0406354889 0.0222137831 0.0263715964
-0.0283266734 0.0253644548 0.0167277288
-0.0274504703 0.0254117586 0.0168396514
0.0426889881 0.0227937289 0.0267151874
-0.0251621287 0.0255227312 0.0173498224
0.0150773581 0.0250124224 0.0154548865
-0.0238141026 0.0228081942 0.0151737686
-0.0081930738 0.0205680579 0.0108112525
0.0141091365 0.0198608153 0.0034605619
0.0155186243 0.0250222497 0.0155798327
0.0171113536 0.0250195116 0.0156110656
0.0416345708 0.0221389681 0.0263286438
0.0176683888 0.0250300132 0.0157438200
0.0315280370 0.0245816447 0.0144366231
0.0318890363 0.0243755467 0.0146948453
-0.0096903387 0.0194516033 0.0020493027
-0.0326734558 0.0277455933 0.0418017954
-0.0083785076 0.0252105258 0.0169354379
0.0425629020 0.0238537043 0.0310100373
-0.0069647753 0.0251364298 0.0162826236
-0.0074886852 0.0251875967 0.0167901944
-0.0023766090 0.0236716568 0.0148998704
-0.0014784508 0.0236584395 0.0148277935
-0.0008396734 0.0239065066 0.0147052463
0.0324226469 0.0244652964 0.0152050015
-0.0388344154 0.0210218392 0.0296044406
-0.0132453050 0.0196491964 0.0041555520
-0.0295597184 0.0266330652 0.0252627488
-0.0284599233 0.0266139545 0.0252627488
-0.0281609949 0.0265015624 0.0240758117
-0.0097705033 0.0195544176 0.0050327312
0.0306377690 0.0235880725 0.0209731068
0.0286653601 0.0171328578 0.0088205319
0.0293090791 0.0171450451 0.0093952548
0.0099420939 0.0221911594 0.0121908095
0.0169854388 0.0222365223 0.0085519087
0.0100546218 0.0221226625 0.0128311273
0.0108350944 0.0224567391 0.0130636673
0.0110129770 0.0222964175 0.0138150435
-0.0099892709 0.0208763219 0.0121751931
0.0342995524 0.0273352303 0.0407397896
-0.0277262200 0.0258160345 0.0165481251
-0.0272348281 0.0258341283 0.0168500599
0.0297072120 0.0212562792 0.0181212332
0.0304741263 0.0214793459 0.0181500372
0.0286563765 0.0157192945 0.0072337817
-0.0163730029 0.0194711350 0.0048756432
0.0425590463 0.0241108350 0.0309631806
-0.0284272227 0.0260811038 0.0221392270
0.0146470238 0.0252222158 0.0152424853
0.0298526771 0.0245085135 0.0118420180
-0.0139392558 0.0247783512 0.0125812497
-0.0143409725 0.0246041752 0.0119565334
-0.0133951548 0.0245044790 0.0121127199
-0.0134489853 0.0248205401 0.0131372269
-0.0097097214 0.0192164946 -0.0004438404
0.0399455056 0.0237707607 0.0336962640
0.0102652088 0.0211686790 0.0156422984
0.0092101675 0.0187116899 -0.0004438404
-0.0254915152 0.0243843570 0.0170166474
-0.0247558597 0.0243777968 0.0170791205
-0.0375758037 0.0188731924 0.0297606196
0.0300980397 0.0210135803 0.0175476503
0.0307794921 0.0215634927 0.0170556959
-0.0153144207 0.0226039402 0.0042648744
-0.0076360130 0.0247407742 0.0167417806
0.0068132146 0.0197177008 0.0035007279
-0.0099665951 0.0204727426 0.0130888205
0.0342979059 0.0276119374 0.0406929404
-0.0249486323 0.0252768509 0.0163919441
-0.0152958091 0.0255966149 0.0138462689
0.0001825648 0.0233155005 0.0130497869
0.0196706019 0.0212161988 0.0030208584
0.0305370819 0.0241588317 0.0163919441
0.0131326392 0.0218089297 0.0116129573
0.0146593228 0.0254396237 0.0151362848
-0.0124109779 0.0244729295 0.0118940827
-0.0122794602 0.0248085074 0.0131747182
-0.0070544244 0.0255110823 0.0165481251
-0.0066262060 0.0255674273 0.0159546565
0.0294441190 0.0218297653 0.0208585765
-0.0032935613 0.0231248103 0.0101761352
0.0295840837 0.0252604783 0.0135495421
0.0301253237 0.0158469975 0.0074899103
0.0383490883 0.0245166942 0.0350929201
-0.0256082956 0.0188042838 0.0138306599
-0.0102155935 0.0204126127 0.0062404927
-0.0276734885 0.0269572698 0.0236072820
0.0107040107 0.0195927024 0.0140709337
0.0175982490 0.0228335336 0.0153533723
0.0341598615 0.0278957933 0.0407241881
0.0426307619 0.0223344006 0.0262533482
0.0031039822 0.0217948705 0.0073337313
-0.0012269788 0.0230520964 0.0123782214
-0.0004170430 0.0237231068 0.0141680073
-0.0162720699 0.0246958174 0.0120011624
-0.0165068600 0.0245720632 0.0110897701
-0.0152420048 0.0241786279 0.0106134322
-0.0141173881 0.0241720565 0.0107175466
0.0424561799 0.0231982656 0.0290109720
0.0436405540 0.0235477425 0.0288173165
0.0298056938 0.0221682712 0.0211865511
-0.0001433925 0.0244876146 0.0142445248
-0.0256237071 0.0250154994 0.0188595261
0.0164773557 0.0194869451 0.0060593393
0.0109657068 0.0222027823 0.0062873494
-0.0090127531 0.0235389434 0.0141273942
-0.0091418270 0.0238940306 0.0150019806
-0.0084239710 0.0232830495 0.0150019731
-0.0071508014 0.0232172087 0.0154496860
-0.0064809383 0.0232678242 0.0152799692
-0.0052682445 0.0237171538 0.0147052389
-0.0144078117 0.0204838030 0.0043366384
0.0025591585 0.0250034779 0.0121127199
0.0374050140 0.0244138055 0.0343912393
0.0032029930 0.0248759352 0.0132059511
0.0421060547 0.0243280903 0.0339461416
0.0016418095 0.0235765465 0.0148745906
0.0105238911 0.0227302574 0.0123200025
0.0118127391 0.0237955488 0.0159457233
0.0125852656 0.0235188268 0.0161255281
-0.0017201514 0.0220231190 0.0040227976
0.0176955909 0.0226488188 0.0143616553
0.0183509141 0.0237386823 0.0163428541
-0.0253678989 0.0234003030 0.0170556959
0.0462260544 0.0256273933 0.0365698934
0.0149075966 0.0198631100 0.0035542678
0.0154960100 0.0197622776 0.0033668634
-0.0093803015 0.0237615146 0.0113068502
0.0016136370 0.0245948806 0.0141221937
0.0296685677 0.0217344090 0.0199371409
-0.0074806013 0.0261563733 0.0167303272
-0.0102028269 0.0247251876 0.0130372848
0.0117368307 0.0188119560 0.0135807749
0.0280201063 0.0228664316 0.0175788831
-0.0255335961 0.0185391046 0.0127061810
0.0336037502 0.0274108984 0.0343365818
0.0006440836 0.0235602930 0.0148009118
-0.0226647723 0.0180196017 0.0111444276
0.0436878987 0.0241643451 0.0316347331
0.0445474982 0.0244699344 0.0321657360
0.0036781742 0.0235661715 0.0151565876
0.0046722642 0.0238032043 0.0153494682
0.0055231950 0.0235183276 0.0154732522
0.0299546272 0.0242234878 0.0229513403
0.0063726283 0.0239177383 0.0154861268
-0.0073758573 0.0257322863 0.0167927947
-0.0040689842 0.0246102139 0.0145803001
0.0108127035 0.0234074220 0.0128693115
0.0109080765 0.0236710533 0.0138681512
0.0110634491 0.0237293206 0.0148770344
0.0130373500 0.0238756575 0.0153924208
0.0136642028 0.0238386467 0.0149707403
0.0142424237 0.0238299742 0.0148926582
0.0158734173 0.0239569210 0.0165168848
0.0066962070 0.0205144025 0.0033553373
0.0076157018 0.0204850174 0.0032968950
0.0080506410 0.0209396854 0.0041477364
-0.0259334091 0.0234919265 0.0161264502
-0.0255720597 0.0235605128 0.0161670502
-0.0170457009 0.0250022076 0.0120502468
0.0342536941 0.0283637010 0.0407137722
-0.0153599065 0.0246351287 0.0120073017
0.0356721580 0.0282672942 0.0401853770
0.0365088731 0.0282670595 0.0401619524
-0.0133739542 0.0241770111 0.0108945500
-0.0163869243 0.0257543139 0.0139903035
0.0289478078 0.0210454501 0.0181411188
-0.0133716445 0.0262307487 0.0148648899
-0.0066748657 0.0237297788 0.0156735387
-0.0326454267 0.0281755440 0.0417237133
-0.0239275452 0.0196229368 0.0144553613
0.0146019477 0.0260742977 0.0146661978
0.0159858353 0.0260451287 0.0144397449
0.0166854337 0.0260207392 0.0142289009
-0.0282042120 0.0265323818 0.0164440032
0.0368201546 0.0287365168 0.0406304747
-0.0101408269 0.0243286528 0.0120368581
-0.0092128050 0.0243454017 0.0121751856
-0.0082822535 0.0236252435 0.0161108356
-0.0074360878 0.0235948153 0.0158262383
0.0318716615 0.0261054151 0.0152050089
0.0294051208 0.0167034362 0.0085519087
0.0026471573 0.0246933177 0.0129475500
0.0332733095 0.0279171057 0.0327592045
0.0001657358 0.0235340111 0.0144163202
0.0305145532 0.0241688006 0.0207648780
0.0344392397 0.0260066018 0.0351018459
-0.0153590720 0.0229716934 0.0063732546
-0.0149774943 0.0226533748 0.0050067138
0.0025910842 0.0229830444 0.0148864072
0.0097554103 0.0236444063 0.0123660695
0.0148683377 0.0234824121 0.0162826236
0.0056630890 0.0205000378 0.0036792289
-0.0251181144 0.0235537328 0.0155017357
-0.0034373649 0.0220188573 0.0067714956
