# .PCD v0.7 - Point Cloud Data file format
VERSION 0.7
FIELDS x y z
SIZE 4 4 4
TYPE F F F
COUNT 1 1 1
WIDTH 1212
HEIGHT 1
VIEWPOINT 0 0 0 1 0 0 0
POINTS 1212
DATA ascii
-0.0176388323 0.0148592684 0.0069433460
-0.0175723247 0.0190939512 0.0046916837
-0.0167342238 0.0189756993 0.0047055716
-0.0223988481 0.0183347482 0.0107409069
-0.0229193084 0.0181774069 0.0110844905
0.0290238429 0.0187249798 0.0102786208
0.0291733816 0.0189763866 0.0108658457
-0.0008638481 0.0172783192 0.0091947624
0.0134106735 0.0189759787 0.0110844979
0.0138825001 0.0189799163 0.0108033800
-0.0262786895 0.0189905912 0.0122401947
0.0163594615 0.0173645243 0.0033725214
-0.0176211260 0.0184530113 0.0050560990
-0.0109910332 0.0186099187 0.0078047970
-0.0028004907 0.0157745723 0.0084727267
-0.0036518630 0.0184548814 0.0048062140
0.0155222584 0.0172335841 0.0042439857
0.0037764665 0.0186790805 0.0037754562
0.0190520417 0.0190982297 0.0026197520
0.0200625975 0.0190990511 0.0025468629
0.0273165517 0.0119727775 0.0050516287
0.0133322300 0.0177417044 0.0081379795
0.0133602563 0.0164011624 0.0045563290
0.0239124056 0.0189591236 0.0120527828
-0.0146836787 0.0180091131 0.0051940465
-0.0138527751 0.0180946253 0.0053059692
0.0273594875 0.0167352259 0.0066282684
-0.0237000175 0.0160043221 0.0073409462
-0.0087490007 0.0191715620 0.0143485675
-0.0080870390 0.0191738289 0.0141143138
0.0074861720 0.0190836098 0.0020173502
0.0071168803 0.0193191469 0.0015369218
0.0084577259 0.0148182195 0.0050456906
0.0043748673 0.0180994086 0.0040128315
0.0245986991 0.0183406807 0.0099600265
-0.0075978935 0.0191836245 0.0133021930
-0.0217814781 0.0150411297 0.0071371356
0.0159675330 0.0181548819 0.0042361701
0.0121410107 0.0190620851 0.0145078683
0.0128777642 0.0191627108 0.0136770168
-0.0007887258 0.0146798976 0.0064661438
0.0013122206 0.0146607105 0.0064512650
-0.0243122466 0.0189577565 0.0143329585
-0.0176557116 0.0193060022 0.0046266178
-0.0167471543 0.0186684001 0.0048499415
0.0052832887 0.0140326899 0.0059931660
0.0064091105 0.0177442189 0.0042543942
0.0116374418 0.0188759249 0.0141065046
-0.0124365874 0.0180798844 0.0080635929
0.0146107022 0.0192063153 0.0101474384
0.0200662985 0.0193007141 0.0024843973
0.0092661493 0.0169293378 0.0062180469
0.0163470991 0.0179878529 0.0033493203
-0.0086580403 0.0182232242 0.0159259532
-0.0187531076 0.0150567610 0.0064947614
-0.0178232454 0.0188085251 0.0049207592
-0.0247589983 0.0181985740 0.0112476135
0.0282682050 0.0185642652 0.0095664570
0.0012600628 0.0189547837 0.0037051674
0.0008433202 0.0188845452 0.0038379219
0.0020388644 0.0191724915 0.0037317288
-0.0226037316 0.0057755164 0.0108554298
0.0142417867 0.0166256260 0.0053918744
0.0043453351 0.0189852118 0.0034116667
-0.0075016357 0.0166890416 0.0073675001
0.0135410260 0.0182129499 0.0109127024
-0.0166475791 0.0159461740 0.0081879506
-0.0211653188 0.0185996946 0.0085856775
-0.0201856755 0.0188464168 0.0069614435
0.0190563686 0.0193000808 0.0025572714
-0.0246838182 0.0030930084 0.0120195830
0.0080751330 0.0174615439 0.0034631055
-0.0044036396 0.0187291782 0.0069458270
-0.0256727114 0.0194140505 0.0153637240
-0.0242340639 0.0191787090 0.0152387777
-0.0097610205 0.0180297215 0.0113500068
-0.0172010921 0.0114081390 0.0032756862
-0.0263012461 0.0193861444 0.0180499498
-0.0265824832 0.0193741545 0.0192056540
-0.0049364306 0.0148861948 0.0061042169
0.0200712364 0.0195023380 0.0024010998
-0.0001305899 0.0175286718 0.0080546746
0.0003495683 0.0177043416 0.0068781534
0.0108961351 0.0187468473 0.0117404321
0.0171544272 0.0163955595 0.0047281245
0.0272776969 0.0192350633 0.0111594582
-0.0109950751 0.0189471897 0.0092728520
0.0161025506 0.0189903527 0.0052955681
0.0101626655 0.0177468825 0.0092728520
-0.0185883418 0.0195176136 0.0047046999
-0.0176075138 0.0195181128 0.0045172879
-0.0101291947 0.0166172627 0.0063445503
-0.0230316520 0.0185438599 0.0115842605
-0.0077324063 0.0172668975 0.0094290311
0.0065362416 0.0192076769 0.0024167162
0.0060432721 0.0192909036 0.0038379219
0.0238558743 0.0193673056 0.0152387777
-0.0221171007 0.0173341613 0.0103895077
0.0117090605 0.0193846598 0.0139893675
0.0102952924 0.0180726517 0.0102522904
-0.0065708868 0.0189718809 0.0122297863
0.0171829294 0.0180986170 0.0030635681
0.0182639975 0.0181115773 0.0030139249
-0.0179020353 0.0152960289 0.0067115584
0.0243401937 0.0180901550 0.0091283927
0.0074168164 0.0181068573 0.0020809483
-0.0106198937 0.0190116316 0.0073987404
0.0002625139 0.0195031837 0.0036567610
0.0071947984 0.0169608947 0.0042472417
0.0002274477 0.0158703588 0.0094810957
-0.0055754893 0.0187772512 0.0104597891
-0.0061442554 0.0189817976 0.0115842605
0.0156398695 0.0176376086 0.0044313902
-0.0068681128 0.0187363215 0.0129481936
0.0155458134 0.0179217141 0.0053372094
0.0044504199 0.0195050798 0.0030726653
-0.0008491686 0.0190331843 0.0036707160
-0.0256883241 0.0182624031 0.0111157307
-0.0044943038 0.0173932109 0.0054621557
0.0252453294 0.0186577551 0.0103879506
-0.0048158225 0.0173822511 0.0058057392
0.0275158267 0.0185615737 0.0097101489
0.0273098331 0.0187671687 0.0103504667
0.0032827090 0.0182407685 0.0050248588
0.0032561850 0.0176336318 0.0073987404
0.0169176329 0.0195103474 0.0017451656
0.0173816141 0.0195058994 0.0021512222
0.0182638336 0.0195029378 0.0024010998
0.0193070080 0.0159875136 0.0042314837
0.0284850188 0.0127284173 0.0048374543
0.0081165228 0.0180056840 0.0061180973
-0.0273181908 0.0196544677 0.0151138389
-0.0106453858 0.0183275789 0.0109751681
0.0032334886 0.0155810621 0.0085622529
-0.0241772197 0.0196485724 0.0151138389
-0.0268438011 0.0191169493 0.0203301180
0.0150395948 0.0171688534 0.0061805630
0.0149620045 0.0173549931 0.0068989778
-0.0145252869 0.0152919926 0.0070395330
-0.0148495436 0.0192319658 0.0046552503
-0.0147849172 0.0188198444 0.0048970813
-0.0133712515 0.0187323615 0.0050977403
-0.0128048658 0.0188928396 0.0054582516
-0.0126783131 0.0190641284 0.0063445503
-0.0127307810 0.0190247912 0.0072074318
-0.0157181844 0.0182413757 0.0050519342
0.0090746321 0.0188338179 0.0105035240
-0.0107516721 0.0196412932 0.0132943848
-0.0103369728 0.0196362864 0.0138019556
-0.0100256689 0.0196347386 0.0139268944
-0.0064949319 0.0183208175 0.0112406695
0.0072419941 0.0196387377 0.0020614129
-0.0056249090 0.0183644369 0.0091479132
-0.0265269205 0.0194103532 0.0158322472
0.0023764055 0.0189228859 0.0039461860
-0.0254103430 0.0189158209 0.0172378346
0.0101952804 0.0160034839 0.0050873244
-0.0096206143 0.0172650442 0.0130679319
-0.0091176629 0.0173815228 0.0129586095
0.0083547700 0.0183361880 0.0053684497
0.0247931201 0.0192873199 0.0123026678
-0.0103756264 0.0196920261 0.0073362673
0.0111545213 0.0174305998 0.0114801461
-0.0094927475 0.0181941614 0.0142035568
0.0139923617 0.0188713744 0.0131043727
0.0243427660 0.0165826026 0.0052122707
-0.0196667761 0.0169989225 0.0061597386
-0.0199842639 0.0173294730 0.0070239166
0.0142329475 0.0192530863 0.0122714275
-0.0026140232 0.0191206485 0.0031904962
0.0122426059 0.0130731426 0.0054091895
0.0062863491 0.0196714941 0.0024385836
0.0061152149 0.0195045453 0.0029789519
-0.0081473365 0.0176307354 0.0121152559
0.0112412656 0.0196163207 0.0132709602
0.0114058312 0.0191993061 0.0133646736
-0.0056882463 0.0196613315 0.0100849653
0.0165436845 0.0189835373 0.0035724204
0.0171657670 0.0187801216 0.0029390391
0.0180957597 0.0187595300 0.0028279882
-0.0189599991 0.0159967486 0.0046083862
0.0125583299 0.0175229181 0.0083357925
-0.0079625584 0.0191498902 0.0159884263
0.0132932095 0.0178818200 0.0088980282
0.0133323641 0.0180183239 0.0099131772
-0.0177932158 0.0197299775 0.0044313902
-0.0235516243 0.0187957194 0.0116016055
-0.0238059871 0.0188747495 0.0122011462
-0.0219493732 0.0194572750 0.0108033800
0.0263312925 0.0186600611 0.0102567608
0.0282884482 0.0188746229 0.0104066888
0.0283060223 0.0193009675 0.0111282254
0.0290410127 0.0192626044 0.0112927342
0.0031676181 0.0197081063 0.0032678780
0.0169204567 0.0197099485 0.0017139253
0.0073206779 0.0178058315 0.0032861021
-0.0112840757 0.0182410069 0.0098663205
-0.0042101238 0.0188402515 0.0066647092
-0.0242353417 0.0198820401 0.0152387777
0.0245553665 0.0196072068 0.0137394900
-0.0077059530 0.0123553369 0.0067566792
-0.0117072901 0.0191871021 0.0062117958
-0.0107598864 0.0192662943 0.0055785859
-0.0227110125 0.0166418962 0.0078735137
0.0086703170 0.0190642476 0.0101994956
-0.0107494593 0.0198684055 0.0132865766
0.0072864648 0.0199138038 0.0022215035
-0.0085909180 0.0176127888 0.0127711976
0.0088543482 0.0198795460 0.0073675076
0.0081437025 0.0169768408 0.0043463642
0.0022456441 0.0197384190 0.0032221389
0.0174410213 0.0197931901 0.0019593474
-0.0106886439 0.0196795985 0.0088355551
-0.0069818534 0.0198977292 0.0078047970
-0.0105870552 0.0193022601 0.0131564373
0.0088489465 0.0198670793 0.0093353251
-0.0137593821 0.0149576422 0.0065054232
-0.0205581635 0.0181783345 0.0077735642
-0.0199981332 0.0176533982 0.0070551494
-0.0120721683 0.0192371365 0.0040253336
0.0133282552 0.0198539179 0.0108502293
0.0128092188 0.0198445302 0.0123963738
0.0139365504 0.0196230020 0.0122714350
-0.0016729123 0.0197154861 0.0030924615
-0.0285366960 0.0198720191 0.0181280393
-0.0272477977 0.0198617391 0.0192368943
-0.0157520398 0.0186676178 0.0048686871
0.0096197352 0.0197381247 0.0120996395
0.0102175195 0.0197340138 0.0125798816
0.0109221851 0.0196963977 0.0126046101
0.0112197436 0.0198391955 0.0134271393
0.0156210139 0.0196516849 0.0087418566
-0.0177518353 0.0199411791 0.0043376843
-0.0230086930 0.0188720729 0.0123182843
0.0241849497 0.0187938120 0.0087418566
-0.0102861561 0.0199082289 0.0070863897
-0.0098923184 0.0178773310 0.0102376798
0.0170231108 0.0199093707 0.0016826924
0.0115957065 0.0197227336 0.0139893675
0.0083062612 0.0183808561 0.0033225429
0.0131534748 0.0196072794 0.0142002115
0.0245617777 0.0198350269 0.0131772542
-0.0132553913 0.0190968644 0.0041658888
-0.0059778392 0.0201304555 0.0034006324
-0.0167013183 0.0143103749 0.0070863822
0.0085335542 0.0189294759 0.0094914967
0.0085075479 0.0189095456 0.0084685395
-0.0107444860 0.0200955234 0.0132709602
-0.0098316483 0.0197525602 0.0133490423
-0.0259274207 0.0191481207 0.0178000648
0.0155442320 0.0200983044 0.0043533007
-0.0116144158 0.0198104214 0.0061727474
0.0154504608 0.0180708524 0.0062534446
0.0021326710 0.0201191735 0.0028383967
0.0043127444 0.0198915787 0.0030414176
0.0060715228 0.0158481132 0.0052435109
0.0251388773 0.0199336708 0.0125927115
0.0093637817 0.0200845189 0.0088355551
-0.0016367881 0.0201245975 0.0029633355
-0.0283067226 0.0201115049 0.0184560064
-0.0270247608 0.0198551714 0.0201531220
0.0102480613 0.0200686883 0.0123729417
-0.0127252154 0.0191907454 0.0040843347
0.0109730978 0.0200663581 0.0127711976
-0.0113255829 0.0190728959 0.0057016173
0.0122638196 0.0199892484 0.0131772542
0.0161608551 0.0147182308 0.0046301568
0.0172173064 0.0192137938 0.0023664024
0.0183697920 0.0190607328 0.0026850563
-0.0087267607 0.0194011033 0.0142782945
-0.0078467652 0.0193145089 0.0151034230
-0.0177000426 0.0201520659 0.0042205611
-0.0220254548 0.0190092158 0.0107096741
-0.0102416538 0.0201229006 0.0069614435
-0.0102206394 0.0201203208 0.0075236792
0.0173230562 0.0201084446 0.0016764414
0.0115954140 0.0200606883 0.0139893675
0.0080277901 0.0181684997 0.0023074013
-0.0238181725 0.0201197099 0.0143329585
-0.0058182552 0.0203362163 0.0032366451
0.0312068891 0.0198450796 0.0149605060
0.0318059847 0.0200516377 0.0149576599
0.0085531883 0.0191407800 0.0072581777
0.0085814968 0.0190977268 0.0064772973
-0.0106596313 0.0203229766 0.0130210752
0.0080687981 0.0198695809 0.0023550626
0.0141830444 0.0203037933 0.0045667449
0.0149136800 0.0203034058 0.0044782469
-0.0017355549 0.0190994982 0.0033152637
0.0249018408 0.0202825889 0.0125369290
0.0282458942 0.0201697480 0.0132553512
0.0085628051 0.0190798175 0.0041893134
0.0079668406 0.0189353209 0.0023118493
-0.0087672248 0.0196473319 0.0122402022
0.0163602084 0.0190721434 0.0044157812
-0.0140212812 0.0158625152 0.0063471580
-0.0136361644 0.0202340260 0.0037486714
-0.0127147511 0.0200041868 0.0037308272
-0.0120364502 0.0199680924 0.0037442234
-0.0084238015 0.0203291755 0.0084607312
-0.0081637390 0.0198895447 0.0093665579
0.0084293429 0.0179995056 0.0082629183
-0.0147244530 0.0199563149 0.0040357420
-0.0137755051 0.0198145360 0.0038691547
-0.0129306689 0.0195186995 0.0038066891
-0.0120148659 0.0195653811 0.0042049373
-0.0117780827 0.0199198853 0.0057276497
0.0164012443 0.0202683508 0.0017076817
0.0173272993 0.0203077439 0.0016264629
0.0180147495 0.0198666863 0.0020012867
0.0190665349 0.0196027886 0.0024115231
-0.0176259279 0.0171159841 0.0055558616
0.0139360530 0.0192278307 0.0084607387
0.0142009323 0.0191141497 0.0089605013
0.0129304305 0.0193918291 0.0132397274
-0.0264437608 0.0187769011 0.0113343755
0.0253967065 0.0197203718 0.0114593143
-0.0046180710 0.0180897024 0.0061493227
0.0024351310 0.0195001289 0.0037286070
0.0031669047 0.0194995590 0.0037129831
-0.0241047703 0.0194159672 0.0149576599
0.0048634000 0.0188868493 0.0035463956
-0.0088101737 0.0199949685 0.0102880010
0.0042806249 0.0173730738 0.0062430361
-0.0262155309 0.0187720414 0.0116154933
-0.0250804387 0.0192041211 0.0133334333
-0.0096084848 0.0171801709 0.0121621126
0.0272431821 0.0201691110 0.0134333754
0.0173173640 0.0171400663 0.0033237573
0.0182362441 0.0171074606 0.0033424359
-0.0089777485 0.0171836298 0.0120631987
0.0243770164 0.0187357590 0.0103482390
-0.0124034695 0.0197684392 0.0071800882
-0.0103155859 0.0203357413 0.0074768225
-0.0074148476 0.0198986661 0.0077735642
-0.0067082830 0.0200282615 0.0073675076
-0.0058327839 0.0201127678 0.0073128352
-0.0058967061 0.0203294512 0.0061337138
-0.0112694381 0.0191560574 0.0114358896
-0.0111282915 0.0189322699 0.0102827931
-0.0238483399 0.0205847844 0.0143954242
-0.0099653751 0.0185362063 0.0116779665
-0.0294427462 0.0203564428 0.0186434183
-0.0291658193 0.0203557350 0.0186121836
-0.0276488401 0.0200072080 0.0182842184
-0.0267698653 0.0201321766 0.0183310676
-0.0134198144 0.0160403363 0.0055836299
-0.0057659745 0.0166475531 0.0057276571
0.0142443972 0.0167931113 0.0061805630
0.0086052008 0.0200364310 0.0062474916
0.0152510945 0.0172021780 0.0051810378
-0.0105752908 0.0205492489 0.0131147811
0.0086047389 0.0169517640 0.0050665000
0.0078876894 0.0205164421 0.0022605446
-0.0267869346 0.0199813880 0.0193618257
-0.0086637475 0.0184831377 0.0144516537
0.0190758277 0.0183288082 0.0028571349
0.0204486549 0.0182888005 0.0028383967
0.0137739005 0.0173195172 0.0080234418
0.0138329230 0.0205095597 0.0040565664
0.0097232834 0.0205136649 0.0079297358
0.0113142189 0.0174641907 0.0103348503
0.0107269650 0.0200658944 0.0129273692
-0.0036022998 0.0199173931 0.0039316276
0.0063452870 0.0205186363 0.0023448777
0.0262363013 0.0205043945 0.0132084871
0.0312315989 0.0205054600 0.0148327211
0.0109859826 0.0202893820 0.0126774916
-0.0067284815 0.0139874257 0.0063849026
-0.0137317851 0.0205614287 0.0037129831
-0.0127231963 0.0205587056 0.0036442589
-0.0120614246 0.0205569342 0.0036192772
-0.0246599354 0.0189012978 0.0123885730
-0.0089701861 0.0165724028 0.0104285562
-0.0084096007 0.0205459185 0.0080859149
0.0234460812 0.0188912880 0.0166860167
0.0318025835 0.0202787854 0.0148951942
0.0102618868 0.0205128547 0.0115217948
0.0120115597 0.0205110442 0.0116779665
0.0306696985 0.0199376382 0.0149576599
0.0179839898 0.0202407129 0.0017243412
0.0142689422 0.0193817485 0.0074195648
0.0134920124 0.0193121452 0.0103973160
-0.0216429494 0.0202454235 0.0101318220
-0.0102826320 0.0205507223 0.0073831240
0.0282834172 0.0197185371 0.0122193852
0.0173299573 0.0205068439 0.0015952301
-0.0048693027 0.0199015699 0.0066803256
0.0252298657 0.0205044020 0.0134271393
-0.0056750365 0.0206438005 0.0031195071
-0.0183947384 0.0193050355 0.0047749812
-0.0105651952 0.0207758639 0.0130835483
-0.0218306594 0.0206934437 0.0105378786
0.0002797378 0.0200170856 0.0033912670
-0.0273497291 0.0196471512 0.0159571860
0.0077946801 0.0207176767 0.0022136953
0.0138404015 0.0207138304 0.0039941007
0.0085394345 0.0196683593 0.0073362673
0.0135760866 0.0203009434 0.0061493302
0.0155156720 0.0198790804 0.0066334764
-0.0177161731 0.0206775591 0.0040034661
-0.0103812777 0.0207657628 0.0073466832
0.0283701997 0.0205046348 0.0137707228
0.0121630365 0.0193782803 0.0145724285
0.0131212818 0.0187803674 0.0141663710
-0.0237009190 0.0130348969 0.0075132484
0.0160633195 0.0199954957 0.0043064514
-0.0137228891 0.0207694974 0.0036895585
-0.0127014257 0.0207662899 0.0035880443
-0.0120498203 0.0207643751 0.0035880443
-0.0259817727 0.0190777462 0.0125400582
0.0312313195 0.0207321979 0.0148249129
-0.0109838583 0.0199201275 0.0122714350
0.0189590119 0.0158430506 0.0051185722
-0.0104443766 0.0191829205 0.0061666826
-0.0026991181 0.0199217200 0.0030233276
-0.0266052894 0.0194171984 0.0152075449
-0.0256338045 0.0191299245 0.0131980712
-0.0104452930 0.0206577238 0.0062976936
-0.0007165930 0.0199168827 0.0032569629
0.0032696743 0.0190942362 0.0040452043
0.0272277389 0.0197299961 0.0123276645
0.0173348058 0.0207057670 0.0015390154
0.0112340450 0.0207374319 0.0141455475
-0.0056738593 0.0209514089 0.0031132635
0.0302683804 0.0206345320 0.0146631533
-0.0105978698 0.0210029464 0.0131772542
0.0137209781 0.0209153853 0.0033069265
-0.0146044940 0.0208348446 0.0037567031
-0.0126896799 0.0209737681 0.0035568040
-0.0241223685 0.0192021132 0.0133958990
-0.0005657858 0.0182191022 0.0039244080
0.0124189546 0.0193868708 0.0137394900
0.0054247435 0.0201909896 0.0027212661
0.0050622802 0.0199120510 0.0028809842
0.0403584652 0.0202602427 0.0262023453
-0.0078026243 0.0181935430 0.0137082497
0.0144209173 0.0207296275 0.0022136879
0.0315689892 0.0209588725 0.0147702480
0.0317974500 0.0205056798 0.0148014883
0.0094542094 0.0201936550 0.0082733193
-0.0137108453 0.0209774394 0.0036583182
-0.0120382719 0.0209716912 0.0035568040
0.0130234975 0.0184763558 0.0143485749
0.0312317740 0.0209589787 0.0148327211
-0.0105667040 0.0207748357 0.0124067822
0.0173391383 0.0209044907 0.0014890369
0.0182781052 0.0207358934 0.0016250473
0.0189864170 0.0208376739 0.0016514596
0.0139710447 0.0200909823 0.0063575665
0.0144762704 0.0200859737 0.0074612061
-0.0167422034 0.0180283170 0.0050967047
0.0147318598 0.0198645145 0.0090229670
0.0143136112 0.0197715238 0.0100724706
-0.0113801761 0.0180374701 0.0091869542
0.0024571735 0.0201871376 0.0026353758
0.0031303409 0.0201558657 0.0025061679
0.0042941421 0.0203189105 0.0028462049
-0.0108415186 0.0190723874 0.0122491205
-0.0017281509 0.0203288626 0.0029164862
0.0148586873 0.0192575715 0.0103738913
0.0111206621 0.0209632870 0.0141455391
-0.0149425603 0.0161816198 0.0071488554
-0.0055784918 0.0211563930 0.0031429392
0.0303229708 0.0208451673 0.0148092965
-0.0106199123 0.0212302264 0.0132397274
0.0137594091 0.0211266074 0.0046500424
0.0140487663 0.0211219881 0.0039628604
-0.0075565241 0.0164945293 0.0068677375
0.0114778811 0.0202860627 0.0140206078
0.0240168255 0.0208659917 0.0102411443
0.0112216119 0.0201755185 0.0134115228
0.0118149798 0.0202875528 0.0131772542
0.0403701216 0.0205113739 0.0262960512
-0.0273685567 0.0196040664 0.0208923537
0.0151393358 0.0179066174 0.0072113210
0.0095569585 0.0209413208 0.0082967514
-0.0120267756 0.0211788844 0.0035255712
0.0142981354 0.0211193711 0.0035880443
-0.0106934123 0.0212277249 0.0127711976
0.0189644378 0.0166357420 0.0038691622
0.0191184077 0.0211031344 0.0016618755
0.0013213624 0.0203237776 0.0027759236
0.0038103014 0.0203199331 0.0027134579
0.0292127710 0.0200958159 0.0132032717
0.0156749580 0.0203077458 0.0021512222
0.0086254776 0.0189595949 0.0053137848
0.0163115207 0.0203080196 0.0018076312
0.0173428524 0.0211030543 0.0014453095
0.0244059302 0.0192875322 0.0122948522
0.0111096753 0.0211895294 0.0142236361
0.0059468560 0.0139130056 0.0058486918
-0.0054827742 0.0213614646 0.0031715718
-0.0187475309 0.0189390648 0.0049869427
-0.0167241953 0.0150087141 0.0071488405
-0.0106313229 0.0214575045 0.0132709602
0.0143789323 0.0181450211 0.0102762813
-0.0214041285 0.0190247633 0.0096164355
0.0159014314 0.0188424978 0.0059306854
-0.0166971609 0.0207950473 0.0038619426
-0.0102919154 0.0213754307 0.0029321027
0.0242881700 0.0187897179 0.0090073505
0.0112073552 0.0208692681 0.0131803760
-0.0104181655 0.0199910849 0.0062827850
-0.0026609451 0.0209427066 0.0028871458
0.0292050019 0.0194028970 0.0118341381
-0.0082578622 0.0196508635 0.0117404321
0.0201205201 0.0157263260 0.0040208707
0.0144591285 0.0193549283 0.0066803256
0.0153153893 0.0190118402 0.0085856775
0.0108815171 0.0179138500 0.0115342895
0.0086393263 0.0206547529 0.0063367421
0.0272554420 0.0206176378 0.0143391872
0.0272145607 0.0211318899 0.0154964784
0.0283245202 0.0211674478 0.0153040895
0.0293677729 0.0212435871 0.0150799910
0.0138800684 0.0213453230 0.0062274197
-0.0167146362 0.0193062201 0.0045172879
0.0173432697 0.0213017650 0.0014390659
-0.0097162463 0.0209926739 0.0112719098
-0.0007538776 0.0213447735 0.0027759236
0.0004066007 0.0212286375 0.0027481627
0.0137137519 0.0198567100 0.0103660831
0.0148579497 0.0196426623 0.0098663205
-0.0199019015 0.0214460604 0.0073362673
0.0034135897 0.0200143047 0.0030960899
0.0035534780 0.0198053271 0.0038379219
0.0275077075 0.0214210376 0.0159988347
-0.0104586259 0.0211951230 0.0072477693
-0.0103214309 0.0211996324 0.0081119398
-0.0079039074 0.0205450263 0.0072425613
0.0238830335 0.0191590860 0.0137082497
-0.0108693801 0.0197780542 0.0103036175
-0.0294110849 0.0210358910 0.0184685010
-0.0286982991 0.0210818294 0.0184802953
-0.0277464241 0.0209570434 0.0183649156
-0.0269736238 0.0209774505 0.0179374982
-0.0219715200 0.0197940860 0.0108502368
-0.0263457038 0.0194391403 0.0131303975
-0.0054733157 0.0215663146 0.0031403389
-0.0263156220 0.0194315296 0.0138331959
-0.0122075342 0.0213861782 0.0034318652
-0.0271995626 0.0197255239 0.0210953820
-0.0320383236 0.0218555275 0.0217044670
0.0279632956 0.0214199908 0.0158634856
-0.0007781031 0.0209211204 0.0028670516
0.0149273556 0.0215238649 0.0034318652
0.0248019248 0.0206139758 0.0113499919
0.0096784364 0.0202973187 0.0095852027
-0.0101531483 0.0202262998 0.0079609761
-0.0223162994 0.0217196196 0.0121152559
0.0052793790 0.0215308797 0.0025510278
0.0110793663 0.0189790465 0.0123083452
-0.0105137601 0.0215793960 0.0026666012
-0.0157601908 0.0207759570 0.0038379219
0.0264716279 0.0211868938 0.0152127529
-0.0103445910 0.0216618776 0.0110844979
0.0302138347 0.0212992951 0.0149108106
0.0143236956 0.0213355552 0.0051185647
0.0085773934 0.0196431857 0.0103192339
-0.0157437958 0.0191075411 0.0046612034
-0.0056517981 0.0203307755 0.0053684497
-0.0046952032 0.0201721117 0.0052356953
0.0022605639 0.0210495982 0.0026068774
0.0032220706 0.0209284015 0.0025860083
0.0042290278 0.0209434684 0.0026353535
0.0173448045 0.0215003286 0.0014203202
-0.0106511451 0.0214526504 0.0126462588
0.0153661035 0.0203058664 0.0031507474
-0.0078621246 0.0201129913 0.0081171477
0.0282494947 0.0206335038 0.0141009325
0.0111346673 0.0216393974 0.0140362242
0.0264942329 0.0202075131 0.0129481936
0.0083268210 0.0178843569 0.0073362598
-0.0150251426 0.0206484608 0.0038191837
-0.0055413656 0.0217742026 0.0033485752
-0.0107749291 0.0208841544 0.0054799998
0.0317806304 0.0216360725 0.0144891301
-0.0104645863 0.0217960197 0.0131225968
0.0151101109 0.0217290819 0.0036192772
-0.0019920040 0.0217550732 0.0027342823
0.0092620831 0.0216384586 0.0136770168
0.0002745074 0.0146228094 0.0064538727
0.0114581473 0.0217839759 0.0135937268
0.0119772460 0.0218588505 0.0136457840
-0.0105572790 0.0212194789 0.0061671818
-0.0027374048 0.0215957295 0.0028571424
-0.0101280548 0.0208294503 0.0084294984
-0.0083952732 0.0210852437 0.0080390582
0.0290083848 0.0196907390 0.0126150185
-0.0295144916 0.0217505656 0.0182490740
0.0133267641 0.0201925710 0.0073206509
-0.0070963241 0.0189471394 0.0139425183
-0.0104495101 0.0218844190 0.0110532576
-0.0094362944 0.0218814649 0.0111157307
0.0241344776 0.0217446983 0.0053372169
0.0074009821 0.0183182452 0.0016358357
-0.0060411654 0.0201268122 0.0042439783
0.0013102369 0.0210075378 0.0026854884
0.0312355254 0.0202785544 0.0149108032
0.0001851098 0.0207706001 0.0029086929
0.0173452403 0.0216989852 0.0014140767
0.0183804575 0.0216438305 0.0016246822
0.0245482139 0.0198272038 0.0142861018
0.0086009614 0.0197947472 0.0045563290
-0.0102319159 0.0212058201 0.0091322968
0.0241018850 0.0193796922 0.0140518406
0.0083599165 0.0190488733 0.0032132205
0.0022971928 0.0180574618 0.0074424678
-0.0108609907 0.0199930873 0.0112562934
-0.0239921734 0.0217568725 0.0152387777
0.0085501205 0.0182520840 0.0091791460
-0.0004861521 0.0187481195 0.0038483378
-0.0047632009 0.0216675550 0.0032288444
0.0096280593 0.0212403070 0.0103660757
-0.0208913349 0.0150191728 0.0070417607
-0.0106298365 0.0221386310 0.0132605517
-0.0099160299 0.0221305508 0.0128805200
0.0236578304 0.0210867114 0.0091077471
-0.0107303262 0.0218271967 0.0061597386
-0.0096500739 0.0180291329 0.0123214060
0.0290434882 0.0205047727 0.0137603143
0.0292875636 0.0207535420 0.0143673131
0.0131699676 0.0209290441 0.0064538801
0.0301406849 0.0219052639 0.0149680832
0.0312399399 0.0216410011 0.0149889002
0.0146303903 0.0216452163 0.0051498050
0.0154293552 0.0219733547 0.0064304555
-0.0157135986 0.0199281238 0.0041573578
0.0139083620 0.0217940360 0.0086793834
-0.0106019787 0.0213874504 0.0043376843
0.0317894518 0.0210714992 0.0146531174
-0.0272350349 0.0193540137 0.0211734716
0.0154021326 0.0209347699 0.0015786004
0.0142379692 0.0211119205 0.0023854834
0.0314254276 0.0212620441 0.0149160195
0.0281737410 0.0176380575 0.0076069618
0.0175396632 0.0218982585 0.0014640477
0.0169695895 0.0219102893 0.0022449282
0.0185046643 0.0219031777 0.0018596884
-0.0287318639 0.0225290675 0.0179718602
0.0306615513 0.0209584702 0.0147702480
0.0315692239 0.0214122068 0.0147702480
0.0130138081 0.0205102265 0.0072737942
-0.0101165920 0.0209867265 0.0091270888
0.0402928144 0.0221363958 0.0256479029
0.0409046225 0.0222603884 0.0255151708
-0.0136960447 0.0212891698 0.0036192772
0.0258988887 0.0196243711 0.0116779665
-0.0036778823 0.0216742866 0.0041658888
-0.0024030209 0.0217561070 0.0027134579
-0.0223699510 0.0185606908 0.0106784338
0.0093485098 0.0208847709 0.0072711939
-0.0102769025 0.0223811064 0.0143017257
-0.0103422217 0.0223959964 0.0152075449
-0.0105330050 0.0223662667 0.0133178169
-0.0096904002 0.0223732293 0.0139581347
-0.0258083604 0.0209092479 0.0180863906
0.0107026417 0.0181529075 0.0111625800
-0.0265084393 0.0220503788 0.0193071682
0.0164136961 0.0199499484 0.0033303585
-0.0214497335 0.0217026547 0.0107409069
-0.0199294724 0.0223484822 0.0094602639
0.0044053700 0.0205215756 0.0028071639
-0.0250159875 0.0208248813 0.0169254784
-0.0167152435 0.0199299362 0.0042141462
0.0156748537 0.0222117212 0.0081796208
0.0122493124 0.0202906188 0.0115530202
-0.0177854411 0.0222697537 0.0051498050
0.0303582121 0.0217890255 0.0147390151
0.0301169585 0.0223275814 0.0153324837
0.0155896917 0.0222631041 0.0112406695
-0.0302998200 0.0218246188 0.0192993600
0.0002929122 0.0216466635 0.0027384472
0.0013664925 0.0217273887 0.0026535925
0.0022488348 0.0217258539 0.0026101556
0.0032228772 0.0216371566 0.0025760245
0.0042808987 0.0217055306 0.0026461941
-0.0074514747 0.0222993195 0.0099287936
-0.0077100545 0.0222907141 0.0093353251
0.0084671266 0.0196542032 0.0090229670
-0.0206210129 0.0141331572 0.0078828866
0.0003229511 0.0220575575 0.0030133140
0.0289988238 0.0178887993 0.0083134929
0.0082699899 0.0130376313 0.0056703696
0.0122708306 0.0189957209 0.0149264270
-0.0249457955 0.0213000495 0.0167693067
0.0098216347 0.0177268889 0.0086793834
0.0272840075 0.0217693057 0.0163694937
0.0272592008 0.0221679844 0.0174044240
0.0273622517 0.0223687757 0.0178469140
0.0282911118 0.0222611818 0.0173360053
0.0293622855 0.0218859240 0.0152575234
0.0290620085 0.0222850032 0.0162461121
-0.0176587887 0.0203624237 0.0041268477
0.0135199958 0.0215767808 0.0083357925
0.0134960907 0.0218039639 0.0094290236
-0.0250239410 0.0217833165 0.0174877141
-0.0239949115 0.0222483445 0.0168942455
0.0240180250 0.0216113646 0.0123182843
0.0062655788 0.0170242824 0.0042783180
-0.0147231771 0.0224734601 0.0055792863
-0.0137799280 0.0224663299 0.0054465393
0.0240714271 0.0212557409 0.0091244886
-0.0128387399 0.0224591661 0.0053059766
0.0011362099 0.0198672358 0.0032540869
0.0022226404 0.0155733433 0.0086918781
-0.0105521120 0.0218952093 0.0083108107
-0.0260317624 0.0216746535 0.0182842184
-0.0261067189 0.0221806802 0.0201270897
0.0159258787 0.0198848359 0.0056808004
0.0103972666 0.0188654047 0.0112540508
-0.0180236213 0.0167978518 0.0058786208
-0.0210663863 0.0222690739 0.0112094367
0.0022141989 0.0205252655 0.0029242944
-0.0109508708 0.0186748728 0.0114530707
0.0121253682 0.0213856325 0.0108033800
-0.0108255260 0.0200488064 0.0056279385
-0.0251986645 0.0222828481 0.0189870093
0.0048130732 0.0224375706 0.0077423239
0.0304234345 0.0225397032 0.0144891301
0.0315252244 0.0225300398 0.0139373103
0.0152099747 0.0191721376 0.0093977833
-0.0157303177 0.0212977342 0.0037637365
0.0290736295 0.0173261594 0.0078047970
-0.0106869787 0.0220818892 0.0031029892
-0.0105043426 0.0220096093 0.0040690610
-0.0070998333 0.0213796943 0.0048374468
-0.0198756754 0.0225769971 0.0098663205
0.0025846791 0.0182343945 0.0053059766
0.0051788259 0.0218106098 0.0026587930
0.0003233050 0.0223851055 0.0042002508
-0.0207433030 0.0219161175 0.0100537324
-0.0042580534 0.0203312170 0.0039941007
-0.0035673566 0.0202295519 0.0031195146
-0.0040554442 0.0196988713 0.0054309228
0.0263592433 0.0222142935 0.0154574225
0.0112386495 0.0179339778 0.0122753391
-0.0186238214 0.0200470779 0.0045329118
0.0138425818 0.0220165085 0.0092416191
-0.0084381588 0.0216295645 0.0084919715
-0.0066734664 0.0220574904 0.0085544446
-0.0058240965 0.0220512785 0.0083295414
-0.0320082679 0.0221046992 0.0216420013
-0.0245443471 0.0225169603 0.0186746512
-0.0245800577 0.0228972342 0.0196117107
0.0104121370 0.0202913638 0.0120111341
0.0402794331 0.0226344019 0.0255307797
-0.0276285075 0.0218931232 0.0180691723
-0.0276796073 0.0222779512 0.0176751260
0.0409917422 0.0226773638 0.0255359951
-0.0266552269 0.0223064627 0.0201817546
0.0151367392 0.0200947057 0.0052747438
-0.0219707042 0.0212576035 0.0111001143
-0.0137858465 0.0222374704 0.0043689171
0.0431593433 0.0225131307 0.0254526976
0.0161036570 0.0196744837 0.0059931511
0.0102084279 0.0193313286 0.0121360878
-0.0185357779 0.0208902396 0.0040878067
-0.0174985863 0.0214092359 0.0037598324
0.0064638853 0.0225639939 0.0037754562
0.0077553727 0.0225548651 0.0034943384
0.0261259433 0.0227497518 0.0138019556
-0.0067559816 0.0220418964 0.0074299732
-0.0005469396 0.0216291007 0.0027759236
0.0032220241 0.0220065471 0.0030748930
0.0094170142 0.0218327455 0.0112406695
-0.0167231970 0.0226755552 0.0045094797
0.0127441874 0.0202947631 0.0093977908
0.0263591167 0.0225558914 0.0154261896
0.0041653775 0.0224116817 0.0062586525
0.0313158482 0.0227612350 0.0142392516
0.0311193820 0.0227735471 0.0148327211
0.0101365009 0.0223037899 0.0105722332
0.0243661851 0.0191911962 0.0111469636
-0.0103606917 0.0202579405 0.0093977908
0.0092002042 0.0198966805 0.0103088180
0.0035838597 0.0226683728 0.0084294984
0.0072668009 0.0225204211 0.0017763984
-0.0037497617 0.0209459513 0.0030233276
0.0265468936 0.0219282079 0.0161883254
-0.0295282453 0.0229491480 0.0180365611
-0.0277063064 0.0229003690 0.0175085459
-0.0271138437 0.0226336773 0.0175658036
0.0149299633 0.0207596198 0.0020731327
0.0093919439 0.0202320144 0.0073362673
-0.0246101171 0.0232831724 0.0205487702
0.0097899102 0.0202957243 0.0102723772
0.0145462360 0.0203026012 0.0049936259
-0.0276075862 0.0223123971 0.0202572439
-0.0178387016 0.0211602394 0.0039253766
0.0402707458 0.0231324658 0.0254526976
0.0431035459 0.0232013091 0.0254917387
0.0063406080 0.0201154631 0.0023698595
0.0072800145 0.0202154350 0.0022527289
-0.0048102718 0.0218051933 0.0061180899
-0.0103554390 0.0209947117 0.0111219818
-0.0146680288 0.0217823274 0.0037057709
-0.0148299411 0.0221789386 0.0041190470
0.0053687990 0.0224052649 0.0060868571
0.0313353427 0.0229955744 0.0146140764
0.0311458055 0.0230127349 0.0153637165
0.0002672748 0.0188983064 0.0038524878
0.0072230659 0.0195190571 0.0015108970
0.0261950772 0.0199142583 0.0123599330
-0.0034854952 0.0220719632 0.0054204995
-0.0103116296 0.0210464951 0.0103348428
-0.0095667429 0.0209337566 0.0101630548
0.0088207982 0.0227923840 0.0150357494
-0.0085048899 0.0218529701 0.0090229670
0.0003920106 0.0228191037 0.0051497975
0.0097064637 0.0213889834 0.0108033800
-0.0194259398 0.0186608750 0.0053059766
0.0237253215 0.0215905514 0.0103348503
-0.0026130825 0.0162111558 0.0092217410
0.0283550154 0.0218071248 0.0163007844
0.0153437797 0.0222314782 0.0093353251
0.0179861300 0.0219674911 0.0016826850
-0.0286000520 0.0232438333 0.0175618976
-0.0277220830 0.0234766230 0.0174799059
-0.0274273828 0.0225340351 0.0187683571
-0.0267962627 0.0227123406 0.0205526669
-0.0267212465 0.0231243428 0.0211695675
-0.0258922428 0.0228840783 0.0213341136
0.0098925643 0.0202193633 0.0115217948
0.0129335495 0.0200780481 0.0096164355
-0.0136971772 0.0218091756 0.0036166769
-0.0019684080 0.0230859127 0.0071488554
-0.0074262284 0.0223151650 0.0109127024
-0.0072077252 0.0223206673 0.0113031426
0.0021635368 0.0228564292 0.0070614005
0.0063460581 0.0210224874 0.0023370546
0.0072856136 0.0209196303 0.0022183668
0.0251605809 0.0208002236 0.0125577608
0.0261241756 0.0207278151 0.0133021930
-0.0260141082 0.0210007150 0.0176617298
-0.0082059912 0.0164429080 0.0081483806
0.0101391114 0.0210261755 0.0113499919
0.0014909246 0.0231184121 0.0089813257
0.0029563382 0.0226001907 0.0050404826
0.0066798069 0.0228158589 0.0058682123
0.0072981343 0.0230535846 0.0070863897
0.0150894765 0.0198727511 0.0076798582
0.0152572505 0.0196484718 0.0091479132
0.0096149351 0.0231373254 0.0106628174
-0.0106608830 0.0228070505 0.0033818942
0.0113907903 0.0221862700 0.0129742259
-0.0090857856 0.0189886205 0.0134717533
-0.0075002797 0.0194132607 0.0129898423
0.0153978150 0.0215775613 0.0022241038
0.0317790359 0.0218618009 0.0144578973
0.0012825952 0.0225955527 0.0045563364
-0.0103754811 0.0199005976 0.0082733193
-0.0017107594 0.0209402908 0.0028509137
0.0009864495 0.0205274988 0.0028696370
0.0093662189 0.0190787558 0.0112115154
0.0101915346 0.0185493547 0.0105222622
0.0286981259 0.0225990470 0.0176751260
0.0282956902 0.0227905829 0.0181783680
0.0282652769 0.0231456682 0.0191431809
0.0289694145 0.0233314279 0.0190182421
0.0299039967 0.0233264472 0.0187995974
-0.0109454356 0.0219246261 0.0027655151
0.0099615362 0.0207291692 0.0091583291
0.0140092131 0.0233372021 0.0189557690
-0.0276310965 0.0229034498 0.0205151308
-0.0273702517 0.0233070664 0.0208611209
-0.0066309385 0.0223865714 0.0154886628
-0.0072053969 0.0224069320 0.0166131277
0.0093323365 0.0197666604 0.0112344334
-0.0179160647 0.0218361709 0.0042752186
-0.0233290344 0.0203536898 0.0132709602
-0.0062987134 0.0203375872 0.0030882817
0.0042379592 0.0233138409 0.0131737823
0.0053168070 0.0234446563 0.0135208452
0.0063040834 0.0233810544 0.0112719024
-0.0174199343 0.0217208285 0.0035802361
-0.0276395120 0.0196355470 0.0173471589
0.0012862814 0.0223806314 0.0041268403
-0.0256913938 0.0216665436 0.0175501872
0.0035780258 0.0223915391 0.0050873319
-0.0059287660 0.0233793370 0.0184091497
0.0011033473 0.0231033657 0.0083201835
0.0182978790 0.0212714300 0.0015649733
0.0072677396 0.0229242351 0.0061024735
0.0077240039 0.0232639313 0.0070863897
0.0083740130 0.0232605189 0.0070239166
0.0097265653 0.0192947257 0.0121308723
-0.0094457753 0.0235512909 0.0153637165
-0.0106590986 0.0229394119 0.0140262851
0.0157465730 0.0216018297 0.0014640477
0.0162661579 0.0216430072 0.0013926413
0.0412881561 0.0236364473 0.0255463962
0.0011382216 0.0228256900 0.0055558542
0.0146996062 0.0223013200 0.0134583721
0.0143491654 0.0223216340 0.0146453092
-0.0016133002 0.0219357479 0.0029574868
-0.0012869778 0.0223856196 0.0039316276
-0.0006681344 0.0223842859 0.0039753625
-0.0209976360 0.0228558686 0.0123963738
0.0012004805 0.0220901798 0.0030986902
0.0041107144 0.0177202132 0.0050873319
0.0272521470 0.0226993281 0.0183427706
-0.0100232512 0.0228336286 0.0140674645
-0.0100401118 0.0232793260 0.0135833109
0.0314174369 0.0220674630 0.0143928314
-0.0272553489 0.0235340744 0.0200490002
-0.0062565058 0.0226075146 0.0150201330
-0.0067715049 0.0226266384 0.0159571860
-0.0053066108 0.0233541112 0.0174877141
-0.0258369446 0.0240186695 0.0240872744
-0.0246063024 0.0240861159 0.0229226444
0.0105189933 0.0210672449 0.0123261074
-0.0178724639 0.0227188468 0.0063679749
0.0005354659 0.0234331600 0.0125213126
0.0064467415 0.0141172074 0.0056752795
-0.0135414377 0.0226815753 0.0056807930
-0.0136935003 0.0229058135 0.0061743194
-0.0126357526 0.0227160659 0.0055183778
-0.0128295794 0.0230066124 0.0061285058
-0.0129457004 0.0233569723 0.0072894106
0.0084219389 0.0184599254 0.0044001574
-0.0108455829 0.0226185173 0.0086169103
-0.0097310878 0.0187679790 0.0122974673
0.0090382993 0.0236214250 0.0122089619
-0.0147657469 0.0228346977 0.0062004561
0.0121518411 0.0196816102 0.0143641764
0.0048950873 0.0231739543 0.0116467262
0.0059954710 0.0231011603 0.0088511715
-0.0210256130 0.0238472614 0.0152387777
0.0063598938 0.0218399111 0.0024104577
0.0070895664 0.0223181564 0.0016514596
-0.0264776722 0.0209337715 0.0176349599
0.0260122158 0.0222892556 0.0131303975
-0.0113031454 0.0228074696 0.0124900797
0.0022564717 0.0223754998 0.0040128389
-0.0117317289 0.0224279705 0.0038691622
-0.0056022406 0.0236894414 0.0182477701
0.0102621950 0.0221457947 0.0112897465
0.0191182774 0.0213022735 0.0016618755
0.0315030739 0.0236427970 0.0135104293
0.0082758181 0.0234884676 0.0075861523
-0.0119264722 0.0238228776 0.0163215939
0.0273258407 0.0230260417 0.0194242988
-0.0107990280 0.0226338264 0.0094368393
0.0052802488 0.0209243707 0.0025522795
0.0241500773 0.0207229163 0.0109595517
0.0114801936 0.0232378598 0.0148275057
0.0259000696 0.0207265485 0.0127087245
-0.0106049813 0.0219743811 0.0093782777
-0.0095837563 0.0180532206 0.0132397199
0.0263528675 0.0208048224 0.0142288366
0.0142915314 0.0216588136 0.0062898854
0.0002334473 0.0236263722 0.0114280814
0.0027625263 0.0236389656 0.0121777290
0.0022163298 0.0236680377 0.0131147811
0.0032727104 0.0236445032 0.0124276066
0.0006143973 0.0233137514 0.0080859149
0.0130456509 0.0223309547 0.0150982225
-0.0027886815 0.0219848584 0.0043845410
-0.0211017579 0.0231014378 0.0131772542
0.0023377221 0.0221208781 0.0031091061
-0.0090657100 0.0225773714 0.0127711976
0.0164706446 0.0236902423 0.0150357494
0.0173618402 0.0236538369 0.0138331959
0.0169078019 0.0236961059 0.0152543942
-0.0278450213 0.0239256341 0.0173940156
-0.0272614174 0.0243641045 0.0232037622
-0.0069413632 0.0228790361 0.0169254784
-0.0257254057 0.0244123191 0.0251871962
0.0262383670 0.0239270478 0.0232766438
-0.0137587339 0.0232692249 0.0072738016
0.0000245796 0.0236223415 0.0041190395
-0.0001989993 0.0236126799 0.0037754562
0.0254489668 0.0205044392 0.0149264270
0.0255660824 0.0207271446 0.0129898423
0.0024513323 0.0234004706 0.0115530202
-0.0146714784 0.0232705902 0.0072529698
0.0093689002 0.0238431711 0.0122245857
0.0098605156 0.0235902388 0.0112094367
0.0128417155 0.0218384955 0.0121152559
-0.0260829665 0.0225558821 0.0206424762
-0.0287337787 0.0219009146 0.0183310527
-0.0137509471 0.0238470435 0.0090750316
-0.0265101083 0.0215511881 0.0176595021
0.0259756669 0.0225949902 0.0135416621
-0.0198781863 0.0235372689 0.0125837857
0.0023614466 0.0225897394 0.0044438848
0.0163657106 0.0209688861 0.0014718485
-0.0116863362 0.0220042039 0.0033208069
-0.0055728704 0.0240891092 0.0184247736
-0.0051122047 0.0238276459 0.0176438931
-0.0081532635 0.0226222053 0.0154261896
0.0090114195 0.0207843445 0.0065152282
-0.0028733891 0.0231503546 0.0096164355
0.0190771762 0.0215813052 0.0016764414
-0.0079190060 0.0223719850 0.0143017257
-0.0265338570 0.0233246107 0.0219127033
0.0021146554 0.0234150589 0.0120527828
0.0033246744 0.0232898705 0.0116623500
-0.0395101830 0.0241555888 0.0349273682
0.0122805070 0.0230540149 0.0150554487
0.0105171045 0.0239074361 0.0143641913
0.0001523645 0.0236565899 0.0052435109
0.0145053230 0.0225404371 0.0142392516
-0.0167210922 0.0213015042 0.0037567031
0.0090370253 0.0217595883 0.0143954316
-0.0294200853 0.0222959165 0.0183154512
0.0074192602 0.0225308985 0.0022995931
0.0032553449 0.0222734958 0.0042049447
-0.0263136365 0.0246655624 0.0249841679
-0.0095909983 0.0229139272 0.0152700096
-0.0079986081 0.0194049142 0.0138331959
-0.0081123635 0.0225854833 0.0134271393
-0.0273373052 0.0243348796 0.0222042371
-0.0179752968 0.0230648853 0.0073831240
-0.0165215619 0.0231156386 0.0062243054
0.0262836199 0.0240786280 0.0242501367
0.0266477726 0.0241802596 0.0235473458
0.0268761069 0.0241252016 0.0217981730
-0.0389696732 0.0250511002 0.0339486748
0.0095018223 0.0237064864 0.0113812322
0.0088833859 0.0240983628 0.0131772542
0.0102366777 0.0240437686 0.0116467262
0.0096609462 0.0218484811 0.0125421444
0.0000689962 0.0192559361 0.0037567180
0.0119474493 0.0221710596 0.0144578973
-0.0007449909 0.0239280201 0.0070239166
-0.0018870196 0.0219583157 0.0027290743
-0.0289667249 0.0228917208 0.0179172028
0.0004716293 0.0232972614 0.0063188905
-0.0131889880 0.0240732264 0.0093977908
0.0032269452 0.0227483138 0.0071124220
0.0031177960 0.0226232484 0.0061805705
-0.0104567222 0.0232469905 0.0036349010
0.0091730179 0.0232660417 0.0113656083
0.0000220278 0.0240382496 0.0104597891
0.0175412986 0.0220967550 0.0014432233
-0.0023061037 0.0233327914 0.0083670327
-0.0214294642 0.0243848991 0.0173315424
0.0006888584 0.0233411472 0.0091166804
0.0259066690 0.0240138043 0.0182685945
-0.0108870789 0.0240163058 0.0080859149
-0.0221320279 0.0219478402 0.0122401947
-0.0096419603 0.0192247406 0.0132475281
-0.0157293305 0.0233710632 0.0071925903
0.0264112093 0.0243543182 0.0251247305
0.0104633961 0.0241465848 0.0147390151
0.0266021993 0.0228266064 0.0174564812
0.0058411472 0.0223801676 0.0048062140
-0.0069581456 0.0196339786 0.0134896049
0.0155485366 0.0188614707 0.0073487544
-0.0053195916 0.0242950711 0.0175189544
0.0104381060 0.0218403973 0.0119868452
-0.0029677823 0.0222026519 0.0049936259
0.0412851311 0.0231360197 0.0255307797
-0.0268438347 0.0218582321 0.0181592721
0.0294720344 0.0238343831 0.0190729070
0.0291848164 0.0239599310 0.0202988852
-0.0178783797 0.0224952456 0.0058682123
-0.0147221908 0.0212936457 0.0037192192
-0.0093998872 0.0231647864 0.0161524136
-0.0083120801 0.0225777235 0.0129586020
-0.0080761723 0.0225967597 0.0140518406
0.0271187294 0.0243706629 0.0219127107
-0.0388223082 0.0253269952 0.0339486748
-0.0106423907 0.0227022730 0.0074299732
0.0256767366 0.0205044057 0.0139269019
0.0253091380 0.0191744659 0.0111517766
0.0263366029 0.0191902593 0.0112552354
-0.0047352612 0.0209489912 0.0031476479
-0.0264025591 0.0249281544 0.0251819883
-0.0258527771 0.0248727147 0.0262023378
-0.0258384384 0.0247811731 0.0255026761
0.0115038631 0.0220907163 0.0140934819
0.0123618385 0.0223318152 0.0150904069
-0.0160955451 0.0235986728 0.0075236792
-0.0008106976 0.0219315253 0.0029758301
-0.0198339559 0.0239002872 0.0133178094
0.0090854317 0.0202211440 0.0063679749
0.0182871372 0.0242017005 0.0150904069
-0.0259648673 0.0241619349 0.0167380739
-0.0261054002 0.0241882745 0.0175814200
-0.0078905970 0.0245341994 0.0172586534
-0.0065518282 0.0245254058 0.0172065962
-0.0060313344 0.0245178547 0.0170660336
0.0281654689 0.0233560652 0.0200099591
0.0159940924 0.0194544699 0.0071176225
-0.0258981697 0.0236060414 0.0234536398
0.0031703711 0.0231455881 0.0103192339
0.0114872437 0.0239867065 0.0148862684
0.0122402245 0.0240413845 0.0151231894
0.0428230129 0.0251455586 0.0362288505
-0.0206234641 0.0227240175 0.0115530202
-0.0105937943 0.0239314400 0.0143407667
0.0145245660 0.0240550879 0.0141857052
-0.0113669010 0.0231740754 0.0136770168
0.0354062580 0.0251120236 0.0356978476
0.0363254957 0.0251197461 0.0358748436
0.0090779047 0.0221060254 0.0148639539
0.0370376669 0.0248445105 0.0357290804
-0.0107165985 0.0222209264 0.0111547792
-0.0018890499 0.0228487384 0.0060868571
0.0393043980 0.0237326510 0.0254668985
0.0402819365 0.0238840673 0.0255327318
0.0412988812 0.0241389237 0.0256205741
0.0423038006 0.0238906834 0.0256108139
0.0012673029 0.0229691435 0.0063242475
0.0432903357 0.0238687601 0.0256380159
0.0437186733 0.0242754389 0.0257962812
-0.0258203074 0.0233240649 0.0220897067
0.0045656934 0.0226979647 0.0099912593
0.0032235403 0.0230510030 0.0124900797
-0.0157237686 0.0217151251 0.0037442085
-0.0157979205 0.0221495256 0.0040565664
0.0096022636 0.0233582258 0.0107409069
0.0271786749 0.0232830103 0.0202624593
-0.0083354786 0.0242111087 0.0168838296
-0.0087608956 0.0239053965 0.0165069196
-0.0081980787 0.0236980207 0.0167068411
-0.0274989344 0.0250026193 0.0241283197
-0.0265695862 0.0251875687 0.0252496693
0.0364947505 0.0251148101 0.0357290804
-0.0245658159 0.0251735318 0.0252965186
0.0125655662 0.0220797248 0.0134427557
0.0390111543 0.0248710159 0.0364162624
0.0130137894 0.0220793299 0.0134583721
0.0265233759 0.0246606376 0.0232662279
-0.0388302505 0.0256046262 0.0339590907
-0.0128182201 0.0235787295 0.0075392956
-0.0128124095 0.0238937866 0.0084086740
-0.0119412132 0.0241351258 0.0081952373
-0.0118079251 0.0239258707 0.0073362673
-0.0109788924 0.0239950512 0.0074143568
-0.0106116049 0.0237106085 0.0052122707
-0.0106506236 0.0238480661 0.0062118033
0.0042950548 0.0221116096 0.0032881808
0.0053423196 0.0220779628 0.0030518409
0.0057931114 0.0221439674 0.0030258086
0.0077033825 0.0222444572 0.0032288369
0.0081932433 0.0218045879 0.0033589837
0.0080501530 0.0221853796 0.0042830268
0.0254546981 0.0202814769 0.0130627239
0.0093782069 0.0245071985 0.0121621052
0.0104393587 0.0245184451 0.0125369290
0.0071604978 0.0228074547 0.0055558616
-0.0260636657 0.0252201576 0.0262648035
-0.0259392969 0.0252659936 0.0275610704
0.0055953823 0.0245815888 0.0138331959
-0.0105983801 0.0219869576 0.0103270346
0.0140891895 0.0229670964 0.0181983132
0.0188773684 0.0220088344 0.0022293043
0.0125758480 0.0205105878 0.0090229670
-0.0158804394 0.0240202416 0.0091434503
-0.0009780283 0.0239177234 0.0066803256
0.0001252667 0.0236982796 0.0065866197
-0.0263702050 0.0238051601 0.0181540642
0.0168281700 0.0221182834 0.0026822176
-0.0077739581 0.0247836113 0.0176647175
-0.0156660676 0.0224756747 0.0054309228
-0.0027978010 0.0245864280 0.0130366916
-0.0259924866 0.0249577332 0.0189870093
-0.0015847849 0.0242408849 0.0097726146
-0.0017329863 0.0238664802 0.0082733268
-0.0005742273 0.0240025781 0.0093040848
0.0001435281 0.0237837229 0.0093397880
-0.0269913897 0.0237738248 0.0223291758
-0.0267614201 0.0239132401 0.0234067831
-0.0264931358 0.0179587789 0.0104098255
-0.0244567692 0.0247489531 0.0135208452
0.0419963375 0.0250657890 0.0340423733
0.0266491137 0.0249218736 0.0237035248
0.0104622813 0.0246012229 0.0147390151
-0.0069207847 0.0196414161 0.0126150185
0.0143008512 0.0236947834 0.0150826061
-0.0108214021 0.0227292124 0.0124484384
0.0363879055 0.0248005204 0.0344484448
0.0012876486 0.0245732814 0.0131772542
0.0022883415 0.0245734211 0.0132896909
0.0356057473 0.0253019463 0.0359373242
0.0361429974 0.0254113693 0.0364162475
-0.0226436369 0.0214947592 0.0123026678
0.0033302233 0.0245663375 0.0132084945
0.0283588190 0.0236120075 0.0206737015
-0.0078730658 0.0239455532 0.0172118042
-0.0262373798 0.0254234243 0.0247967560
-0.0261732563 0.0254407395 0.0252652857
-0.0244309269 0.0254397932 0.0256088693
0.0390281640 0.0254225042 0.0365724266
-0.0164966062 0.0238508452 0.0073883319
-0.0401164666 0.0258356575 0.0323869139
0.0272614565 0.0249191169 0.0236254353
-0.0388277322 0.0258814599 0.0339486748
0.0183054972 0.0238580201 0.0132084871
0.0094867777 0.0247295648 0.0121777216
0.0113223065 0.0246622954 0.0134427557
-0.0114950314 0.0235139225 0.0055246288
0.0404779278 0.0244804434 0.0325743258
-0.0077679157 0.0224070679 0.0164960045
0.0091149379 0.0228806306 0.0138800452
0.0113746319 0.0228863079 0.0143446783
0.0119489804 0.0225535762 0.0147390151
-0.0180683210 0.0247339886 0.0113968411
0.0126596130 0.0213646479 0.0083670327
0.0316197239 0.0230844226 0.0135989347
0.0319564752 0.0231968928 0.0135937193
-0.0118192881 0.0230683554 0.0139581347
-0.0321481042 0.0241125561 0.0218918789
-0.0256429724 0.0249077696 0.0176751260
0.0104838563 0.0248223227 0.0145828361
0.0061905663 0.0240563191 0.0136123011
0.0070063621 0.0241171643 0.0135833109
