# .PCD v0.7 - Point Cloud Data file format
VERSION 0.7
FIELDS x y z
SIZE 4 4 4
TYPE F F F
COUNT 1 1 1
WIDTH 1211
HEIGHT 1
VIEWPOINT 0 0 0 1 0 0 0
POINTS 1211
DATA ascii
0.0067082183 0.0283076167 0.0126897786
-0.0087780328 0.0255330764 0.0153291617
0.0106687751 0.0279180370 0.0124477241
0.0115185678 0.0279848315 0.0123422984
-0.0393734239 0.0193247888 0.0253556687
0.0175859686 0.0261006840 0.0144902561
0.0246661548 0.0279027075 0.0116850454
-0.0201375093 0.0283178240 0.0133682732
-0.0191982556 0.0281426534 0.0133086238
-0.0122037949 0.0250451118 0.0154100005
-0.0124936374 0.0286639184 0.0139079634
0.0265358482 0.0197620839 0.0120494608
0.0128774652 0.0262172148 0.0138517339
-0.0252434891 0.0273725614 0.0118683074
0.0000308944 0.0270877033 0.0115184654
-0.0126213962 0.0230783969 0.0034722784
0.0294550247 0.0284111798 0.0159538630
0.0001182990 0.0260909460 0.0124492738
0.0002375195 0.0260223784 0.0129084308
0.0004748708 0.0260420106 0.0135209877
0.0083438894 0.0231876411 0.0131739322
0.0163764264 0.0238884650 0.0083949436
0.0039794077 0.0261451155 0.0129820574
-0.0273228940 0.0293472037 0.0241531078
0.0344331190 0.0289983079 0.0358546041
0.0098690828 0.0260560252 0.0142984036
0.0249928553 0.0202303268 0.0126741622
0.0282706749 0.0255975947 0.0233566109
0.0326091088 0.0309013352 0.0347262286
0.0333762839 0.0308287330 0.0341015272
0.0379957855 0.0309179947 0.0346949957
0.0384088568 0.0309293196 0.0347730778
0.0048010317 0.0242499262 0.0122212563
0.0131409699 0.0207894072 0.0124867503
0.0168679506 0.0212918669 0.0028100782
0.0056658094 0.0285584442 0.0128428433
0.0297472812 0.0285921693 0.0174843911
-0.0241665486 0.0260025710 0.0086239893
0.0067079873 0.0285311006 0.0126819704
0.0291306525 0.0244169384 0.0135487560
0.0096674571 0.0280509405 0.0123766381
0.0106014013 0.0284682177 0.0123722274
0.0117017161 0.0284409598 0.0121978242
-0.0180893932 0.0261028782 0.0108187962
0.0147650177 0.0268136561 0.0125179980
0.0156841241 0.0270016491 0.0124281961
0.0159585737 0.0267385617 0.0131114591
-0.0283090863 0.0271758698 0.0142749716
0.0246663000 0.0283441655 0.0116746370
-0.0123546654 0.0288838446 0.0138402823
-0.0053039338 0.0270987041 0.0136130396
0.0266824011 0.0208849795 0.0146810208
0.0002194928 0.0270495750 0.0119869951
0.0116293207 0.0199015737 0.0133092869
0.0329089202 0.0261057317 0.0354446433
-0.0099600041 0.0276229456 0.0152354557
-0.0096738236 0.0276428089 0.0154541004
-0.0126398401 0.0224608183 0.0035378658
0.0125350878 0.0233884901 0.0101128761
0.0340467505 0.0250894278 0.0363088213
-0.0033770963 0.0193242934 0.0043437281
-0.0171510037 0.0248150080 0.0059898295
-0.0163525138 0.0246915296 0.0071845748
0.0146754691 0.0272673368 0.0119120125
0.0157262664 0.0273929648 0.0119440351
0.0167208202 0.0273900703 0.0119463895
0.0105056642 0.0264822207 0.0136893112
-0.0243154783 0.0269387364 0.0098005328
0.0387336276 0.0227102637 0.0238563735
0.0016812427 0.0279122666 0.0165213067
0.0023106807 0.0283937305 0.0170471016
0.0417954959 0.0229116008 0.0238390286
-0.0188704412 0.0267589167 0.0100816432
-0.0249730702 0.0264663957 0.0129865203
0.0139548527 0.0251399353 0.0152354501
0.0343950056 0.0307859369 0.0371625833
-0.0198786240 0.0265597813 0.0124555174
-0.0196201000 0.0263781026 0.0129865203
0.0270887408 0.0263777301 0.0118932892
0.0277899485 0.0263550058 0.0120234359
0.0289693717 0.0263995975 0.0120807011
-0.0012209018 0.0242044702 0.0084886495
-0.0005603725 0.0238314718 0.0087447707
-0.0117102908 0.0223824382 0.0163599197
-0.0350948237 0.0279403292 0.0392776541
-0.0164244417 0.0290161520 0.0138236377
-0.0124387341 0.0200975314 0.0064895996
0.0285839047 0.0254431628 0.0215605889
-0.0251141991 0.0273017287 0.0136008132
0.0287809055 0.0291479677 0.0163286868
0.0137426285 0.0257744268 0.0142109487
0.0150786815 0.0259474814 0.0141734574
0.0016562013 0.0293012857 0.0167659838
0.0246663354 0.0285656080 0.0116746370
0.0256564356 0.0281247087 0.0116871316
0.0015781770 0.0238905996 0.0130802263
0.0127472775 0.0270856880 0.0117058698
0.0185159147 0.0278705731 0.0107341055
0.0189452711 0.0281821005 0.0116590206
0.0284245312 0.0286351666 0.0122056399
-0.0000362521 0.0280687138 0.0116538126
0.0277209356 0.0239292718 0.0206703860
-0.0042044721 0.0190893449 0.0045982921
-0.0271127727 0.0294824578 0.0238771979
-0.0012196650 0.0231602378 0.0033098706
0.0096017886 0.0261557400 0.0135872010
0.0321966596 0.0283069909 0.0371938162
-0.0023065764 0.0271734074 0.0113816280
0.0289724059 0.0287834853 0.0152354557
0.0293504316 0.0286714099 0.0162037406
0.0067123850 0.0288629457 0.0126429219
0.0146799972 0.0264580175 0.0136190299
0.0087648192 0.0288232677 0.0124399010
0.0096431859 0.0288313851 0.0125492159
0.0024181777 0.0279233903 0.0159850959
0.0102994125 0.0287705287 0.0123930518
0.0117427493 0.0287642144 0.0122368727
-0.0182758030 0.0270337574 0.0099567045
-0.0185210314 0.0269708261 0.0105657894
-0.0299758036 0.0279403739 0.0139548127
-0.0293041710 0.0282544494 0.0139320958
0.0246663727 0.0287871137 0.0116746370
0.0256568734 0.0287914313 0.0117058773
-0.0192181598 0.0290554836 0.0133515764
0.0334194712 0.0289943591 0.0362810604
0.0094539346 0.0248618983 0.0106282551
0.0274864584 0.0247807428 0.0208421741
0.0097035468 0.0191200413 0.0096599776
-0.0378238373 0.0240185298 0.0260636676
-0.0161838215 0.0275065973 0.0133301038
0.0297476836 0.0271864459 0.0121587906
-0.0143003659 0.0274836905 0.0133800823
-0.0131091410 0.0273681320 0.0135292355
-0.0155277150 0.0167026818 0.0064583593
-0.0242672879 0.0290880650 0.0178904478
-0.0022294275 0.0280220062 0.0094132219
-0.0013094576 0.0280123055 0.0093979407
-0.0014016511 0.0282455720 0.0103211123
-0.0003037503 0.0281277746 0.0106688682
-0.0043639089 0.0257750377 0.0134394262
0.0047401641 0.0261709914 0.0129899997
0.0088358531 0.0261182636 0.0133414660
0.0095785065 0.0265376344 0.0130802263
-0.0055066156 0.0223718733 0.0063646534
0.0333969705 0.0316717662 0.0343826525
0.0360656567 0.0316542163 0.0341640078
0.0366036221 0.0316578709 0.0341744237
0.0386636369 0.0317196175 0.0345856808
0.0395240039 0.0317812562 0.0350385867
-0.0282790940 0.0290585421 0.0137927625
-0.0272041280 0.0290181898 0.0136483032
-0.0262688342 0.0290702879 0.0135531966
0.0048128483 0.0292786770 0.0131426919
0.0166921467 0.0220268555 0.0026919120
0.0292197727 0.0288488008 0.0157664511
0.0336521156 0.0280970149 0.0364077501
0.0067112953 0.0291987136 0.0126351211
0.0077405241 0.0289541781 0.0125346649
0.0087444223 0.0291741788 0.0125570390
0.0013894817 0.0278637558 0.0158913974
0.0097229006 0.0291928276 0.0127522592
0.0120350868 0.0291053727 0.0121744070
0.0122652119 0.0290961489 0.0121119339
0.0246663466 0.0290102847 0.0116871316
0.0256572664 0.0290200934 0.0117605347
-0.0112957144 0.0261042714 0.0153071005
-0.0056362501 0.0284568407 0.0129396711
-0.0052706148 0.0279920399 0.0134960357
0.0007353841 0.0291215703 0.0135938767
0.0082740569 0.0253361613 0.0121431667
0.0097105382 0.0249370337 0.0114820171
-0.0137008922 0.0241943896 0.0042406567
-0.0310142841 0.0268486030 0.0269486625
0.0289327856 0.0293987542 0.0174063016
0.0324958898 0.0314374715 0.0304782484
-0.0005543804 0.0280158222 0.0097011346
-0.0060981563 0.0270371586 0.0133925620
-0.0043762415 0.0271401107 0.0136830602
-0.0316825211 0.0309490114 0.0218885560
0.0321738757 0.0310685448 0.0317276530
0.0326825082 0.0314284042 0.0314309187
0.0001704643 0.0267377831 0.0122056399
0.0310677104 0.0251335017 0.0207016189
0.0004054202 0.0271109790 0.0126915220
0.0057452661 0.0144446939 0.0058898875
0.0055001550 0.0264797844 0.0130073372
0.0343124382 0.0296990015 0.0360381119
0.0168436132 0.0242888965 0.0132988710
0.0291719399 0.0302014500 0.0209202636
0.0294038057 0.0296962410 0.0207328517
0.0338146724 0.0319691598 0.0345856808
0.0342103317 0.0319565311 0.0344763510
0.0348408595 0.0319804773 0.0357101522
0.0352812186 0.0319526047 0.0344138853
0.0017248826 0.0296116918 0.0137517843
0.0349208675 0.0309680887 0.0387087278
-0.0290797260 0.0290406533 0.0139191095
-0.0253908467 0.0290782005 0.0134956408
-0.0243733507 0.0290350877 0.0134981666
-0.0233476590 0.0291255005 0.0134880040
-0.0222497676 0.0291524827 0.0134654436
-0.0009292712 0.0243577361 0.0103627611
-0.0211925488 0.0290704668 0.0134531949
-0.0260451417 0.0294580571 0.0230754931
-0.0182608049 0.0290399753 0.0133671928
-0.0172862448 0.0290129110 0.0135001484
-0.0260027777 0.0274256244 0.0120182279
0.0197346210 0.0280909128 0.0119022001
-0.0299043301 0.0276458301 0.0245435480
0.0027481043 0.0150721446 0.0060772696
0.0138092702 0.0216768757 0.0133434851
-0.0238752831 0.0227572396 0.0128615815
0.0009774665 0.0280785300 0.0156370495
0.0076195565 0.0294520035 0.0129084382
-0.0275718477 0.0276823342 0.0142046902
-0.0192390587 0.0297503844 0.0133691449
-0.0182828065 0.0297347084 0.0133886654
-0.0252137240 0.0292160138 0.0188587401
0.0073508811 0.0273320451 0.0126949865
0.0126949018 0.0280975103 0.0118093286
-0.0143892104 0.0283372551 0.0144264642
0.0016804343 0.0294114575 0.0139626209
0.0026859385 0.0293346755 0.0134363119
0.0030737896 0.0294204876 0.0129552800
-0.0313505083 0.0277009904 0.0276358370
-0.0125397490 0.0284507498 0.0140485112
0.0090179471 0.0237434059 0.0117058773
0.0098979529 0.0241360106 0.0125075821
-0.0115255537 0.0288054608 0.0152354557
0.0280051865 0.0241893157 0.0225444976
0.0038157837 0.0271064974 0.0127968807
0.0045679831 0.0272348374 0.0129969362
0.0328006893 0.0302095562 0.0347485356
0.0125669222 0.0237244926 0.0116434041
-0.0243553910 0.0210818909 0.0124945659
0.0334248617 0.0303812772 0.0348824076
0.0017613644 0.0264454186 0.0186192710
-0.0006314734 0.0237797424 0.0034285435
0.0110756811 0.0270934105 0.0136229414
0.0105823567 0.0270157382 0.0125400443
0.0115706734 0.0269098841 0.0137577895
0.0125588067 0.0266770199 0.0134810749
0.0310264677 0.0272000097 0.0246268455
0.0140386978 0.0266532563 0.0122368727
0.0015633410 0.0298675857 0.0139548127
-0.0281598326 0.0296397284 0.0137778092
-0.0109155001 0.0243998840 0.0153603945
-0.0393648557 0.0241467357 0.0262274165
-0.0349046253 0.0300441198 0.0383963697
-0.0343405418 0.0301038176 0.0386774801
-0.0022415384 0.0250558555 0.0106594954
-0.0337011628 0.0305222124 0.0390679352
-0.0001344116 0.0250172727 0.0115724225
0.0302504674 0.0267684832 0.0134550501
-0.0262443181 0.0293692797 0.0233800430
0.0027346131 0.0297174715 0.0134758670
0.0178213865 0.0279284343 0.0105453599
0.0057656192 0.0290985256 0.0128490943
0.0055326005 0.0251649581 0.0135903899
0.0007439373 0.0278996117 0.0146169979
0.0296380594 0.0301924124 0.0237314347
-0.0182363000 0.0282307044 0.0133431200
-0.0393529646 0.0249827765 0.0264395270
-0.0029727719 0.0260864496 0.0109822620
-0.0172361564 0.0281613208 0.0134752337
0.0157164279 0.0288436897 0.0119973961
0.0157008059 0.0293086544 0.0121509749
-0.0320599638 0.0304478258 0.0334143601
-0.0377643742 0.0331475586 0.0341327600
-0.0182912480 0.0300814994 0.0133925769
-0.0052812467 0.0292255208 0.0127737466
0.0337025858 0.0299892426 0.0357683562
-0.0189245995 0.0266048796 0.0107688177
-0.0151644880 0.0282983072 0.0143868942
-0.0132589089 0.0279083401 0.0139062200
0.0013696054 0.0292989984 0.0148606319
-0.0309909452 0.0312824696 0.0226694364
-0.0304450225 0.0313595682 0.0223727021
-0.0134346858 0.0290217549 0.0145326573
-0.0123642059 0.0293492302 0.0137495417
0.0196302980 0.0298058912 0.0143062044
-0.0101553025 0.0277242959 0.0140172783
-0.0053119953 0.0150835551 0.0062045776
-0.0095614539 0.0289000385 0.0143140201
0.0282556750 0.0238467827 0.0228568483
0.0328186788 0.0264392719 0.0361942910
-0.0239163842 0.0255179890 0.0078014755
0.0267671235 0.0305960849 0.0202851538
-0.0262819882 0.0281691924 0.0135279167
0.0289750677 0.0308536515 0.0222009066
-0.0024090684 0.0188674051 0.0117257480
0.0014358038 0.0301032327 0.0140016619
-0.0059884521 0.0247228667 0.0115496982
-0.0048569194 0.0294187106 0.0083012376
-0.0043966952 0.0294041410 0.0082387645
-0.0043964325 0.0293046013 0.0074891173
-0.0033946703 0.0250616297 0.0122993458
0.0156689901 0.0280348584 0.0115908030
0.0089655099 0.0270839967 0.0127634127
0.0019624294 0.0300644264 0.0144358370
0.0024978039 0.0300465450 0.0142255146
0.0258150175 0.0308661610 0.0205142070
-0.0108561525 0.0225837380 0.0159538630
0.0055088387 0.0300990865 0.0142515469
0.0128187649 0.0270191357 0.0123439748
0.0010428006 0.0291261747 0.0152979288
0.0016454874 0.0292534754 0.0155745838
0.0087786512 0.0297980793 0.0130333696
0.0166788511 0.0270042792 0.0124805067
0.0176826194 0.0269946307 0.0124164838
0.0182549823 0.0270749293 0.0121431667
-0.0094295824 0.0298769586 0.0138611067
0.0166930240 0.0292471461 0.0122181345
0.0190692134 0.0301597118 0.0152354557
-0.0043021920 0.0295626074 0.0094413254
-0.0111113982 0.0285491422 0.0150792766
-0.0114829177 0.0279151276 0.0152979363
0.0075858575 0.0281263106 0.0125474129
-0.0133244703 0.0283132158 0.0142554510
-0.0123513611 0.0281559341 0.0144524891
-0.0050565596 0.0293918848 0.0097380597
0.0288760252 0.0282214768 0.0124659259
-0.0153534496 0.0279060379 0.0139509011
-0.0142210238 0.0278452896 0.0139027480
-0.0383247174 0.0337415971 0.0364754014
-0.0373905636 0.0340771079 0.0370376371
-0.0103407064 0.0280684233 0.0145066399
-0.0026711165 0.0295061693 0.0091758240
-0.0021222210 0.0286215246 0.0109249894
0.0183762219 0.0297165737 0.0136112217
0.0199471992 0.0297130495 0.0136112217
-0.0253698472 0.0300412439 0.0134646464
-0.0243830476 0.0300923549 0.0134042818
-0.0106421830 0.0241037086 0.0145482812
0.0218399782 0.0297682732 0.0140485112
0.0215625297 0.0299386270 0.0144701917
0.0119357752 0.0197886899 0.0123618189
-0.0079541700 0.0288794339 0.0130594019
-0.0083292732 0.0292145647 0.0132733230
0.0336697772 0.0259265155 0.0357179455
0.0009371570 0.0261285752 0.0155924279
0.0260587316 0.0309547856 0.0211701486
0.0253395848 0.0311101638 0.0223258529
0.0167024564 0.0280081928 0.0115427617
0.0176413991 0.0280695818 0.0114158336
0.0272605773 0.0307223946 0.0212326143
0.0176356398 0.0287606865 0.0119765718
0.0185652766 0.0293031484 0.0126652513
0.0324731879 0.0331023708 0.0370064043
0.0274923332 0.0210802890 0.0145170409
-0.0339729451 0.0297803171 0.0392553322
-0.0024024951 0.0294794887 0.0073850104
0.0039146864 0.0297301188 0.0130802263
0.0108528174 0.0228413381 0.0153202359
0.0120084295 0.0270206258 0.0124711413
0.0044506961 0.0300523490 0.0144025255
0.0292244069 0.0307591185 0.0224039350
0.0057899081 0.0298522487 0.0135539640
0.0125460150 0.0272843614 0.0098942313
0.0137080830 0.0270953067 0.0117933322
0.0259979740 0.0294185616 0.0131114591
0.0268912185 0.0294234939 0.0131426919
-0.0338455401 0.0173513535 0.0157352183
-0.0030022017 0.0270960927 0.0114997197
0.0231174417 0.0269571990 0.0121431742
0.0165542196 0.0295812488 0.0125492308
0.0178479739 0.0296548530 0.0131348912
-0.0049548871 0.0293848328 0.0064271265
0.0186523069 0.0299613737 0.0146003310
0.0188325364 0.0304089636 0.0153760109
-0.0183075648 0.0305850729 0.0137049276
-0.0182437580 0.0306419209 0.0141422246
-0.0183777306 0.0308493413 0.0156831611
0.0008351157 0.0271207802 0.0146821458
-0.0222578775 0.0306478739 0.0135643724
-0.0212605577 0.0306203663 0.0135175232
-0.0202538688 0.0305890255 0.0134394336
-0.0194386262 0.0305827186 0.0135175232
-0.0160933454 0.0284186751 0.0142984036
-0.0343082063 0.0308186486 0.0385181867
-0.0020483709 0.0296255797 0.0084990580
-0.0017385030 0.0296879001 0.0089884121
-0.0393614806 0.0339473970 0.0372473709
-0.0392266400 0.0344070159 0.0370376371
-0.0383259766 0.0343890376 0.0370688699
-0.0383899100 0.0341241062 0.0372146331
-0.0000392696 0.0260726213 0.0117440540
-0.0006903106 0.0298232809 0.0100816432
-0.0063389703 0.0290368795 0.0128370468
-0.0119061964 0.0281228647 0.0153291617
-0.0053137257 0.0288496390 0.0134081934
-0.0043925229 0.0286680236 0.0135695655
-0.0043192222 0.0291703120 0.0128582884
-0.0033659204 0.0292644463 0.0123774428
-0.0030458826 0.0288924873 0.0115871821
-0.0044512725 0.0279429406 0.0134478305
0.0037921150 0.0249814317 0.0133863259
0.0046933615 0.0254658908 0.0133238528
0.0321890227 0.0278829709 0.0370688699
-0.0233682822 0.0300786570 0.0134164561
-0.0228764471 0.0309671685 0.0141109843
-0.0013222633 0.0250357464 0.0108139310
-0.0398822762 0.0340085030 0.0371469669
0.0354699455 0.0321870297 0.0441592745
-0.0227548387 0.0313037038 0.0166410375
-0.0073167956 0.0290808454 0.0130406637
-0.0212140772 0.0313384533 0.0171408001
0.0166699104 0.0287631527 0.0120267291
-0.0141001316 0.0266477391 0.0119245220
0.0176819619 0.0292161256 0.0123461876
0.0187566932 0.0287939087 0.0119461287
0.0196986105 0.0288278759 0.0119609479
-0.0239126142 0.0248088986 0.0155790392
0.0206573866 0.0293734483 0.0127491299
0.0176830962 0.0228106789 0.0026518130
-0.0162358377 0.0264002346 0.0113935266
-0.0271736924 0.0253713354 0.0160788093
0.0036085644 0.0299564153 0.0135442931
0.0045839124 0.0297705382 0.0134316254
0.0056596329 0.0307877511 0.0159382466
0.0057845735 0.0303740092 0.0146107543
0.0124491490 0.0273016319 0.0106855202
0.0368349291 0.0313116759 0.0342733227
0.0353790335 0.0318406224 0.0356632881
0.0016325290 0.0283397622 0.0185932387
0.0352749042 0.0318389386 0.0378497504
0.0194109641 0.0301589593 0.0152354557
-0.0367313661 0.0343299396 0.0369127057
-0.0112418095 0.0291536115 0.0145817567
-0.0008686831 0.0272183381 0.0097276438
-0.0005477680 0.0271608979 0.0098942313
-0.0129419016 0.0291197151 0.0138142500
-0.0054238844 0.0295799077 0.0094569419
-0.0113168256 0.0295634717 0.0138845313
-0.0037239003 0.0258928984 0.0123618115
-0.0036175153 0.0270408802 0.0125992019
-0.0103257941 0.0301460698 0.0139015187
-0.0083096782 0.0296727493 0.0132910628
-0.0070795058 0.0297950804 0.0131947566
0.0006170614 0.0270805880 0.0135572795
0.0154857868 0.0212845802 0.0135487560
0.0014763555 0.0274626538 0.0157227237
0.0030390662 0.0271967463 0.0135799889
0.0270775501 0.0241410658 0.0252463464
0.0033977968 0.0269774571 0.0133196954
-0.0231903587 0.0307150148 0.0134148914
-0.0398545749 0.0344267860 0.0370688699
-0.0058077942 0.0286711939 0.0147356931
-0.0302943271 0.0253127888 0.0149969254
0.0165610239 0.0255612209 0.0149335209
-0.0154389907 0.0266794041 0.0120494608
0.0293958038 0.0272212178 0.0120494459
0.0294119865 0.0277269855 0.0120338444
-0.0143729905 0.0269970931 0.0126429368
0.0196503140 0.0293899328 0.0128615815
0.0166802295 0.0228102654 0.0026164153
-0.0350014381 0.0291520096 0.0389117561
0.0368425958 0.0329037607 0.0341522954
0.0376932397 0.0330231041 0.0342542492
0.0033986815 0.0280841514 0.0134550426
-0.0119912112 0.0288993567 0.0145014320
-0.0191144105 0.0264547840 0.0115028415
0.0399391539 0.0313876793 0.0351322852
0.0395199396 0.0312368795 0.0350281708
0.0067285583 0.0297728144 0.0128990579
0.0043348302 0.0303706527 0.0162037481
-0.0192187484 0.0302535444 0.0133925695
0.0087097408 0.0294260383 0.0127678756
0.0371312611 0.0316471122 0.0340702944
0.0096507352 0.0292565413 0.0132468063
-0.0271682572 0.0297021195 0.0136513803
-0.0044264062 0.0259224512 0.0126047526
-0.0367087759 0.0346057452 0.0368502252
-0.0103412801 0.0302684419 0.0141109843
-0.0095505090 0.0303850546 0.0142125059
0.0287477784 0.0253214873 0.0229817871
0.0328978412 0.0308528319 0.0335705243
0.0328347720 0.0312109329 0.0325033329
0.0335477181 0.0312997848 0.0346481465
0.0333570354 0.0310596377 0.0337891839
0.0009591175 0.0269865952 0.0156449843
-0.0041114795 0.0262141265 0.0119370166
-0.0347968601 0.0307289660 0.0381308757
-0.0208818819 0.0311466679 0.0157664511
-0.0208343659 0.0321871974 0.0198582653
-0.0202607382 0.0321538635 0.0197020937
0.0344476327 0.0310401209 0.0366003476
0.0228333697 0.0273828246 0.0150168110
-0.0208864864 0.0308402702 0.0134862829
-0.0070873587 0.0253413729 0.0129999090
0.0177644528 0.0300410166 0.0143296365
0.0201062113 0.0301239081 0.0149855707
0.0207681116 0.0299135856 0.0145586897
-0.0173789468 0.0307000801 0.0147044603
-0.0033350433 0.0295138210 0.0091695730
-0.0282836910 0.0281275585 0.0138454754
-0.0272770245 0.0281581767 0.0137385596
0.0176145751 0.0264263749 0.0133925769
-0.0193879101 0.0266652182 0.0112998206
0.0112278536 0.0276766419 0.0132988710
-0.0170239005 0.0257097781 0.0098942313
0.0136696082 0.0280226804 0.0117157344
0.0146858981 0.0280010700 0.0115882847
-0.0262747016 0.0290403627 0.0185567979
-0.0183969010 0.0303975791 0.0134394336
-0.0241040271 0.0291736498 0.0186713282
0.0078841569 0.0299857967 0.0137852449
0.0015845621 0.0286025330 0.0188118909
0.0226657074 0.0281740949 0.0118139926
0.0237168018 0.0281833485 0.0117175896
-0.0208113063 0.0285158716 0.0134238098
-0.0128796445 0.0253007263 0.0147981588
-0.0040615662 0.0301535465 0.0074266517
-0.0365350731 0.0348777100 0.0367877595
-0.0102927508 0.0294387266 0.0137986485
0.0354656093 0.0330146104 0.0340494625
-0.0327506252 0.0318899378 0.0251370165
0.0022886922 0.0292471796 0.0154384840
0.0032967948 0.0289800353 0.0133613441
0.0325899534 0.0311297178 0.0343826525
0.0337444283 0.0318227932 0.0355695896
0.0078572100 0.0294847712 0.0131739322
0.0003003279 0.0306723565 0.0114872251
-0.0033277082 0.0296122655 0.0115934331
0.0255668387 0.0300084129 0.0176301561
-0.0002464516 0.0194427930 0.0039996975
0.0266184565 0.0280906186 0.0117181186
-0.0211279336 0.0316691399 0.0178201664
-0.0214758459 0.0324089527 0.0203446466
0.0096621765 0.0300268121 0.0145596433
0.0001190813 0.0281012431 0.0123680551
0.0002597707 0.0280300528 0.0127366427
0.0073963930 0.0219683275 0.0028707781
-0.0377246775 0.0340932049 0.0371001177
-0.0373728983 0.0343549401 0.0369855873
0.0063062781 0.0319835730 0.0211076755
0.0075676781 0.0302172899 0.0145215131
0.0085380943 0.0300809741 0.0133256335
-0.0041015907 0.0298793837 0.0065609911
-0.0040828711 0.0303247161 0.0071143010
-0.0044421046 0.0266248211 0.0128615741
-0.0122264856 0.0298681557 0.0136815105
-0.0112891430 0.0301103890 0.0138465110
-0.0322905518 0.0310128406 0.0222946126
-0.0206102449 0.0309771821 0.0145482812
0.0360656083 0.0328594893 0.0341015272
0.0101386607 0.0305623636 0.0129240472
0.0289438963 0.0304871611 0.0212638546
0.0049261679 0.0295022242 0.0131322909
0.0323325321 0.0324948281 0.0345075838
0.0066930414 0.0294355974 0.0127288271
0.0348588228 0.0321864262 0.0341483913
0.0356877260 0.0321937837 0.0339907669
-0.0028447933 0.0297028944 0.0123305786
-0.0055441088 0.0287218057 0.0142203066
0.0030527585 0.0258290321 0.0146732200
-0.0186449979 0.0313462391 0.0175780971
0.0047162366 0.0259033330 0.0131895486
-0.0235097129 0.0312447138 0.0160788093
-0.0016134655 0.0272036642 0.0111904982
-0.0074261068 0.0296319164 0.0130698103
0.0338875689 0.0310692638 0.0357153527
0.0347178541 0.0319919586 0.0365222655
-0.0014793345 0.0299022198 0.0057295361
0.0337271504 0.0333126485 0.0338724814
0.0002331795 0.0290447474 0.0118464325
-0.0052202395 0.0297426097 0.0128381494
-0.0040935180 0.0296611227 0.0118932892
0.0386742614 0.0313286856 0.0347067229
0.0020976369 0.0304860547 0.0151885990
-0.0253641102 0.0280588083 0.0135383327
0.0066756052 0.0303271264 0.0143192131
0.0077736513 0.0306478851 0.0150480438
-0.0152990716 0.0262749717 0.0113997776
0.0236832388 0.0290022939 0.0117563251
0.0233252347 0.0293813758 0.0128303412
-0.0201953556 0.0290764198 0.0133750010
-0.0143747674 0.0300545767 0.0135383327
-0.0134025523 0.0298919715 0.0136736948
-0.0241744798 0.0318578631 0.0176593158
-0.0220847670 0.0320354626 0.0185776241
-0.0001764497 0.0308199301 0.0106647033
-0.0198693592 0.0324304067 0.0199832115
0.0227590688 0.0294367559 0.0132520143
0.0058352561 0.0294920243 0.0131114591
0.0004737178 0.0279220566 0.0134550501
0.0036732969 0.0260519236 0.0134862829
-0.0159815978 0.0289022289 0.0144889299
0.0318076238 0.0310870707 0.0297910664
0.0016310947 0.0324573293 0.0207328517
-0.0152763659 0.0291071907 0.0146806557
-0.0322680697 0.0357966498 0.0379512720
-0.0211441908 0.0327155739 0.0212326217
-0.0206260365 0.0326221995 0.0212326143
-0.0398128517 0.0349824205 0.0369543545
-0.0044872942 0.0294337571 0.0063125961
-0.0028398628 0.0293811001 0.0066145384
-0.0129976990 0.0253544971 0.0102534387
0.0386626087 0.0322562382 0.0345492475
0.0395209901 0.0321827158 0.0349917375
-0.0101477401 0.0200420618 0.0135175157
0.0137369027 0.0288266614 0.0119585861
0.0147304172 0.0288342834 0.0118911956
0.0017258400 0.0308490135 0.0152823050
0.0041359072 0.0305794701 0.0160163362
0.0049547614 0.0310303308 0.0159694795
0.0054279943 0.0312481783 0.0169950370
0.0310267843 0.0278186277 0.0246060211
0.0243359040 0.0292363800 0.0117214937
-0.0111596072 0.0310662799 0.0138116498
-0.0234101694 0.0317197889 0.0178357828
-0.0237482544 0.0320737287 0.0185932461
-0.0003613451 0.0312028453 0.0104876999
-0.0000121439 0.0310906582 0.0115184654
0.0267041847 0.0288597159 0.0117995758
0.0016156348 0.0327096656 0.0207953248
-0.0325512886 0.0360812843 0.0378965996
-0.0320601314 0.0361064523 0.0381464921
0.0338610038 0.0320706069 0.0332894139
-0.0214874391 0.0329079404 0.0207953323
-0.0199992675 0.0327231959 0.0202955622
-0.0014594657 0.0307405405 0.0058336505
0.0019308614 0.0312884524 0.0176093299
0.0021239505 0.0309255868 0.0167035107
0.0025939704 0.0308044851 0.0167035107
0.0037484043 0.0309231430 0.0167972166
-0.0126557322 0.0257412642 0.0108781401
-0.0263661724 0.0297475532 0.0135565642
-0.0041570715 0.0304682069 0.0066145384
-0.0264535006 0.0331121087 0.0238251407
0.0095994184 0.0306542814 0.0131505076
0.0097035887 0.0220885500 0.0154872853
0.0299606100 0.0301803984 0.0241218749
-0.0003563644 0.0314197317 0.0104564670
0.0001186045 0.0315950587 0.0131739322
0.0003200365 0.0317960493 0.0137752090
-0.0363381766 0.0352830626 0.0366680138
-0.0103015350 0.0289871022 0.0145274643
0.0324128307 0.0337709635 0.0358819328
-0.0251166318 0.0339535922 0.0263239611
0.0262369327 0.0298590697 0.0147356931
-0.0000849137 0.0315242782 0.0111748744
-0.0191581007 0.0322835594 0.0194756333
-0.0176078510 0.0311406106 0.0162037481
0.0015871847 0.0329719037 0.0209202636
-0.0296080243 0.0310325809 0.0209202636
0.0337216668 0.0321483910 0.0325345509
-0.0036522779 0.0301080681 0.0071455338
0.0318989195 0.0334408581 0.0364754163
0.0339238383 0.0335294604 0.0341327600
-0.0173519831 0.0299563520 0.0134530831
-0.0198590551 0.0326395184 0.0180466268
0.0059330673 0.0327719599 0.0182965044
0.0001406024 0.0316623636 0.0121119339
0.0347014070 0.0323235728 0.0338308327
0.0322075672 0.0336704776 0.0371313505
0.0399485826 0.0318032727 0.0351947658
-0.0174212027 0.0266941302 0.0109999571
0.0349678062 0.0313214436 0.0393334292
-0.0164191816 0.0266735405 0.0118464325
0.0019268455 0.0314504318 0.0187650342
0.0027716164 0.0312516280 0.0185359735
-0.0132567482 0.0269378163 0.0126628149
0.0260157026 0.0299542323 0.0154541004
-0.0191439297 0.0313980915 0.0178904478
0.0335318558 0.0250185579 0.0353613459
-0.0271329861 0.0293532833 0.0219510291
0.0327196941 0.0279935598 0.0367773436
-0.0003721708 0.0316495150 0.0105085243
0.0000440037 0.0317493230 0.0115653146
-0.0178782400 0.0311542153 0.0162662137
0.0327155106 0.0318154916 0.0308608804
0.0334389172 0.0321557187 0.0319228731
-0.0327228531 0.0366600975 0.0379122309
-0.0322997347 0.0367111191 0.0383182727
-0.0315010175 0.0367283598 0.0385577641
0.0022078571 0.0307178758 0.0152042229
0.0381880030 0.0348396860 0.0337267034
0.0088253571 0.0253821984 0.0114716087
0.0314084552 0.0332090631 0.0348043256
-0.0382284634 0.0360883847 0.0365847312
-0.0362596102 0.0361034498 0.0364545994
0.0096772229 0.0301589258 0.0138038415
-0.0005785519 0.0317245387 0.0095402319
0.0061148261 0.0227689855 -0.0011005676
-0.0122894319 0.0251892805 0.0103627611
0.0102657648 0.0319892541 0.0119557548
0.0086943088 0.0249801241 0.0106803123
-0.0238714870 0.0321964920 0.0185776297
-0.0183898378 0.0269038714 0.0119022075
0.0085836304 0.0318220854 0.0132259894
-0.0188764017 0.0311777778 0.0162974540
-0.0115390429 0.0323790461 0.0126741696
-0.0102818729 0.0311085060 0.0135331247
-0.0094739432 0.0311045945 0.0137894396
0.0328938402 0.0322470143 0.0316261388
-0.0001565100 0.0318718143 0.0105293561
0.0001115898 0.0319826156 0.0112685803
0.0003264310 0.0320595950 0.0117839668
-0.0044798939 0.0297396369 0.0124555174
-0.0184086282 0.0317218080 0.0180153865
-0.0170955192 0.0321540013 0.0167347435
0.0048250877 0.0270640589 0.0133301038
-0.0086042294 0.0271057673 0.0153229181
-0.0327301435 0.0369466804 0.0379122309
-0.0317730568 0.0370094553 0.0384744667
0.0381879769 0.0353745893 0.0336954705
-0.0193537865 0.0311408788 0.0159538630
0.0068642483 0.0308363847 0.0163599197
-0.0134462724 0.0296372399 0.0142046902
0.0037758988 0.0290799737 0.0129699949
-0.0001046559 0.0298956260 0.0114924330
0.0003623484 0.0302884132 0.0116246659
-0.0145186679 0.0296758115 0.0156206805
0.0149670849 0.0219732672 0.0119557548
-0.0330944620 0.0315181911 0.0241687316
0.0395145230 0.0325799063 0.0349136554
0.0203568749 0.0266252197 0.0121275503
0.0316753611 0.0262185186 0.0275421310
0.0349941738 0.0318301320 0.0377872847
0.0020043426 0.0318124369 0.0155634228
0.0256561618 0.0271355696 0.0117468704
-0.0353048258 0.0360901468 0.0365289561
0.0164167620 0.0214457177 0.0033348375
0.0172659289 0.0214154869 0.0028663077
0.0027078805 0.0310816616 0.0178748313
-0.0278946739 0.0257619061 0.0192023311
0.0033345190 0.0316930711 0.0188899729
-0.0062894127 0.0252094418 0.0128956679
0.0000462426 0.0321025476 0.0106022302
0.0005118592 0.0322320387 0.0114664081
-0.0327237025 0.0372282043 0.0378809981
0.0343584009 0.0322739556 0.0327896439
0.0019499814 0.0320472792 0.0163599197
0.0255705230 0.0303809233 0.0186713282
-0.0051347944 0.0296296999 0.0115496982
0.0292231552 0.0337943286 0.0296505112
0.0206933580 0.0288228281 0.0119349156
0.0004149048 0.0291446634 0.0127338041
-0.0363121517 0.0369192436 0.0361982100
-0.0115541266 0.0314467028 0.0141422246
0.0262992159 0.0309591964 0.0212013815
-0.0003332099 0.0302027017 0.0096703786
-0.0062881908 0.0288903713 0.0131739322
-0.0203877185 0.0312164165 0.0163599197
-0.0368153118 0.0333879963 0.0340078287
0.0087745627 0.0326029286 0.0129240472
0.0323791355 0.0361163802 0.0351322852
0.0337450318 0.0358161405 0.0341907851
0.0345775485 0.0359100848 0.0341265313
0.0293376483 0.0244924165 0.0131114591
-0.0282605831 0.0257002935 0.0188795645
0.0127426460 0.0233480521 0.0095922891
0.0000230322 0.0323381983 0.0106855277
0.0347448625 0.0331378952 0.0340078138
-0.0168015193 0.0318042450 0.0159851033
-0.0325944833 0.0375164263 0.0379122160
0.0336879604 0.0327190161 0.0326490961
-0.0320751444 0.0375868529 0.0384432189
0.0010049572 0.0291343108 0.0144311506
0.0226818025 0.0288077705 0.0118328948
-0.0355889015 0.0352661684 0.0366784297
-0.0242430549 0.0315671787 0.0165785719
0.0311999321 0.0328612737 0.0332581811
-0.0308691282 0.0347929820 0.0331332348
0.0047794324 0.0309657529 0.0164053459
-0.0393128581 0.0360547453 0.0367252789
0.0001400659 0.0290953107 0.0122368727
-0.0261308197 0.0270046368 0.0159538630
0.0099053867 0.0328116938 0.0128719974
-0.0119100707 0.0315017402 0.0144858081
-0.0362852253 0.0373320356 0.0361162089
-0.0352984853 0.0370459855 0.0362741314
0.0336745530 0.0362523049 0.0342577063
0.0203618091 0.0271664709 0.0120025966
0.0348677747 0.0356859453 0.0340702944
0.0356105566 0.0362061411 0.0342514627
-0.0373010896 0.0350401960 0.0367981605
-0.0013219354 0.0298117697 0.0099410880
-0.0111940848 0.0321487412 0.0135271195
-0.0102130631 0.0319840312 0.0132477526
-0.0093424665 0.0320343859 0.0135046486
0.0328522213 0.0326931477 0.0319931470
-0.0002244742 0.0325772204 0.0107688177
0.0000057245 0.0326445252 0.0112061147
0.0338979624 0.0291445330 0.0359652303
-0.0325606577 0.0377873853 0.0378185175
-0.0321444087 0.0378439277 0.0382401906
-0.0115710022 0.0317984298 0.0141734574
-0.0012366859 0.0300413966 0.0065568709
0.0099247815 0.0319990218 0.0120026115
-0.0205886755 0.0308549628 0.0136424545
0.0227340665 0.0298058614 0.0143374447
0.0232990608 0.0298003592 0.0142983962
-0.0001920605 0.0291444808 0.0113963727
0.0009196723 0.0300636217 0.0135585014
0.0087109646 0.0260607600 0.0127491299
-0.0126810158 0.0261124894 0.0112529639
0.0296596736 0.0308817327 0.0242728312
0.0393104628 0.0343761072 0.0341952406
0.0354030579 0.0358188376 0.0340390615
0.0296523273 0.0251180902 0.0126099680
0.0293404292 0.0247213915 0.0131739322
-0.0211826209 0.0284520648 0.0148606319
-0.0215008873 0.0283058956 0.0156102795
-0.0162778813 0.0191539153 0.0048396536
-0.0110414149 0.0331533030 0.0118620489
-0.0002197878 0.0327947512 0.0107375849
-0.0000651641 0.0329148322 0.0114872251
-0.0022666003 0.0296918899 0.0122993458
-0.0121621378 0.0243907124 0.0068175667
-0.0016709225 0.0294477753 0.0122056399
0.0007977510 0.0295623280 0.0132988710
-0.0166295003 0.0307946056 0.0146419872
-0.0013009416 0.0291900486 0.0115379859
-0.0007446328 0.0308894664 0.0087072942
-0.0152567932 0.0296732225 0.0142515469
-0.0143424096 0.0298005044 0.0145973656
0.0000769800 0.0313957706 0.0133613441
0.0149212582 0.0293161385 0.0121848155
0.0019143006 0.0319599733 0.0198231284
-0.0014724483 0.0297149569 0.0114143435
-0.0392840616 0.0370290205 0.0363843255
-0.0003931070 0.0289708599 0.0108057428
0.0345797427 0.0301249288 0.0365795307
-0.0119324895 0.0318570510 0.0145326648
-0.0358383395 0.0377434716 0.0361005776
-0.0352567919 0.0377342105 0.0361422263
0.0032539950 0.0262965634 0.0147981588
0.0217743199 0.0281995386 0.0118932817
-0.0372640155 0.0361731872 0.0364754163
-0.0103109712 0.0322697572 0.0128537659
-0.0025228481 0.0297620930 0.0111124087
0.0046556429 0.0281031281 0.0128338356
-0.0333497562 0.0379546508 0.0367877446
-0.0065503768 0.0269978717 0.0129670072
-0.0269136559 0.0294255875 0.0226382036
0.0216974728 0.0303461552 0.0149543379
-0.0167576205 0.0306010433 0.0140485186
-0.0024645156 0.0289288163 0.0115731154
-0.0004540229 0.0321643129 0.0095506404
-0.0007243598 0.0321742222 0.0077702352
-0.0005862372 0.0310618877 0.0095162783
-0.0308788102 0.0356509909 0.0371625833
0.0006369042 0.0310600922 0.0136595014
0.0003768174 0.0324605182 0.0074110352
0.0327957980 0.0298352391 0.0356684886
-0.0000608222 0.0298152640 0.0125726555
-0.0024812012 0.0299998336 0.0064919987
-0.0176014062 0.0319025777 0.0174219254
0.0108638667 0.0240628868 0.0144675914
0.0119905854 0.0279107653 0.0118683074
-0.0185148697 0.0263760462 0.0117183644
0.0340464972 0.0302510299 0.0361005776
0.0020630197 0.0315191299 0.0192647967
0.0352593809 0.0343268737 0.0340078287
0.0002056366 0.0303758495 0.0109562296
-0.0349639840 0.0381505340 0.0361318253
-0.0343134217 0.0378861651 0.0363634937
0.0142673077 0.0218383446 0.0062709474
-0.0314873122 0.0291110352 0.0381933413
-0.0220717099 0.0317084268 0.0179633219
-0.0010081840 0.0331025198 0.0098473821
0.0341225080 0.0341275632 0.0340624861
0.0347256288 0.0340621918 0.0340598784
-0.0315211415 0.0313608982 0.0232004393
0.0038790931 0.0279830173 0.0128700975
0.0116732949 0.0252104588 0.0145795215
0.0309509598 0.0361755639 0.0360202603
0.0317762867 0.0360301137 0.0358283930
0.0307989568 0.0357219465 0.0361318253
-0.0333169289 0.0384950265 0.0367721282
0.0062825386 0.0318319499 0.0183798019
0.0213472117 0.0303829387 0.0152198393
0.0327438191 0.0350682326 0.0345075987
0.0290560927 0.0253493302 0.0135175157
-0.0394219495 0.0385842770 0.0362567566
0.0003340697 0.0319530368 0.0125596393
0.0336231627 0.0340328701 0.0341210626
-0.0071453503 0.0260540545 0.0128392745
-0.0007882559 0.0279114395 0.0088010002
-0.0066358610 0.0260867402 0.0129006226
0.0314823203 0.0365484506 0.0361318253
0.0316551477 0.0350720547 0.0356008224
-0.0042270957 0.0302400701 0.0050371536
0.0035970532 0.0234396160 0.0073954114
0.0384096950 0.0331405401 0.0343435965
0.0090020606 0.0313660875 0.0129709039
0.0060455450 0.0323933177 0.0178904478
0.0064272606 0.0322917886 0.0175000075
-0.0042901128 0.0299137607 0.0054304474
-0.0028952635 0.0298325457 0.0060210624
-0.0247205701 0.0264279880 0.0114247594
-0.0392514281 0.0380246602 0.0361999832
-0.0325790420 0.0363750160 0.0379434489
-0.0343020521 0.0384446084 0.0363036208
0.0216869973 0.0288195536 0.0119193066
0.0222097784 0.0293943435 0.0129240472
0.0302404575 0.0260764174 0.0132738743
-0.0203282703 0.0316794701 0.0180154014
0.0289834663 0.0338843241 0.0302595962
-0.0113088796 0.0328428000 0.0127444509
-0.0104856724 0.0328122303 0.0126481298
-0.0094323279 0.0330616385 0.0133421067
0.0183536895 0.0274002627 0.0117475260
-0.0126523385 0.0341251269 0.0134029854
0.0314099826 0.0274610668 0.0272610132
0.0010978641 0.0322487056 0.0049122148
0.0006276766 0.0322896093 0.0063958862
-0.0323151574 0.0371438339 0.0383286886
0.0007726277 0.0319716930 0.0144753996
0.0337022133 0.0350446403 0.0341255479
-0.0004894020 0.0240517631 0.0116924811
-0.0096796611 0.0351716131 0.0185463894
0.0277511030 0.0280344263 0.0118417460
0.0316307731 0.0368616544 0.0363608710
0.0162311606 0.0216370150 0.0031474256
-0.0309145357 0.0391165689 0.0391616337
0.0088391686 0.0309243426 0.0133868922
-0.0044072936 0.0317642987 0.0066561871
-0.0021922472 0.0276723430 0.0103783775
0.0290560685 0.0250671729 0.0145638976
0.0347285382 0.0350053087 0.0340442471
0.0286363382 0.0279376768 0.0119494963
-0.0191636365 0.0319315195 0.0186088625
-0.0182958152 0.0319220498 0.0183152501
0.0321737193 0.0299016833 0.0366940461
-0.0313332826 0.0388706736 0.0385855101
0.0015724270 0.0303863287 0.0144155268
0.0039295391 0.0304028615 0.0147044528
0.0018155916 0.0326711647 0.0049798959
-0.0373664163 0.0370876752 0.0361838900
-0.0194951277 0.0320480391 0.0176718030
-0.0112359719 0.0326745585 0.0131426994
0.0124180513 0.0276218280 0.0109249968
-0.0240053739 0.0327813812 0.0218573231
-0.0234122928 0.0331945866 0.0225028414
-0.0032536681 0.0300132744 0.0065138959
-0.0032087709 0.0292818770 0.0054510185
-0.0097591924 0.0347167626 0.0172657464
0.0345913358 0.0329902247 0.0341171436
-0.0109093422 0.0356991105 0.0200769175
0.0006828742 0.0323196724 0.0053026550
0.0008869717 0.0326143727 0.0070830607
-0.0109659107 0.0340683013 0.0105814133
0.0028050062 0.0290285796 0.0146315731
0.0000860716 0.0249651894 0.0123852435
-0.0000725047 0.0326902382 0.0074578845
0.0069080186 0.0299773403 0.0134238172
-0.0099676782 0.0355741084 0.0194522087
-0.0321149714 0.0318176672 0.0246841107
-0.0253878850 0.0328339450 0.0220134947
0.0177177247 0.0273831114 0.0119088981
0.0388030596 0.0338958465 0.0342639498
-0.0096530514 0.0346808732 0.0142983962
-0.0273305681 0.0336673409 0.0257929582
-0.0202174578 0.0300023928 0.0133828092
-0.0268392358 0.0287804417 0.0190461520
-0.0048805377 0.0316850170 0.0067863264
-0.0228685308 0.0289624184 0.0170158613
-0.0182590131 0.0200967528 0.0048698359
-0.0265945625 0.0343979374 0.0291663650
-0.0044007110 0.0315480009 0.0066457712
0.0346109681 0.0362463221 0.0341952406
-0.0014860661 0.0305450335 0.0059429803
-0.0013155726 0.0310616903 0.0065634199
-0.0382224433 0.0392766073 0.0371938162
-0.0324170887 0.0388989300 0.0376279913
-0.0319906250 0.0389769636 0.0381621085
-0.0314450003 0.0393282548 0.0386228375
0.0352618545 0.0350009799 0.0340000205
0.0066655097 0.0306232870 0.0148085691
0.0026037381 0.0315555260 0.0195615310
-0.0212000888 0.0300254337 0.0134081859
-0.0121513614 0.0270744860 0.0152719039
0.0018027691 0.0328891091 0.0050215372
-0.0193157960 0.0326466151 0.0198582653
0.0341931656 0.0348718166 0.0340702944
-0.0112233991 0.0359824374 0.0202643219
-0.0425995253 0.0415623374 0.0481886081
-0.0383768715 0.0370357074 0.0363391303
-0.0002376618 0.0300403759 0.0105359722
-0.0097430693 0.0335100740 0.0114247594
0.0206303094 0.0280892700 0.0119171608
0.0216645077 0.0293500498 0.0125804637
0.0017305004 0.0256834961 0.0154728461
0.0097779697 0.0311102867 0.0125457663
0.0310859084 0.0368633270 0.0363817029
-0.0091798352 0.0307157189 0.0141422246
-0.0172770265 0.0311047696 0.0159851033
-0.0113833444 0.0362086147 0.0215449724
0.0189552065 0.0207268819 0.0032333233
-0.0015865018 0.0310241133 0.0057337009
-0.0002862675 0.0324725881 0.0101128761
0.0006319998 0.0323717520 0.0109458137
-0.0197719429 0.0326966830 0.0184526835
0.0029091262 0.0278944597 0.0147356931
0.0031555840 0.0282734744 0.0140797514
-0.0099027315 0.0341660306 0.0132832471
0.0108855814 0.0251795836 0.0142697711
-0.0092897350 0.0342097655 0.0142983962
-0.0321428217 0.0396097451 0.0384744667
-0.0314969756 0.0396354869 0.0387243442
0.0016869704 0.0310235210 0.0144727994
0.0023272210 0.0310958698 0.0146211628
0.0307084024 0.0339944921 0.0364413373
-0.0172268879 0.0270052180 0.0115617011
-0.0316978879 0.0401499718 0.0416916870
-0.0373342596 0.0380627289 0.0360563509
0.0004134221 0.0321743973 0.0135175157
-0.0397968255 0.0374379940 0.0361630581
0.0002208954 0.0251581818 0.0120494608
0.0348292291 0.0318793617 0.0393178128
-0.0058950852 0.0284249559 0.0126429293
0.0026064557 0.0259303115 0.0157143939
0.0029947632 0.0300440677 0.0136736948
0.0235325489 0.0297339484 0.0137986336
-0.0400348343 0.0380842388 0.0362317823
-0.0011490354 0.0297680013 0.0107271690
-0.0103726881 0.0358411893 0.0195459146
0.0097522745 0.0319275744 0.0124242920
-0.0316415727 0.0402915552 0.0408171080
0.0288955476 0.0256160349 0.0131739322
-0.0345159657 0.0282258652 0.0397082530
-0.0317802802 0.0372970179 0.0384744667
-0.0359786339 0.0397928655 0.0372406654
-0.0323870294 0.0399386995 0.0386696868
0.0102463532 0.0322328135 0.0120807011
-0.0334294401 0.0390424691 0.0367877446
0.0266076960 0.0293762982 0.0127834920
-0.0350089706 0.0281573124 0.0380371623
-0.0351213627 0.0282394327 0.0389429890
-0.0023619900 0.0295112096 0.0064427354
-0.0382946692 0.0381070562 0.0361604802
0.0310410447 0.0334543660 0.0356008224
-0.0005971187 0.0301702693 0.0086385775
0.0147605138 0.0237158239 0.0075203576
-0.0221746322 0.0325221941 0.0202955548
-0.0040098629 0.0280614868 0.0128178541
0.0126204854 0.0255043954 0.0145951454
0.0298802182 0.0292121395 0.0207016189
0.0000825530 0.0312309563 0.0126195047
0.0033672885 0.0314322971 0.0187338013
0.0096857622 0.0270550326 0.0123746563
-0.0111187706 0.0343125686 0.0106751118
0.0323871151 0.0364095271 0.0352572314
-0.0058548166 0.0296770744 0.0101441164
-0.0108946087 0.0333061442 0.0114247594
-0.0104324417 0.0331509560 0.0116402823
-0.0027489229 0.0294434689 0.0055212998
-0.0325079374 0.0382214189 0.0375582241
-0.0319917463 0.0382660404 0.0382089578
-0.0314607024 0.0381311998 0.0385085158
-0.0328416452 0.0323202983 0.0264488999
-0.0396252312 0.0405345112 0.0426599793
0.0377062745 0.0358342975 0.0337735675
0.0017825408 0.0317426398 0.0182965044
0.0030089081 0.0317583829 0.0193272699
-0.0094018402 0.0340292864 0.0134831462
-0.0010242512 0.0299009345 0.0084886495
0.0321527570 0.0367897786 0.0359131657
-0.0349576958 0.0384293087 0.0361005776
0.0006181175 0.0327697396 0.0086448211
-0.0195322130 0.0327764824 0.0207328517
0.0371666960 0.0362595655 0.0341952406
-0.0339731984 0.0415682346 0.0478137992
-0.0334001891 0.0410144776 0.0464706831
0.0287770499 0.0272970237 0.0119898189
0.0310645364 0.0343414247 0.0360693447
-0.0383234434 0.0388232395 0.0361734740
0.0004929049 0.0307514668 0.0125908796
-0.0373574086 0.0387755968 0.0360589437
-0.0363346227 0.0380720571 0.0360381268
-0.0220894571 0.0329211205 0.0207953174
-0.0321217328 0.0364129543 0.0382714234
0.0026151747 0.0270743519 0.0156290103
0.0037306962 0.0315737575 0.0180778597
-0.0318701155 0.0313884318 0.0233566109
-0.0023154072 0.0297238268 0.0108437706
0.0286166575 0.0257826187 0.0149387214
-0.0099773826 0.0346091911 0.0138454828
-0.0119764851 0.0332919136 0.0112061147
0.0323947184 0.0337320752 0.0406296812
-0.0241574813 0.0289938189 0.0170783345
-0.0234590527 0.0322737731 0.0194938499
0.0296878107 0.0295972228 0.0218885560
0.0199218728 0.0271636732 0.0119713638
-0.0102914544 0.0334503427 0.0109999571
-0.0007783523 0.0301627256 0.0078014755
0.0024570213 0.0318992510 0.0202799384
-0.0143900672 0.0289374739 0.0148606244
-0.0374204107 0.0397949927 0.0386931114
0.0074651451 0.0177555997 0.0050683939
0.0377033614 0.0312917754 0.0344451182
-0.0063943355 0.0296645686 0.0128459577
-0.0363628678 0.0388666168 0.0360470228
-0.0359492488 0.0392761342 0.0364545844
-0.0353819691 0.0382914245 0.0360537283
0.0315659679 0.0334080458 0.0352572314
-0.0186945554 0.0324424207 0.0202330891
-0.0115306051 0.0346411094 0.0125179905
-0.0248600896 0.0329932794 0.0232316721
0.0323986113 0.0367135927 0.0354446433
-0.0098809013 0.0339153334 0.0113997627
-0.0214020144 0.0309351273 0.0141109843
-0.0014174482 0.0287091434 0.0108000506
-0.0310358088 0.0395149663 0.0397863351
-0.0382469110 0.0350735597 0.0368684344
0.0289707705 0.0297737867 0.0185151491
0.0328323431 0.0360023081 0.0345794372
-0.0246588495 0.0281808116 0.0135050211
-0.0100504654 0.0336635448 0.0109562296
-0.0332413428 0.0361043885 0.0375530235
-0.0393082611 0.0389473438 0.0363114141
-0.0373335443 0.0391008519 0.0363036059
-0.0392308421 0.0351374000 0.0369102769
0.0367377065 0.0321938097 0.0341431908
-0.0102077136 0.0352812707 0.0186609048
-0.0324718356 0.0407799892 0.0435033254
-0.0340108313 0.0361144319 0.0372354798
-0.0326214917 0.0395156071 0.0378497504
0.0310091190 0.0330874100 0.0349136405
0.0056306706 0.0236402974 0.0074016624
0.0206269100 0.0302304700 0.0152146388
-0.0009865978 0.0310331881 0.0075686225
-0.0012304609 0.0318700448 0.0077771791
-0.0335862897 0.0371436104 0.0369305424
0.0325504951 0.0323795006 0.0336330049
0.0326719210 0.0331991687 0.0356945209
0.0324827805 0.0333995186 0.0371625833
0.0327645466 0.0366019309 0.0347574614
-0.0221097562 0.0321558826 0.0194418002
-0.0143441381 0.0293317176 0.0153782386
-0.0259304103 0.0335333124 0.0250745509
-0.0137767242 0.0292939208 0.0151417498
-0.0275149252 0.0221440420 0.0166254286
0.0320957527 0.0347293280 0.0349761210
0.0316778049 0.0338958427 0.0363941900
-0.0018867155 0.0298855230 0.0057399520
0.0058990256 0.0319114774 0.0184392948
-0.0065487190 0.0224031359 0.0035743066
-0.0013408208 0.0320204794 0.0085684750
0.0328685232 0.0329931453 0.0322430395
0.0393016525 0.0351692140 0.0340702944
-0.0313011110 0.0316937864 0.0238563735
0.0376911461 0.0320813693 0.0342811458
0.0026433361 0.0305026695 0.0153499860
0.0273653604 0.0287505202 0.0118073914
-0.0337877609 0.0283157416 0.0400362276
0.0098012099 0.0250382572 0.0123742986
0.0121422447 0.0250225738 0.0151261333
0.0327305943 0.0340791196 0.0345172249
0.0039272443 0.0311198458 0.0173828769
0.0057934583 0.0313563496 0.0176717956
0.0067991358 0.0310982428 0.0176822189
-0.0022000778 0.0307207145 0.0065832981
0.0119505618 0.0273483172 0.0117371101
0.0326111577 0.0330553576 0.0346481465
0.0004634863 0.0301127546 0.0126491729
0.0329735316 0.0334995463 0.0339453481
-0.0334643535 0.0302115604 0.0394365154
-0.0329514705 0.0392787233 0.0372484885
0.0266472753 0.0272509456 0.0117829163
0.0255745873 0.0307986252 0.0200144444
-0.0016815247 0.0296768248 0.0122368727
0.0049403128 0.0303419456 0.0154541079
-0.0307036284 0.0364615545 0.0388180427
0.0004584460 0.0328485593 0.0097692925
0.0003949987 0.0326043144 0.0109874625
0.0063206539 0.0327398926 0.0181090925
0.0107605541 0.0260188915 0.0142713431
-0.0099950330 0.0351645648 0.0157039855
0.0103719868 0.0305520445 0.0128615815
0.0069129304 0.0313233510 0.0181715656
0.0387153402 0.0349614061 0.0338601433
-0.0016933953 0.0295453034 0.0063646534
-0.0162822213 0.0300024226 0.0135558341
-0.0152816446 0.0300163776 0.0135919917
-0.0333668478 0.0319914967 0.0258241985
0.0087663075 0.0282417610 0.0123978648
0.0015577754 0.0316851512 0.0138923395
0.0102771912 0.0319837928 0.0124034602
-0.0010388097 0.0301362723 0.0075932392
-0.0232652668 0.0330288932 0.0219510291
-0.0313457325 0.0362314209 0.0384570919
0.0100933891 0.0344179943 0.0198270325
0.0317683257 0.0342524797 0.0356528722
0.0277198497 0.0272808224 0.0118977372
0.0035709036 0.0305463523 0.0157352258
0.0103890868 0.0310933776 0.0127132107
-0.0025031767 0.0305445790 0.0073017129
-0.0232664738 0.0313175581 0.0166618694
-0.0011715567 0.0278343782 0.0087281186
-0.0331664495 0.0368521735 0.0374093466
0.0017207587 0.0311978795 0.0140110347
0.0321874842 0.0293834060 0.0369751714
-0.0044671702 0.0294635557 0.0058805072
-0.0222804267 0.0300440341 0.0134270955
-0.0093912827 0.0293238349 0.0138667841
-0.0131063955 0.0338619500 0.0134300683
-0.0343398564 0.0363303348 0.0367783867
-0.0008839940 0.0314132199 0.0084365923
-0.0402394272 0.0386261046 0.0363608710
0.0324364379 0.0335583016 0.0363192372
0.0127566708 0.0288241580 0.0120134149
-0.0096450048 0.0337487757 0.0128771979
-0.0006842514 0.0322511271 0.0087010581
-0.0039168368 0.0306592919 0.0050527700
-0.0034887563 0.0276776366 0.0122681055
0.0099702412 0.0348122343 0.0207328517
0.0022764285 0.0270137154 0.0172657464
