# .PCD v0.7 - Point Cloud Data file format
VERSION 0.7
FIELDS x y z
SIZE 4 4 4
TYPE F F F
COUNT 1 1 1
WIDTH 1208
HEIGHT 1
VIEWPOINT 0 0 0 1 0 0 0
POINTS 1208
DATA ascii
-0.0094857756 0.0254684165 0.0145389894
-0.0019530597 0.0261957608 0.0111867124
-0.0009321476 0.0267414711 0.0132013867
0.0053616706 0.0270264298 0.0133926952
-0.0054448899 0.0264605135 0.0124584222
0.0273779407 0.0273443311 0.0134912366
0.0297295861 0.0230822340 0.0164342299
0.0291896276 0.0271991678 0.0137519101
0.0043830667 0.0275611356 0.0128221000
-0.0236201230 0.0199815035 0.0099654207
-0.0057605002 0.0280269235 0.0118582705
-0.0054236483 0.0280990601 0.0126703838
0.0064029228 0.0274303257 0.0128682042
0.0132298591 0.0247395337 0.0149193192
0.0134662110 0.0279784910 0.0127953300
0.0340621695 0.0305219367 0.0397825614
-0.0021253694 0.0250021555 0.0142946178
-0.0016728191 0.0255245790 0.0139846737
-0.0019926429 0.0257026777 0.0128734196
0.0301074740 0.0272881351 0.0141072059
-0.0136279669 0.0273951590 0.0126152420
0.0143407965 0.0197913796 0.0095906043
0.0166539270 0.0232631117 0.0087347487
-0.0241116043 0.0283461958 0.0238213614
0.0116548659 0.0258443877 0.0112648020
-0.0115591455 0.0237777978 0.0075165713
-0.0095797982 0.0193826035 0.0118817026
0.0049698986 0.0170320086 0.0081100473
0.0350072868 0.0264126286 0.0393452570
0.0094559155 0.0271968693 0.0139822597
-0.0284056123 0.0283800513 0.0121706212
-0.0288197193 0.0282183290 0.0122990394
-0.0204316955 0.0253131762 0.0129515016
-0.0276586544 0.0282339156 0.0119858244
-0.0266710352 0.0283106156 0.0117489556
0.0114242164 0.0269432776 0.0137792313
-0.0260491278 0.0282990858 0.0117437476
0.0127237542 0.0235869847 0.0192922503
0.0260251816 0.0248740949 0.0137323821
0.0128031680 0.0280225910 0.0108899781
-0.0148829650 0.0230535828 0.0012070620
0.0283944607 0.0281423517 0.0135449851
0.0127274673 0.0246608928 0.0061031813
0.0293029137 0.0281607099 0.0137245813
0.0301733557 0.0282414779 0.0157626718
0.0003934895 0.0263460614 0.0138201425
0.0132011911 0.0278823003 0.0094531560
-0.0096008945 0.0193245914 0.0126766348
-0.0091716852 0.0205910094 0.0138781527
-0.0169415753 0.0270354450 0.0110669741
-0.0165411923 0.0273797549 0.0116292248
-0.0156413075 0.0272887424 0.0119832242
0.0148739573 0.0270275697 0.0122643271
-0.0128513146 0.0281671099 0.0124829793
0.0163548868 0.0279916562 0.0107025737
0.0176504441 0.0280182324 0.0110149169
0.0179189704 0.0279571824 0.0103902156
0.0190007631 0.0279758498 0.0106088603
-0.0332481489 0.0297515504 0.0208540112
0.0101751368 0.0235996842 0.0086488510
0.0314159840 0.0292341411 0.0318279937
0.0014625808 0.0243233591 0.0156236747
-0.0305547919 0.0215460733 0.0153566161
-0.0158760827 0.0238332041 0.0077976892
0.0326551944 0.0303771421 0.0397708490
0.0333463363 0.0306388214 0.0395482853
0.0073906053 0.0270409435 0.0133653665
-0.0283097867 0.0288280547 0.0120144421
-0.0203368459 0.0253342800 0.0132950926
0.0184523538 0.0240771547 0.0155440280
-0.0266995523 0.0287764147 0.0117879892
-0.0255857240 0.0287559964 0.0117879966
-0.0045419503 0.0236288458 0.0097967470
-0.0107509587 0.0224295445 0.0146694342
0.0261377096 0.0237367339 0.0136074442
-0.0172735993 0.0269676819 0.0111086229
-0.0251013990 0.0285894908 0.0206041336
0.0283944886 0.0284806117 0.0135293538
0.0293029137 0.0284995735 0.0137089575
-0.0028192550 0.0266463086 0.0127744982
0.0104527054 0.0255267620 0.0108795697
0.0146916136 0.0204922501 0.0116021419
-0.0250691157 0.0258830786 0.0103277424
0.0134285446 0.0254435129 0.0151692042
0.0133784618 0.0254739299 0.0156064937
0.0383059829 0.0224331878 0.0265180022
0.0340616778 0.0310830027 0.0397513136
0.0129864365 0.0282973461 0.0149349356
0.0152339526 0.0274913386 0.0116361538
-0.0403673723 0.0255652741 0.0296935812
0.0104736974 0.0283637270 0.0146147842
-0.0193507541 0.0259322412 0.0121081555
0.0127775595 0.0282820016 0.0147631476
-0.0146181379 0.0264435373 0.0119832242
-0.0136678722 0.0262674987 0.0121445963
-0.0128941741 0.0262465887 0.0122330943
-0.0111859869 0.0228089876 0.0153566161
-0.0223380048 0.0282313116 0.0169652328
-0.0215150919 0.0281011090 0.0165227279
-0.0075050313 0.0266180485 0.0138104716
-0.0417371392 0.0250454433 0.0297716632
-0.0047064107 0.0264589526 0.0129358852
-0.0242300387 0.0276196226 0.0210414231
-0.0036527682 0.0266675577 0.0134278322
0.0134894829 0.0252515115 0.0107806558
0.0057677999 0.0228012986 0.0031436468
-0.0276524629 0.0290403143 0.0119415680
0.0080783889 0.0275388137 0.0126391510
0.0163707342 0.0243970379 0.0170120820
-0.0268216152 0.0240294971 0.0182302520
-0.0259232763 0.0261248201 0.0136074442
0.0132439137 0.0250902995 0.0167934373
0.0003609044 0.0275221094 0.0129239345
0.0064263344 0.0282128900 0.0115917185
-0.0247001518 0.0265844613 0.0099216858
0.0340604968 0.0313619599 0.0397200808
0.0221889969 0.0266809501 0.0136699090
-0.0116360653 0.0234157816 0.0127890715
0.0340628736 0.0308039822 0.0397825614
-0.0002578980 0.0269688182 0.0132638523
0.0071645398 0.0241032243 0.0115146795
-0.0111371446 0.0288758948 0.0129515016
0.0273779538 0.0283572152 0.0134356478
0.0104043949 0.0288381167 0.0144820297
-0.0353015512 0.0286195464 0.0390797630
-0.0349206775 0.0286270306 0.0392515585
0.0296832677 0.0249620751 0.0150442654
-0.0058226045 0.0261435732 0.0120724598
-0.0327155069 0.0302440375 0.0208540112
-0.0014866124 0.0264757723 0.0128667140
0.0316617042 0.0291059837 0.0333793387
-0.0094666760 0.0276828073 0.0143675068
0.0122889318 0.0268978812 0.0081412802
0.0133648021 0.0270785168 0.0081457505
0.0018354432 0.0250419453 0.0152941430
-0.0267568659 0.0288454071 0.0293812305
-0.0145717729 0.0244620219 0.0106785381
0.0163613036 0.0267522633 0.0144195640
0.0175218713 0.0267264768 0.0141384462
0.0169436000 0.0267380290 0.0142633850
0.0325241014 0.0310979113 0.0399387255
0.0330512039 0.0313121751 0.0392515585
-0.0279112849 0.0251389928 0.0175847337
-0.0206387546 0.0261207931 0.0145445028
0.0082878936 0.0227434933 0.0064233402
0.0265881829 0.0266596302 0.0134200314
0.0273202658 0.0266594253 0.0134122232
0.0311751254 0.0284008756 0.0283192322
0.0291459672 0.0266053230 0.0138385901
-0.0072018187 0.0275100730 0.0109524513
-0.0063706096 0.0275563523 0.0107338065
-0.0060775299 0.0277278535 0.0110149169
0.0267315600 0.0248962268 0.0176680237
-0.0241184812 0.0284333453 0.0189798996
-0.0238464344 0.0284265205 0.0189486668
-0.0018720048 0.0276900865 0.0110461498
0.0120646711 0.0257368572 0.0098592127
0.0053912848 0.0283545628 0.0117520625
0.0129669299 0.0289204307 0.0131701464
0.0052019041 0.0279728025 0.0122747356
-0.0246381741 0.0276450627 0.0117801810
0.0135496873 0.0262795426 0.0155986855
-0.0278616305 0.0288043544 0.0319737568
0.0143794660 0.0261555687 0.0170589313
0.0213469714 0.0272375159 0.0136386910
0.0224647373 0.0271035396 0.0137251774
-0.0158701781 0.0234158076 0.0040182332
-0.0043541472 0.0262189507 0.0134551609
-0.0107745882 0.0290572159 0.0130920643
0.0127375359 0.0250838660 0.0058819288
0.0076246280 0.0243908688 0.0107962722
-0.0318295136 0.0304621831 0.0206978396
-0.0285211150 0.0201831982 0.0131545300
-0.0095646512 0.0286589563 0.0148776779
-0.0015034972 0.0250989273 0.0143347615
0.0349354036 0.0256512053 0.0383144990
0.0117467968 0.0261408165 0.0122330943
0.0125675723 0.0263378844 0.0119363600
-0.0361225456 0.0311722830 0.0269448832
0.0180849917 0.0137084797 0.0039557675
0.0004857240 0.0270093456 0.0133627662
0.0014326574 0.0270823613 0.0134122157
-0.0431564972 0.0161450822 0.0273925886
-0.0293242391 0.0266868100 0.0126001025
0.0334375277 0.0312423632 0.0394806191
0.0392193012 0.0224900730 0.0264832973
-0.0368034616 0.0205714852 0.0258690044
-0.0175231900 0.0173712503 0.0027766386
-0.0185401496 0.0283455215 0.0119765410
-0.0106141027 0.0257373005 0.0139510268
-0.0258657206 0.0260616653 0.0127172405
0.0206256062 0.0274302587 0.0136555145
0.0121214008 0.0264079459 0.0127953300
-0.0241309758 0.0272736996 0.0108587453
-0.0340703204 0.0297857821 0.0360343233
0.0174479187 0.0285412818 0.0127596343
0.0009917041 0.0246343464 0.0151613960
0.0093624666 0.0256125703 0.0109993005
-0.0105719659 0.0293326005 0.0130061666
0.0289649051 0.0289554559 0.0137323821
-0.0079389345 0.0267014243 0.0148256132
-0.0333828628 0.0300804600 0.0216348916
-0.0314827710 0.0307443962 0.0210726559
-0.0014989114 0.0259820931 0.0136386687
-0.0338295326 0.0274387598 0.0327311978
-0.0022885427 0.0273851156 0.0119832167
-0.0030738525 0.0273459852 0.0134122232
-0.0258538779 0.0230971016 0.0174702033
0.0267212261 0.0245780423 0.0162936673
-0.0246954057 0.0285710096 0.0176758319
0.0294967871 0.0304796770 0.0236964151
-0.0284164827 0.0288626328 0.0325984582
0.0173999965 0.0266250819 0.0157158226
0.0182992183 0.0266487971 0.0160359815
-0.0194804277 0.0274722576 0.0140863890
-0.0117568057 0.0243398361 0.0135137374
0.0153800081 0.0289732590 0.0116083855
-0.0424666256 0.0234424062 0.0244282112
-0.0278742481 0.0250414684 0.0166216418
-0.0193379428 0.0264717229 0.0132013867
-0.0063408446 0.0286345929 0.0115459198
-0.0058744196 0.0284135193 0.0118404264
0.0291320961 0.0300367251 0.0195733681
0.0154114868 0.0262928940 0.0167559460
-0.0141722616 0.0267948657 0.0122643271
-0.0216586757 0.0292837583 0.0120105604
0.0077434387 0.0290594548 0.0099685425
0.0014197362 0.0281277932 0.0124322185
-0.0035577193 0.0273321532 0.0135620171
0.0184107665 0.0267476551 0.0144195640
-0.0183440205 0.0273930505 0.0119519765
-0.0176653247 0.0274538882 0.0116578573
-0.0394254550 0.0326213166 0.0351285115
-0.0084120277 0.0277307071 0.0132950926
-0.0018658022 0.0283555277 0.0109993005
-0.0078071970 0.0271279216 0.0143883238
0.0138581693 0.0222258121 0.0095781023
-0.0098798890 0.0210193787 0.0027375827
0.0003296194 0.0244104117 0.0150442803
-0.0051600877 0.0277406797 0.0137792388
-0.0030822642 0.0260967910 0.0134825045
0.0116783269 0.0269458704 0.0086566592
0.0342051871 0.0316498205 0.0397721305
-0.0064716097 0.0272067711 0.0119488621
-0.0059107300 0.0274956115 0.0118973190
-0.0388026908 0.0264734849 0.0272884667
-0.0039373152 0.0274367891 0.0130541408
-0.0029131323 0.0283116251 0.0127828354
0.0115945945 0.0268500373 0.0100570330
0.0115853660 0.0221662261 0.0145694846
0.0191608574 0.0278437883 0.0115459198
0.0194595214 0.0285364017 0.0134066427
-0.0253847931 0.0284926705 0.0166684985
-0.0109455455 0.0262584053 0.0131701464
0.0295868069 0.0294908285 0.0189174265
0.0189826302 0.0277821161 0.0108899781
0.0091747623 0.0290514342 0.0142633850
0.0154959615 0.0265730210 0.0157314390
0.0376784690 0.0321367234 0.0376429483
0.0382505171 0.0321581960 0.0378199294
-0.0065491144 0.0289673172 0.0121393884
0.0054224581 0.0292011537 0.0115615362
0.0185150485 0.0278908685 0.0097186575
0.0121700335 0.0269730315 0.0141696790
0.0189775787 0.0282302499 0.0109524513
-0.0244195182 0.0284766927 0.0119349519
0.0311216414 0.0277860612 0.0271010548
0.0181114078 0.0222523361 0.0022128308
-0.0011097490 0.0235936008 0.0095468620
0.0226436220 0.0287045166 0.0135137374
-0.0302010980 0.0256593227 0.0202917755
-0.0153651927 0.0276778042 0.0124048823
-0.0149629964 0.0270235464 0.0121550048
-0.0206702035 0.0266808420 0.0157626718
-0.0206036735 0.0293886885 0.0120894248
0.0022851825 0.0281038247 0.0124204988
-0.0016206800 0.0276223905 0.0119728083
-0.0395683944 0.0329038203 0.0350972638
-0.0389124751 0.0328801647 0.0350035653
-0.0123629142 0.0278701521 0.0117957974
-0.0351975039 0.0289756060 0.0387309715
-0.0348725244 0.0290806815 0.0389079675
0.0295540579 0.0265262052 0.0145444954
-0.0337381288 0.0295869000 0.0396040604
-0.0054974835 0.0273262411 0.0125307301
-0.0312265437 0.0310494304 0.0216348916
0.0288210697 0.0297413431 0.0168246701
0.0291617401 0.0293636099 0.0165591761
0.0033858921 0.0275858231 0.0128421793
0.0154547840 0.0270236507 0.0137046212
0.0164156388 0.0270408988 0.0137909586
-0.0205521602 0.0283836536 0.0121341879
-0.0073214974 0.0284066126 0.0109368348
-0.0077330079 0.0284036696 0.0116292099
-0.0054264460 0.0285603181 0.0125048393
-0.0046183653 0.0285904072 0.0126703838
-0.0038027223 0.0283855647 0.0129018957
-0.0034465864 0.0282684304 0.0134707848
0.0101400241 0.0260506012 0.0109836841
0.0043796748 0.0291551426 0.0115736807
0.0325176120 0.0321844965 0.0369557664
0.0289562065 0.0307769440 0.0219160095
-0.0238492582 0.0276913643 0.0117957974
0.0104042385 0.0294094160 0.0144625017
0.0376563072 0.0325244032 0.0373774394
0.0383822396 0.0325656608 0.0377210304
-0.0115956534 0.0244064294 0.0127172330
-0.0054996479 0.0298119709 0.0116864825
0.0321251936 0.0289196745 0.0375336185
0.0321859382 0.0294457898 0.0387986526
-0.0110747125 0.0227049924 0.0129515016
-0.0216544364 0.0300844163 0.0119675929
-0.0206162352 0.0300787538 0.0120894173
-0.0195459817 0.0300644450 0.0121315802
-0.0395510271 0.0331812575 0.0350504145
-0.0385919735 0.0331508219 0.0349567160
-0.0376296118 0.0331188999 0.0348474011
-0.0125840809 0.0273464881 0.0125714624
-0.0118038785 0.0275353007 0.0129549811
-0.0076038297 0.0274329893 0.0126001025
-0.0047216211 0.0275867246 0.0136386761
-0.0312935896 0.0316883847 0.0228530690
-0.0053361617 0.0251277648 0.0135241458
-0.0115364920 0.0283494517 0.0126625681
-0.0112171378 0.0280814394 0.0134408483
0.0122380890 0.0241103657 0.0119519765
0.0074873157 0.0277204849 0.0121289724
0.0080483574 0.0277182497 0.0121393884
0.0154420473 0.0273479037 0.0126525322
-0.0051343478 0.0280247144 0.0135449702
-0.0048096757 0.0281945914 0.0137636298
0.0034306422 0.0292484686 0.0119137922
0.0190617442 0.0285528973 0.0130764479
-0.0252336916 0.0285594761 0.0174493715
0.0183813330 0.0277056471 0.0100674490
-0.0024039373 0.0283198729 0.0117411399
0.0173513405 0.0222096182 0.0021331618
0.0151589792 0.0265783593 0.0150598818
-0.0224306080 0.0282981582 0.0124100903
-0.0219044704 0.0282821171 0.0123268003
0.0003427417 0.0233192071 0.0086410427
-0.0261381138 0.0299279690 0.0118582705
-0.0254314598 0.0299893282 0.0118426541
-0.0244913157 0.0300809406 0.0118645066
-0.0344315246 0.0305530354 0.0236651823
-0.0155409966 0.0232820362 0.0045570442
0.0320985913 0.0296969227 0.0369401500
0.0310963802 0.0287492499 0.0264763534
-0.0346520618 0.0294779651 0.0367631540
-0.0090246443 0.0234187432 0.0138573209
-0.0215611402 0.0303186402 0.0120206932
-0.0205520559 0.0303208418 0.0122096697
-0.0197145734 0.0303084292 0.0122330943
-0.0414006785 0.0333306268 0.0360655561
-0.0405678377 0.0333152078 0.0357130542
-0.0395417139 0.0334604681 0.0350191817
-0.0145721445 0.0274346173 0.0125161493
-0.0071678255 0.0278793871 0.0101090977
-0.0066908691 0.0282367915 0.0100258002
-0.0056255702 0.0243903808 0.0135532031
-0.0060075205 0.0280266814 0.0110253328
-0.0113379303 0.0272942632 0.0137261385
-0.0110430587 0.0270239636 0.0141228233
-0.0343924388 0.0291010104 0.0398762599
0.0110448971 0.0249349251 0.0108899781
0.0057065319 0.0286925435 0.0110929990
0.0263635106 0.0273415223 0.0134669030
-0.0114587788 0.0294473022 0.0126979360
0.0024122372 0.0276170038 0.0129178548
0.0034224447 0.0270862654 0.0134720812
0.0113686565 0.0243561938 0.0116225863
0.0282393359 0.0300897658 0.0168090537
0.0282958522 0.0303016752 0.0176576078
-0.0000199619 0.0256718248 0.0142321447
0.0013887846 0.0253525190 0.0148292864
0.0097202100 0.0260403603 0.0108275050
-0.0122752693 0.0225517526 0.0091720382
0.0110664442 0.0268858783 0.0130764479
0.0186694432 0.0281985253 0.0106244767
-0.0105392169 0.0273311064 0.0145297805
0.0284026079 0.0305956975 0.0188757777
-0.0236284863 0.0284456164 0.0120055387
-0.0226916429 0.0285468623 0.0120613063
-0.0215554591 0.0284693725 0.0121289799
0.0103317983 0.0303123370 0.0149380649
-0.0195022542 0.0283385962 0.0120984027
-0.0293214414 0.0287149884 0.0340352729
0.0336895548 0.0323079675 0.0393452570
0.0054707117 0.0267535523 0.0138807530
-0.0181965213 0.0259893686 0.0099529186
0.0125915613 0.0285753645 0.0134772966
-0.0255746488 0.0293150283 0.0117958197
-0.0245230626 0.0293199569 0.0118602300
-0.0235404354 0.0293400511 0.0119023779
-0.0348037034 0.0269236118 0.0397200808
-0.0236484800 0.0306786522 0.0128265629
-0.0230839495 0.0306502879 0.0126703838
-0.0219561663 0.0305626318 0.0120769227
-0.0185459573 0.0300380215 0.0120456824
-0.0313810334 0.0300388969 0.0190267488
-0.0099774469 0.0254927799 0.0138260880
-0.0154142287 0.0282619037 0.0126212994
0.0293042082 0.0287296921 0.0137401978
0.0131371515 0.0248526335 0.0066107521
0.0144163277 0.0205085631 0.0104735130
-0.0045317225 0.0296800323 0.0121914530
-0.0091770347 0.0287409648 0.0141696790
-0.0088175181 0.0285849422 0.0137948552
-0.0006518046 0.0256249309 0.0141571769
0.0254010968 0.0304949433 0.0164275318
0.0043988619 0.0270688869 0.0134903044
0.0341113657 0.0331612565 0.0381895527
0.0373542979 0.0330425501 0.0370650962
0.0275715385 0.0308993794 0.0187612548
0.0280513968 0.0309396721 0.0191048384
0.0010858719 0.0300968178 0.0118348459
-0.0187109169 0.0303123444 0.0124283144
-0.0187022407 0.0307349786 0.0141462469
0.0273679662 0.0302656777 0.0168246627
-0.0384037569 0.0320535302 0.0325359926
0.0184019133 0.0286443457 0.0128515447
0.0281812679 0.0311638862 0.0196566582
0.0191484168 0.0280842595 0.0117333317
0.0067236200 0.0308452025 0.0157470480
0.0070706327 0.0308445990 0.0157626718
0.0102214180 0.0307219625 0.0148880938
-0.0404125005 0.0326034389 0.0356699303
-0.0398096889 0.0326454975 0.0352846906
-0.0066474732 0.0276779681 0.0091876620
-0.0195163507 0.0293706469 0.0120909819
-0.0006272233 0.0283787176 0.0120346779
0.0003616941 0.0284402706 0.0120743224
0.0013763868 0.0285480320 0.0121112848
0.0320433676 0.0301362723 0.0357532129
0.0321105905 0.0305458158 0.0371587947
0.0125600938 0.0279482789 0.0116500417
0.0212788992 0.0268927999 0.0288502276
-0.0224746298 0.0309011899 0.0129410932
-0.0157834385 0.0285015665 0.0120745236
-0.0288136061 0.0264081247 0.0194171891
-0.0203572270 0.0273726247 0.0155877555
-0.0123413187 0.0282380059 0.0118520269
-0.0118830223 0.0284266360 0.0117458189
0.0283951182 0.0287087522 0.0135449702
0.0298933797 0.0281137936 0.0144195566
0.0301364157 0.0279235654 0.0148256132
-0.0045435168 0.0292465016 0.0123163918
-0.0025272127 0.0293338448 0.0120412195
0.0303944461 0.0276461355 0.0155596444
-0.0077637006 0.0277684815 0.0112648020
0.0257975776 0.0307246260 0.0172619596
0.0263777766 0.0303933322 0.0164108053
0.0302577876 0.0326177627 0.0312865749
0.0269522928 0.0301093347 0.0159500837
0.0281115342 0.0299092531 0.0162312016
0.0313421451 0.0327046439 0.0320049897
0.0122462139 0.0264144167 0.0101247141
-0.0329173729 0.0316388085 0.0244772956
0.0255871508 0.0233959369 0.0093594501
-0.0175328311 0.0301184170 0.0120367641
-0.0384572968 0.0328707322 0.0350035653
0.0100304354 0.0286686569 0.0139119858
0.0154044814 0.0282851420 0.0092032785
0.0021575224 0.0300639831 0.0126287350
0.0105052171 0.0269608609 0.0130452150
0.0023441110 0.0266957432 0.0139861712
0.0273470227 0.0314831398 0.0196592659
0.0181543343 0.0283015333 0.0116552422
0.0287043639 0.0312225483 0.0215411857
-0.0137933884 0.0296311341 0.0143570909
0.0131978393 0.0267970338 0.0095156291
0.0083703343 0.0222693607 0.0020238543
-0.0268230978 0.0265855901 0.0149349356
-0.0236010868 0.0301325954 0.0118809799
-0.0412875414 0.0338609517 0.0357219800
-0.0407054499 0.0338216573 0.0354877040
-0.0333241448 0.0309886336 0.0231029466
-0.0118507277 0.0293109827 0.0119966054
-0.0023436751 0.0263016745 0.0117957974
-0.0066799019 0.0294654183 0.0125480304
-0.0055933166 0.0293248519 0.0124126906
-0.0036276262 0.0293400958 0.0126563320
0.0033702757 0.0267790146 0.0140369246
-0.0027089044 0.0297455303 0.0123970816
-0.0015606302 0.0294688381 0.0119172866
-0.0018889065 0.0290322453 0.0110617662
-0.0005772113 0.0251943283 0.0144664058
0.0003838894 0.0293280929 0.0119488696
0.0263826586 0.0307538286 0.0175118372
0.0056275818 0.0289827660 0.0112023288
0.0290843770 0.0320782661 0.0267262310
-0.0180401672 0.0302828178 0.0122643271
0.0302438773 0.0332984328 0.0347536877
0.0100712031 0.0269953981 0.0134304482
-0.0265810173 0.0293277055 0.0118150273
-0.0192579161 0.0303072408 0.0122955600
0.0163973309 0.0290801153 0.0126578892
0.0171150677 0.0290411487 0.0130243832
0.0082417727 0.0226987042 0.0054862881
-0.0127233695 0.0266887173 0.0123669589
-0.0136575010 0.0311755836 0.0144864777
-0.0126665328 0.0312437564 0.0148412371
-0.0126240496 0.0240803957 0.0088440711
0.0272113439 0.0237803832 0.0187300146
-0.0025122501 0.0272346996 0.0126131186
0.0284201205 0.0294994935 0.0145757357
-0.0296731982 0.0311079323 0.0201043710
-0.0080924612 0.0265091024 0.0153253824
-0.0006191171 0.0274220370 0.0128473723
-0.0065970253 0.0299295373 0.0126391510
0.0078740753 0.0288271271 0.0098592127
0.0080461837 0.0288554430 0.0101403305
0.0013813713 0.0275961012 0.0129738087
-0.0044134352 0.0305926614 0.0126860002
-0.0033730809 0.0306220353 0.0135371620
-0.0028434806 0.0306451917 0.0132950926
-0.0026634354 0.0302824527 0.0126352394
0.0054208934 0.0275553279 0.0128332609
-0.0005878079 0.0293019637 0.0118935937
0.0143480608 0.0283058137 0.0099138850
0.0257952902 0.0316354856 0.0199325755
0.0012685527 0.0293144546 0.0121065984
-0.0048096199 0.0297273062 0.0089846337
-0.0109950956 0.0286721587 0.0132326195
0.0092858709 0.0284685120 0.0139889494
-0.0128248911 0.0286457911 0.0127172405
-0.0195851345 0.0317732915 0.0168559030
0.0092932954 0.0280793905 0.0142711932
0.0282219071 0.0319654495 0.0216348916
-0.0226029214 0.0294082016 0.0119395042
-0.0216500182 0.0298542641 0.0119675929
0.0101191681 0.0311704054 0.0147787565
-0.0126778726 0.0242528431 0.0099060694
-0.0159110408 0.0293153338 0.0121081630
-0.0042545367 0.0296861976 0.0067513073
-0.0317037702 0.0297844261 0.0188861936
-0.0102775488 0.0304691643 0.0143154422
-0.0095748622 0.0302943662 0.0137292612
-0.0015495102 0.0274759457 0.0126302252
-0.0355485082 0.0307340920 0.0252894163
0.0060806554 0.0286438167 0.0111867124
0.0074182302 0.0284863077 0.0109992931
0.0081613120 0.0285225064 0.0109446282
0.0023972634 0.0270699747 0.0134963775
-0.0409485921 0.0153375417 0.0278298780
0.0085925739 0.0184320416 0.0049045319
0.0004312751 0.0300901309 0.0117216194
-0.0238854978 0.0211656094 0.0120456824
0.0073183589 0.0274151489 0.0128968293
0.0024414081 0.0261527933 0.0145486528
0.0371881127 0.0341044664 0.0366902724
-0.0196296964 0.0313222110 0.0159396753
0.0013378673 0.0264305025 0.0139614427
0.0102114640 0.0316484421 0.0149193266
-0.0434209704 0.0353198275 0.0391734764
-0.0134682115 0.0317071117 0.0147006745
0.0063919127 0.0267464519 0.0138573209
0.0136099961 0.0275523923 0.0106244767
0.0184163265 0.0271588936 0.0136963511
0.0298130326 0.0304553472 0.0258204117
-0.0176181924 0.0283328779 0.0118307183
-0.0165848825 0.0283568501 0.0118639627
-0.0408288613 0.0342418998 0.0354096219
0.0303719938 0.0251958966 0.0151005024
0.0246741772 0.0284269899 0.0134228626
-0.0208222438 0.0281056017 0.0157782957
0.0254627224 0.0283531994 0.0134044224
-0.0122464020 0.0291456468 0.0120769152
0.0263636988 0.0283527412 0.0133966142
-0.0242774878 0.0311946794 0.0145236785
0.0023610145 0.0294488408 0.0124204988
-0.0093601439 0.0307771862 0.0144091481
-0.0087799449 0.0301857330 0.0138260880
-0.0089491699 0.0306893550 0.0143675068
0.0137037411 0.0285565034 0.0107338065
0.0133641604 0.0286593661 0.0117333317
0.0144127551 0.0283019468 0.0105659226
0.0297499187 0.0329527631 0.0318800434
-0.0176816750 0.0317311287 0.0167809501
0.0374660082 0.0343833342 0.0366980657
-0.0386644602 0.0335561931 0.0347797200
-0.0191156212 0.0320498794 0.0172307268
-0.0196849685 0.0326331668 0.0186154842
0.0101149548 0.0318618976 0.0147787640
-0.0147842411 0.0324538425 0.0178554282
-0.0146053266 0.0326995626 0.0191985443
0.0184859000 0.0276379324 0.0117083425
0.0183967166 0.0275300927 0.0129764909
-0.0403951928 0.0345561430 0.0349463001
-0.0134362821 0.0316833779 0.0159657001
-0.0165676828 0.0294198655 0.0119148875
-0.0236922782 0.0314581282 0.0146649787
0.0285834633 0.0326181650 0.0269761160
0.0154467672 0.0277997889 0.0109774480
0.0106378132 0.0264088437 0.0139510268
0.0030296315 0.0296249352 0.0123033756
-0.0093917008 0.0313688554 0.0144320512
0.0288882144 0.0302520245 0.0193547234
-0.0090402905 0.0314266756 0.0143727073
0.0073971972 0.0291150101 0.0107650319
0.0141353775 0.0267734006 0.0118738869
0.0081091691 0.0291298106 0.0110648954
-0.0046787672 0.0301257111 0.0118860388
-0.0036319811 0.0301963277 0.0127495164
-0.0285101254 0.0267813057 0.0124829793
-0.0278834831 0.0267902091 0.0127328569
0.0325488187 0.0316991434 0.0375960991
-0.0256813336 0.0224321559 0.0156868175
0.0331833996 0.0317169875 0.0390875712
0.0134830335 0.0289855450 0.0116552422
0.0256785825 0.0311141312 0.0185738429
-0.0167175438 0.0317237265 0.0168559030
-0.0181674119 0.0331788622 0.0205728933
0.0382196270 0.0328138992 0.0374607220
-0.0225925650 0.0302882865 0.0119863534
-0.0397088975 0.0337487794 0.0350347981
0.0102969119 0.0320244730 0.0147084827
0.0344246514 0.0348994285 0.0365028605
-0.0140435155 0.0320037343 0.0156064937
-0.0283720363 0.0271456726 0.0189330503
-0.0087342840 0.0293364860 0.0130816558
-0.0076275077 0.0293530524 0.0127640972
-0.0205796305 0.0313979089 0.0157592073
-0.0366436243 0.0341634713 0.0343198553
0.0163334794 0.0277936794 0.0109420354
0.0314307548 0.0326772444 0.0340665057
0.0062399190 0.0291667953 0.0116630504
-0.0334056765 0.0313766450 0.0243523568
-0.0105850268 0.0291567147 0.0135387266
-0.0042228997 0.0308824480 0.0132326195
0.0083736759 0.0293648466 0.0118153328
-0.0098638590 0.0298173092 0.0133367414
0.0111690219 0.0244092718 0.0109649384
-0.0023011863 0.0302785076 0.0121393884
0.0326120704 0.0314126313 0.0388689265
0.0323832482 0.0349434316 0.0368880853
0.0311644897 0.0350063145 0.0373930559
0.0086694602 0.0287124068 0.0131389135
0.0178835988 0.0277816281 0.0108587453
0.0175701454 0.0290083811 0.0134460554
0.0374523774 0.0349134952 0.0365184769
-0.0161933322 0.0337844528 0.0236027092
-0.0160035249 0.0336193368 0.0223533064
0.0103915930 0.0322760344 0.0144351805
0.0310435668 0.0336784944 0.0379084423
0.0311982222 0.0335877389 0.0383144990
0.0187613964 0.0246793330 0.0178866684
0.0292841550 0.0311890990 0.0248625278
0.0203069486 0.0286153853 0.0134434486
0.0210674983 0.0286999308 0.0134512642
-0.0411509201 0.0354526304 0.0347849205
-0.0405988172 0.0352607891 0.0346555188
-0.0375482738 0.0350223929 0.0342851505
-0.0107731167 0.0247411504 0.0127141112
0.0141451377 0.0296558067 0.0137323821
0.0351091549 0.0350338668 0.0364560112
0.0224201288 0.0291500092 0.0134387771
0.0234329924 0.0292691812 0.0135000730
-0.0226121005 0.0322742425 0.0165539607
-0.0216311757 0.0321677998 0.0166247562
-0.0208977442 0.0320524275 0.0169808492
0.0283890720 0.0335003063 0.0299122259
-0.0358530581 0.0346938744 0.0342070684
-0.0448932499 0.0354688913 0.0413859710
-0.0323962644 0.0308934301 0.0223533064
0.0163727961 0.0209495351 0.0106713334
-0.0234504994 0.0317013115 0.0156273246
-0.0036144257 0.0309138298 0.0135574713
-0.0237031374 0.0328060761 0.0187300220
-0.0028796177 0.0308891907 0.0134200314
0.0382167846 0.0333634168 0.0374052003
-0.0197542552 0.0279470645 0.0141384387
-0.0115888882 0.0255433917 0.0126664871
0.0015307703 0.0259774476 0.0143727222
-0.0186980795 0.0316155627 0.0164623335
0.0102715120 0.0324001312 0.0140681649
-0.0376284868 0.0335045308 0.0346956775
0.0273223054 0.0305557959 0.0178320035
-0.0137364548 0.0293120518 0.0138394842
0.0298604518 0.0308623165 0.0272572339
0.0156034287 0.0290922113 0.0127484733
0.0351029672 0.0354336575 0.0363466814
-0.0122481268 0.0327867344 0.0146069685
0.0244074613 0.0292114206 0.0135229239
0.0254887529 0.0291876346 0.0134728923
0.0263649002 0.0292769819 0.0135703469
0.0273521524 0.0291917101 0.0135644982
0.0283608399 0.0291000679 0.0136733884
-0.0215820912 0.0323925875 0.0176888406
-0.0204477143 0.0321323425 0.0177148655
-0.0137923677 0.0303264260 0.0143258506
-0.0415345281 0.0341864638 0.0356728956
-0.0356577709 0.0353741050 0.0340769365
0.0234018024 0.0271896310 0.0136699239
-0.0387398601 0.0350463837 0.0342539176
-0.0185642671 0.0324341133 0.0178241879
-0.0166188832 0.0324704200 0.0116083855
0.0372882783 0.0354217738 0.0361905023
-0.0386006832 0.0354404598 0.0340561047
-0.0195334647 0.0329527929 0.0148646617
0.0106292171 0.0307636708 0.0152629102
0.0103589175 0.0326560736 0.0138469050
0.0317012109 0.0337209776 0.0370963290
-0.0159502830 0.0301191695 0.0121315802
-0.0092607085 0.0315867588 0.0137636149
-0.0137315858 0.0302839205 0.0140418867
-0.0285883937 0.0251227692 0.0133692706
0.0264467299 0.0321515501 0.0203453153
0.0290864520 0.0341434255 0.0371900275
-0.0175198112 0.0326278098 0.0163249075
-0.0166482758 0.0328061879 0.0159813166
-0.0167072508 0.0313337781 0.0155648524
-0.0157831069 0.0319246203 0.0166684911
-0.0136163365 0.0322721079 0.0178346038
0.0326764025 0.0333335772 0.0373149738
0.0334473737 0.0330826826 0.0387400761
-0.0238924865 0.0320644379 0.0165956169
0.0374221653 0.0356909484 0.0361358449
0.0245225448 0.0273804516 0.0135449851
0.0246577710 0.0297593400 0.0148776779
-0.0206039269 0.0330750868 0.0156377330
-0.0181774478 0.0330919698 0.0179803763
-0.0180095639 0.0332737789 0.0175430775
-0.0170204770 0.0332596824 0.0175743178
-0.0165615305 0.0343339294 0.0238734186
-0.0170598980 0.0322435983 0.0081100473
-0.0395949930 0.0343788825 0.0347252861
0.0105885798 0.0328805856 0.0138260880
-0.0375882387 0.0343339592 0.0343996808
0.0058661383 0.0321858376 0.0199169591
0.0282021277 0.0314827040 0.0206587985
0.0311648995 0.0344091691 0.0374347046
0.0310612284 0.0340107307 0.0383457318
-0.0115926508 0.0232810490 0.0134762609
0.0194229186 0.0291058533 0.0134075293
0.0203913487 0.0291517749 0.0134304482
0.0213821642 0.0292438157 0.0134575143
-0.0145033021 0.0304049030 0.0137368524
-0.0109204780 0.0254306197 0.0127797136
-0.0149532687 0.0320047624 0.0066263760
0.0287178308 0.0341560394 0.0329732820
-0.0345667377 0.0315824375 0.0261015296
0.0092769805 0.0293242671 0.0139640430
-0.0136785563 0.0281497762 0.0130139748
-0.0385630354 0.0363909863 0.0336121842
-0.0109769907 0.0234989114 0.0128786275
-0.0109944064 0.0231480934 0.0136699164
0.0062776729 0.0314656608 0.0189694911
-0.0240382794 0.0279368274 0.0106400931
0.0034130290 0.0262792632 0.0146503309
0.0374206938 0.0359626040 0.0361046121
-0.0112238731 0.0304529667 0.0133679742
0.0276383888 0.0298369750 0.0155752609
-0.0244310070 0.0333099626 0.0206665993
0.0317872167 0.0326275826 0.0360030904
0.0103859371 0.0330844931 0.0136386761
0.0373002961 0.0326579809 0.0370963290
0.0323843583 0.0343960673 0.0369401649
-0.0180573594 0.0352320857 0.0265075862
0.0253429487 0.0297468193 0.0147631476
0.0364704058 0.0362507105 0.0362217352
0.0235313643 0.0299068987 0.0141384387
-0.0064838659 0.0282791890 0.0107442150
-0.0195844304 0.0307896473 0.0144976461
0.0296142232 0.0261160396 0.0199013427
-0.0002511161 0.0280129872 0.0122643271
0.0143406913 0.0274290964 0.0107806558
-0.0106234122 0.0323156156 0.0127306143
-0.0272065047 0.0293332711 0.0118686790
0.0372802876 0.0362309664 0.0360551551
0.0297438875 0.0316635296 0.0275539681
0.0301288441 0.0312881246 0.0276320502
0.0094478652 0.0333419666 0.0137948552
0.0283943675 0.0273530036 0.0135793472
0.0298880450 0.0276460275 0.0142946178
0.0237483438 0.0299625322 0.0146382013
0.0240830295 0.0300111771 0.0150754973
-0.0396425575 0.0356264263 0.0342122689
0.0326520652 0.0325907245 0.0368776843
0.0296454411 0.0321579464 0.0284910277
0.0299099386 0.0321838036 0.0287096724
-0.0022564661 0.0288234167 0.0111710960
-0.0175119881 0.0347025096 0.0265075862
-0.0193383936 0.0334628709 0.0200523064
-0.0189880598 0.0329636447 0.0187612548
-0.0163898636 0.0319309570 0.0166372582
0.0263750199 0.0300924294 0.0158017129
0.0017274005 0.0293521807 0.0122877592
0.0344251879 0.0343515426 0.0365393236
0.0362087116 0.0361354277 0.0363935456
0.0333946012 0.0333916470 0.0377913192
0.0364612974 0.0365090854 0.0360967889
-0.0385921225 0.0344008803 0.0345013812
-0.0133312736 0.0327858776 0.0085629532
-0.0129398163 0.0296276137 0.0133263255
-0.0327836946 0.0305623785 0.0215099528
-0.0184749905 0.0328697488 0.0143883238
0.0375232808 0.0352261588 0.0363716707
0.0104213543 0.0224186890 0.0119910175
-0.0107574854 0.0313420072 0.0134668881
0.0105114887 0.0313068256 0.0153744603
0.0383551195 0.0339167416 0.0373774394
0.0380093381 0.0340697318 0.0371275619
0.0094509851 0.0335665159 0.0137636075
0.0103266565 0.0334216431 0.0136837969
-0.0129365381 0.0329631567 0.0075165713
-0.0433038250 0.0348541588 0.0389704481
-0.0044390894 0.0299286060 0.0088596875
0.0323784053 0.0354803279 0.0367596671
0.0391528904 0.0322357938 0.0385019109
-0.0103804488 0.0241985135 0.0136511708
-0.0097906869 0.0243984498 0.0138286958
-0.0403849259 0.0371418148 0.0338010117
-0.0385665447 0.0370148048 0.0333748832
-0.0376110449 0.0370876156 0.0333293602
0.0058963541 0.0318040997 0.0197607800
0.0300322808 0.0213808194 0.0163144916
0.0292143915 0.0305908397 0.0224470124
-0.0207527038 0.0331510752 0.0193338990
-0.0206544306 0.0307030566 0.0135527784
-0.0199225079 0.0307227857 0.0138469199
0.0293575786 0.0321596898 0.0274134055
0.0316334702 0.0320463479 0.0297404304
-0.0069592465 0.0267304182 0.0124205062
-0.0181698073 0.0330955647 0.0199169591
0.0033805873 0.0279891714 0.0123143056
0.0293864440 0.0298534408 0.0201043710
-0.0117672402 0.0239593349 0.0068606371
-0.0153412651 0.0330873169 0.0195941925
-0.0158702750 0.0333864130 0.0205728933
-0.0055654179 0.0323846005 0.0106400931
0.0333345719 0.0343674868 0.0366928801
-0.0160661507 0.0260456577 0.0110773901
0.0162179638 0.0282405391 0.0109836841
0.0164489374 0.0283837020 0.0116864750
0.0373477861 0.0335848145 0.0369644389
-0.0084913429 0.0287122093 0.0127745131
0.0283296667 0.0328735039 0.0269761160
0.0364050977 0.0325397998 0.0367319211
0.0364634581 0.0367867239 0.0361072049
0.0133066056 0.0284358114 0.0128577957
0.0370065346 0.0367786661 0.0360343233
-0.0131880697 0.0329768695 0.0075790444
-0.0339032784 0.0307502039 0.0231654197
0.0302362852 0.0344420522 0.0386134759
0.0102711320 0.0328588746 0.0136543000
-0.0376819521 0.0374091789 0.0332127437
-0.0367739797 0.0373824537 0.0331919268
-0.0364411920 0.0371773392 0.0332856253
0.0171056427 0.0281773619 0.0117208371
-0.0185137410 0.0293447599 0.0119972834
-0.0175251123 0.0294355154 0.0119207660
0.0105024166 0.0338799655 0.0143883238
0.0088535454 0.0300958194 0.0133575574
-0.0163565855 0.0330181532 0.0205260441
0.0126988804 0.0291830450 0.0135033289
-0.0402431414 0.0375192836 0.0335042700
-0.0396219492 0.0372191407 0.0334903970
-0.0309838634 0.0348251984 0.0316301659
-0.0368401781 0.0336201414 0.0344413295
0.0341435857 0.0329423621 0.0387205556
-0.0097137969 0.0328640491 0.0120456824
-0.0087640714 0.0323702730 0.0127406577
-0.0465005115 0.0360962041 0.0438118950
0.0310301892 0.0363996252 0.0374086723
-0.0160112921 0.0341884866 0.0238057449
0.0085917059 0.0296217203 0.0127453590
0.0044036973 0.0279809013 0.0123033756
-0.0123397093 0.0240002200 0.0074853385
0.0254529417 0.0300938413 0.0158173367
-0.0128315296 0.0321285725 0.0167726129
0.0163037069 0.0246778801 0.0177929625
-0.0087118242 0.0333639607 0.0125787565
0.0105861109 0.0342790708 0.0171057805
-0.0126606803 0.0293417647 0.0128265629
-0.0129442196 0.0348177478 0.0171994939
0.0087477285 0.0292617232 0.0134423459
-0.0142828505 0.0319406912 0.0030707577
-0.0174657051 0.0333917253 0.0204010978
0.0315909199 0.0354185440 0.0370650962
-0.0217573103 0.0319572352 0.0160515979
-0.0360337794 0.0344267599 0.0342851505
0.0165101439 0.0287726745 0.0124829719
0.0377142020 0.0370905288 0.0362529829
-0.0134812687 0.0333528444 0.0086254263
-0.0175163057 0.0325166695 0.0189049318
-0.0169563312 0.0326030105 0.0190892220
0.0316447727 0.0343777649 0.0371231064
-0.0365978852 0.0376473591 0.0331216380
-0.0355618000 0.0373887569 0.0334574208
0.0304565132 0.0343790203 0.0378182158
-0.0396599174 0.0352535509 0.0343851075
0.0102486312 0.0341354460 0.0145445028
-0.0264652427 0.0335898474 0.0225563273
0.0353779532 0.0326926224 0.0364872441
0.0301484037 0.0307088718 0.0282255262
-0.0235541705 0.0310366303 0.0139510268
-0.0349535421 0.0355561227 0.0340915099
-0.0225942489 0.0312673301 0.0147579322
-0.0216382835 0.0311134532 0.0149505595
0.0129836788 0.0246114098 0.0061630467
-0.0071852263 0.0276629813 0.0101715708
-0.0223945994 0.0310035348 0.0138573209
-0.0138000678 0.0285040215 0.0135043645
-0.0053255875 0.0298417658 0.0099529186
-0.0047429278 0.0297858901 0.0095156291
-0.0176206920 0.0310231820 0.0147839719
-0.0159120467 0.0316932648 0.0157158151
0.0085975397 0.0300383493 0.0128343711
0.0353844948 0.0333890580 0.0365445241
-0.0167204347 0.0331367590 0.0199560001
0.0326006263 0.0320858508 0.0386112258
0.0286848266 0.0337019786 0.0315052196
-0.0401379094 0.0377666838 0.0332856253
-0.0185573045 0.0329782218 0.0170433149
0.0100456122 0.0291966423 0.0139447832
0.0303131826 0.0363819078 0.0375984833
-0.0149021838 0.0300016403 0.0144039402
-0.0024212860 0.0257481150 0.0118895033
-0.0176901128 0.0313861184 0.0158719942
-0.0176790487 0.0322350860 0.0177742243
0.0307902582 0.0336164907 0.0385643765
-0.0376615226 0.0379580110 0.0331398621
-0.0365673006 0.0379146859 0.0330435559
-0.0186605249 0.0312203467 0.0158329532
-0.0145730171 0.0317413583 0.0027219662
-0.0115117934 0.0333343521 0.0135801071
-0.0147166271 0.0290167406 0.0128577957
-0.0126205366 0.0349126756 0.0162624344
0.0352763087 0.0342425928 0.0365278497
-0.0214957912 0.0333198942 0.0192610174
-0.0237149131 0.0274026096 0.0106609175
-0.0087725800 0.0345685184 0.0167934373
0.0323725343 0.0364254564 0.0365861729
0.0333281718 0.0364113674 0.0364658013
-0.0109098163 0.0284842178 0.0136832977
0.0163753331 0.0275869593 0.0117059955
-0.0173892658 0.0331502408 0.0185426101
0.0188028850 0.0277263708 0.0102965096
-0.0138683748 0.0322257765 0.0164654627
0.0043909568 0.0284924880 0.0117906118
-0.0105832834 0.0348550603 0.0145445028
-0.0095028412 0.0346133895 0.0146194557
0.0125725819 0.0240580849 0.0110773901
-0.0185778458 0.0329044238 0.0146382088
0.0024392065 0.0285008699 0.0121012116
-0.0116098924 0.0340383202 0.0144351805
0.0173917897 0.0275251940 0.0128968442
0.0174154527 0.0271213055 0.0136253024
-0.0277250763 0.0268944912 0.0173244327
0.0375387631 0.0374471173 0.0364216492
-0.0325626433 0.0372929722 0.0357427970
0.0290167928 0.0312808082 0.0241961852
-0.0139922965 0.0389921144 0.0434683189
0.0144783547 0.0290633738 0.0117229158
0.0344217792 0.0354423746 0.0364299789
0.0272320881 0.0317711197 0.0200523138
0.0110491412 0.0271369256 0.0107962722
0.0333305001 0.0353191793 0.0365692601
-0.0283313300 0.0350402966 0.0295061693
-0.0177401397 0.0325444825 0.0137948627
-0.0097991284 0.0330950357 0.0120560983
-0.0169985611 0.0320545100 0.0175743178
0.0263870731 0.0311227292 0.0186441243
-0.0065284986 0.0280041173 0.0091564292
0.0382378846 0.0356571265 0.0365340933
-0.0166237000 0.0301186144 0.0120261693
-0.0014299712 0.0283465274 0.0116708660
0.0144824963 0.0268495753 0.0127953300
-0.0124822762 0.0352987945 0.0172619596
0.0091412589 0.0301331095 0.0137011567
0.0164769553 0.0273665674 0.0128979543
-0.0092564020 0.0350482240 0.0167622045
-0.0086036716 0.0350739509 0.0170042738
-0.0396322757 0.0381557792 0.0331606939
-0.0385558084 0.0381195508 0.0331190452
-0.0365889966 0.0347070917 0.0341810361
0.0173252448 0.0277391858 0.0117055709
-0.0039721057 0.0324584581 0.0147943804
-0.0119389128 0.0330004059 0.0048928196
-0.0158303026 0.0321243182 0.0090783322
-0.0237691794 0.0324406400 0.0177304912
-0.0108395014 0.0343630686 0.0135605866
-0.0096879844 0.0345890969 0.0136543000
-0.0142431017 0.0308387093 0.0116708586
-0.0246964004 0.0325715244 0.0186519250
0.0033893324 0.0284888782 0.0118785063
-0.0112989638 0.0350255966 0.0155908763
0.0363588221 0.0334096141 0.0366883352
-0.0468209833 0.0364798382 0.0444053635
0.0323925465 0.0379977524 0.0368985012
-0.0281438697 0.0200474411 0.0121706212
0.0142670954 0.0289085954 0.0109524438
0.0343939923 0.0363743678 0.0363737419
-0.0403768122 0.0383128971 0.0331294611
0.0162245892 0.0257737562 0.0181008428
0.0107422611 0.0336389691 0.0143258506
-0.0317148119 0.0355694219 0.0351909772
-0.0179111753 0.0354830995 0.0264607295
-0.0213325266 0.0307006352 0.0134200314
-0.0395328775 0.0377498642 0.0332856253
-0.0149115007 0.0333922580 0.0207394809
-0.0105960611 0.0296615139 0.0130139748
-0.0331312865 0.0356634706 0.0356907472
-0.0085850116 0.0297305174 0.0133939916
-0.0184981357 0.0326606259 0.0186363086
0.0062427446 0.0318129733 0.0198544860
-0.0165301245 0.0305669233 0.0129749337
-0.0095513705 0.0277170427 0.0140447402
-0.0144878235 0.0327447206 0.0195733681
-0.0335545912 0.0373896696 0.0356339589
-0.0216606800 0.0331211165 0.0190512910
-0.0122239459 0.0350104198 0.0161687359
-0.0120479446 0.0355549380 0.0174181387
-0.0092823524 0.0354158469 0.0168246701
-0.0087563302 0.0354470238 0.0170849562
0.0301081650 0.0312224664 0.0270385891
-0.0236376058 0.0284758061 0.0176992640
-0.0153980907 0.0298132114 0.0147631476
-0.0150607657 0.0297821537 0.0145132625
-0.0016004293 0.0302074663 0.0118871117
-0.0148506556 0.0318866745 0.0164810792
0.0343118384 0.0379756726 0.0367111042
-0.0064800177 0.0276665911 0.0098092416
-0.0149126370 0.0305736624 0.0129254693
-0.0147589501 0.0314625651 0.0149297351
-0.0327358246 0.0383676663 0.0354627296
-0.0088991169 0.0319011547 0.0135449702
0.0254621468 0.0273447856 0.0135075087
-0.0322333425 0.0364339575 0.0363154486
-0.0214633178 0.0326523334 0.0185009688
0.0064974744 0.0287689120 0.0113480920
-0.0144106131 0.0331004113 0.0198128447
-0.0166333821 0.0344598815 0.0248052701
-0.0365630388 0.0354171917 0.0339968428
-0.0403781757 0.0388703719 0.0330982134
-0.0165460911 0.0329232290 0.0150754973
-0.0096058678 0.0342162699 0.0127094323
-0.0098259840 0.0350114815 0.0151483724
-0.0075467397 0.0368940718 0.0337229297
0.0303721093 0.0373800099 0.0375148728
-0.0106895175 0.0304523297 0.0136560360
-0.0396610647 0.0362730995 0.0338478908
-0.0143688815 0.0309853703 0.0139041776
-0.0119708460 0.0373362042 0.0273509398
-0.0098991562 0.0199850611 0.0109368274
0.0341651030 0.0321679153 0.0396693274
-0.0145936105 0.0283643156 0.0129184136
-0.0225096848 0.0319372602 0.0157626718
-0.0154592860 0.0398769751 0.0433121398
-0.0208026040 0.0311069340 0.0150286490
-0.0375135466 0.0364374854 0.0335866287
0.0295940004 0.0314290747 0.0268386826
-0.0216260981 0.0306259915 0.0127016241
-0.0226690788 0.0327108651 0.0181287378
-0.0337987989 0.0384165272 0.0350410417
-0.0334518924 0.0381786637 0.0354065225
-0.0121122804 0.0375425890 0.0286628157
-0.0118631516 0.0371498428 0.0261640027
0.0113469567 0.0345888659 0.0174862742
-0.0118653271 0.0345498547 0.0155023783
-0.0235400368 0.0331108272 0.0192297846
-0.0153541509 0.0300333388 0.0146382013
0.0388533771 0.0322125033 0.0382988825
-0.0089913849 0.0343942530 0.0155752609
0.0141610596 0.0293033794 0.0125662619
-0.0096179936 0.0323500894 0.0124861011
0.0130622257 0.0277202651 0.0124205062
-0.0121770520 0.0359672382 0.0185113698
-0.0130827483 0.0352226570 0.0182927251
-0.0095367040 0.0352526158 0.0157314390
0.0333329365 0.0373842567 0.0364924744
-0.0414366126 0.0352446437 0.0353471562
-0.0152895246 0.0296171233 0.0136386761
-0.0144567881 0.0293987542 0.0136317471
0.0116070518 0.0341137797 0.0170953721
0.0120095415 0.0340205207 0.0170120820
-0.0149867367 0.0398187973 0.0468729511
-0.0157682728 0.0325251557 0.0189486593
-0.0385171920 0.0386627652 0.0330097154
-0.0365533233 0.0364109799 0.0335801467
-0.0405717045 0.0391668379 0.0331606790
-0.0237640645 0.0334256180 0.0197295472
-0.0355949551 0.0364849530 0.0337095633
0.0274786856 0.0297889858 0.0151379714
0.0274477396 0.0307353586 0.0183708146
-0.0103949253 0.0351622850 0.0150442654
-0.0207864847 0.0257565901 0.0143258506
-0.0142604169 0.0317636095 0.0155440280
0.0346662663 0.0326340571 0.0368048027
-0.0155592542 0.0294631757 0.0126413787
-0.0154829901 0.0401827358 0.0433746055
0.0105836568 0.0346614793 0.0174493790
0.0246925410 0.0301917866 0.0158626288
-0.0451816693 0.0361352861 0.0419065580
-0.0133761447 0.0319313519 0.0151067311
-0.0133786742 0.0385430008 0.0444990769
-0.0139687639 0.0391528457 0.0465605929
0.0156872608 0.0287782997 0.0118895108
0.0303558595 0.0381308608 0.0377991125
-0.0376586318 0.0376795605 0.0331502780
-0.0376171395 0.0384986848 0.0330183730
-0.0119785573 0.0322101563 0.0150130251
-0.0396112949 0.0387057140 0.0330864862
0.0073809866 0.0280587301 0.0114397267
-0.0231103729 0.0319753066 0.0159813166
-0.0332467034 0.0364691280 0.0357719585
0.0360065773 0.0377872400 0.0372525081
-0.0385063291 0.0390757397 0.0329628661
0.0342441797 0.0384228602 0.0377991125
0.0332381018 0.0324452780 0.0389570519
-0.0375956818 0.0390463732 0.0329420492
0.0131131215 0.0285351872 0.0138573209
-0.0404128432 0.0362419635 0.0340228006
-0.0113200555 0.0362524316 0.0204479545
-0.0118777920 0.0314996094 0.0146382088
0.0323831141 0.0334848017 0.0369589105
-0.0396185517 0.0391253792 0.0330747887
-0.0325444713 0.0363812447 0.0358669832
0.0334586762 0.0287759155 0.0391266271
0.0323772915 0.0374009460 0.0366243348
-0.0405808911 0.0394485742 0.0331606790
-0.0161961447 0.0402357951 0.0417816117
-0.0239476580 0.0333119482 0.0207603052
0.0319397934 0.0320713073 0.0334730372
-0.0225598980 0.0331811868 0.0188326463
-0.0472479984 0.0391145647 0.0457172468
0.0310281813 0.0374044031 0.0372941568
-0.0102164093 0.0313819163 0.0129140252
0.0150025301 0.0403301455 0.0480911210
0.0390207097 0.0371974744 0.0369297490
0.0120714111 0.0345084108 0.0175743178
-0.0184247885 0.0326166749 0.0161062628
-0.0005128196 0.0301150158 0.0118582705
-0.0203319583 0.0317498595 0.0165435523
0.0286601651 0.0333007872 0.0304119885
0.0154139884 0.0281954855 0.0098961229
0.0107601648 0.0338607132 0.0158563778
-0.0195888560 0.0322044045 0.0177721381
0.0096543431 0.0338170789 0.0139197940
-0.0296525452 0.0222543404 0.0143979350
-0.0137586799 0.0366012678 0.0224157721
-0.0156475659 0.0303443149 0.0129445726
-0.0396275222 0.0394065902 0.0330747887
0.0315907933 0.0363916159 0.0369495228
-0.0138512310 0.0388736427 0.0370338634
-0.0157974344 0.0310032517 0.0138573283
0.0333447978 0.0379652791 0.0366668478
0.0333853215 0.0383514613 0.0373618230
0.0347056277 0.0385294408 0.0384706780
-0.0154140349 0.0302315652 0.0135900909
-0.0113343727 0.0367524810 0.0236651823
-0.0168013256 0.0323529877 0.0089742178
-0.0035782978 0.0261728950 0.0144507969
-0.0156407505 0.0406005085 0.0469666645
-0.0469931513 0.0387355536 0.0452487245
-0.0150328111 0.0329224616 0.0189798996
-0.0113922376 0.0324000791 0.0135387192
-0.0114329215 0.0312467515 0.0137948552
-0.0106003489 0.0371349752 0.0431559607
0.0321261585 0.0325974151 0.0345350429
-0.0154639687 0.0409207940 0.0442804322
-0.0206581559 0.0331206359 0.0187924877
0.0333429538 0.0336982757 0.0368737653
-0.0176169220 0.0306525566 0.0135762105
0.0317090861 0.0329705030 0.0342539176
-0.0326241329 0.0394132435 0.0353940204
-0.0365659744 0.0392994173 0.0329576507
-0.0103817005 0.0366551504 0.0417972282
-0.0343016014 0.0397991352 0.0347536877
-0.0215585101 0.0315756388 0.0157696158
-0.0300197173 0.0394302085 0.0331294611
-0.0112027358 0.0325554311 0.0129827419
-0.0147199649 0.0396183170 0.0398762599
-0.0130798947 0.0328744687 0.0169808492
-0.0395028591 0.0396891497 0.0331086293
-0.0205801520 0.0326454490 0.0187994242
-0.0346187651 0.0365165919 0.0338550881
-0.0201263744 0.0331917256 0.0147943804
-0.0138041992 0.0386237055 0.0470915958
-0.0123393480 0.0375201553 0.0268199369
-0.0105653387 0.0362394229 0.0204479545
-0.0060926247 0.0238369144 0.0134825045
-0.0294883270 0.0349675007 0.0308492854
0.0062063280 0.0321998671 0.0200497061
-0.0095476862 0.0294300616 0.0129671181
-0.0163782071 0.0326663591 0.0140291164
0.0304457583 0.0281061269 0.0167934373
-0.0108019505 0.0233373791 0.0034247572
0.0129339425 0.0276487172 0.0116396258
0.0145372748 0.0270649269 0.0116521204
-0.0128453132 0.0303444080 0.0135637159
-0.0104116965 0.0341334380 0.0128343785
0.0319643877 0.0318603478 0.0340040401
-0.0088728312 0.0340537429 0.0129931504
0.0084066056 0.0283186734 0.0116254399
-0.0346023366 0.0372956172 0.0337112173
-0.0402960181 0.0400029793 0.0331606939
-0.0098399315 0.0314151645 0.0126079181
-0.0172079150 0.0318061374 0.0174806118
-0.0133699682 0.0386058167 0.0335979834
-0.0385763347 0.0375701562 0.0331919268
-0.0324865878 0.0400917269 0.0356237963
-0.0324257389 0.0403917730 0.0378928259
-0.0224068519 0.0315807872 0.0154503221
-0.0325904936 0.0356678329 0.0358156785
-0.0154501554 0.0405378863 0.0437494293
-0.0356846526 0.0385556109 0.0331294462
