# .PCD v0.7 - Point Cloud Data file format
VERSION 0.7
FIELDS x y z
SIZE 4 4 4
TYPE F F F
COUNT 1 1 1
WIDTH 1235
HEIGHT 1
VIEWPOINT 0 0 0 1 0 0 0
POINTS 1235
DATA ascii
0.018413702 0.0088877622 -0.020113394
0.017980428 0.0086255074 -0.019805744
0.017053949 0.0085546542 -0.019451246
0.012628866 0.0087060668 -0.019904822
0.0085997451 0.008834485 -0.019012719
-0.0040637515 0.0087392479 -0.018196464
0.018685995 0.009153422 -0.018903077
0.00065360032 0.0079367124 -0.007861048
0.0071145501 0.0091259107 -0.021502808
0.0018731803 0.0085720047 -0.017629266
0.012409581 0.0081780385 -0.0093497634
0.021349629 0.0092937984 -0.024149626
-0.024404326 0.0095214546 -0.023802876
-0.025367079 0.0095410384 -0.023885414
0.018584402 0.0089795329 -0.022012725
-0.017495025 0.0088188536 -0.010163397
0.027142571 0.0097461008 -0.026462317
0.026563311 0.0096714906 -0.026100993
0.025639722 0.0096308999 -0.025865942
0.024655377 0.0096255057 -0.02578108
0.023564639 0.0095994361 -0.025601625
0.022734461 0.0095873028 -0.025499508
0.010494487 0.0088312682 -0.019073889
-0.020544693 0.0088951848 -0.010495067
-0.02632837 0.0095657185 -0.023990914
-0.027426027 0.0095829144 -0.024065673
-0.028386492 0.0095892195 -0.024094805
0.003117932 0.0083141867 -0.0096636862
-0.0085859951 0.0080642402 -0.0082444102
-0.0091541912 0.0079659596 -0.0077838451
-0.0059354473 0.0089583024 -0.019109875
-0.02219809 0.01165222 -0.023252174
-0.023440316 0.011691343 -0.023428857
0.018259892 0.0087883174 -0.023045257
0.017586058 0.0087245665 -0.022737503
0.016618481 0.0088391397 -0.023177743
0.00026492216 0.0087730996 -0.022231072
0.023559613 0.0093287341 -0.025660634
0.02231246 0.0095856581 -0.02546756
0.020665331 0.0094132759 -0.024006918
0.019481448 0.009589985 -0.025325969
0.019549159 0.009365797 -0.025586411
-0.0053824298 0.0092363972 -0.024043679
-0.0083560571 0.0086598266 -0.0060878247
-0.015477626 0.0084195081 -0.01188837
-0.016726095 0.0087395087 -0.012632072
0.014480146 0.0089725815 -0.022406131
0.015146138 0.0091950577 -0.024625182
-0.022476416 0.010043919 -0.023627371
-0.0023331884 0.0088479668 -0.019991055
0.0043951031 0.0086638033 -0.016802251
0.013205515 0.0088254064 -0.020449281
0.012406001 0.0087236874 -0.021238312
0.011769796 0.0087747537 -0.02143015
0.01068362 0.0089671947 -0.022211775
0.0096663516 0.009109091 -0.022779629
0.017519733 0.0085356683 -0.019391492
0.0091127288 0.0088953618 -0.019299567
0.027146755 0.0094707832 -0.026498318
0.026542397 0.0094101671 -0.026198134
0.025618991 0.0093693305 -0.025963128
0.024656313 0.0093512535 -0.025824815
0.021377532 0.0094135404 -0.025283828
0.020584343 0.0093773156 -0.025082543
0.018757248 0.0093816146 -0.025123149
-0.021255994 0.0094495639 -0.021974474
0.015751144 0.0090596974 -0.024076819
0.013261469 0.009129148 -0.024252772
0.013040265 0.0090813078 -0.024038166
0.012599854 0.008867383 -0.023104668
0.011682438 0.0089230463 -0.023300678
0.0075997431 0.0090726241 -0.021290064
0.028232606 0.0096349828 -0.026667587
-0.024404366 0.0092475228 -0.023838684
-0.025367254 0.0092624836 -0.023900822
-0.0084979758 0.0091237128 -0.023494303
-0.0095574539 0.0090274327 -0.023064211
-0.0103678 0.008980263 -0.022848576
-0.011366965 0.0090343896 -0.023060411
-0.012389516 0.0088237002 -0.022149161
-0.0023743752 0.0092858784 -0.024333403
-0.0034121033 0.0091913678 -0.023903087
-0.0044638868 0.0093099847 -0.024379432
-0.007823348 0.0089119896 -0.022609547
-0.0084859226 0.0091020614 -0.023402661
-0.0053660069 0.0089649372 -0.019151911
-0.0131223 0.0089106802 -0.022506759
-0.01469535 0.0093029477 -0.022941247
-0.015089297 0.0092361644 -0.022650078
-0.016626254 0.0092647467 -0.022754163
-0.017529214 0.0093557909 -0.023134589
-0.018176196 0.0090886988 -0.023199961
-0.019430518 0.009137528 -0.023396343
0.0044047907 0.0092982911 -0.02460508
0.0036970433 0.0093122087 -0.024638891
0.019248417 0.0092427731 -0.021286353
-0.0072648413 0.0085664801 -0.0061700344
0.0074049365 0.0086003691 -0.016626328
0.023557624 0.0090562254 -0.025712013
0.019528219 0.0091069471 -0.025691092
0.0014938358 0.008504549 -0.017322466
0.001905119 0.0087452214 -0.01966998
-0.0050326381 0.0090634227 -0.024515763
-0.016233586 0.0085868351 -0.011944056
-0.023440771 0.010057852 -0.023684397
-0.0025713705 0.0090149902 -0.021953419
-0.0033934303 0.0090855304 -0.024651974
-0.0055547841 0.0090178326 -0.024310872
0.010518136 0.0088996403 -0.020655796
0.0086246226 0.0092449822 -0.025143772
0.0075585898 0.0092772227 -0.025151357
0.0065059494 0.009149529 -0.024050355
0.0067055766 0.0091755521 -0.024971306
-0.011684684 0.008491911 -0.011569932
-0.026836729 0.011521716 -0.015748858
-0.013399319 0.0083421171 -0.012258828
-0.01757424 0.0088397674 -0.011683092
-0.018290266 0.0087068491 -0.012003824
-0.019994494 0.0089274421 -0.012066782
0.027163772 0.0091880262 -0.026503801
0.016161518 0.0082937609 -0.010033622
0.025602529 0.0091055036 -0.026050091
0.018404344 0.0090084262 -0.025211304
0.018046046 0.0088637508 -0.024578616
0.016486684 0.0089708976 -0.024950638
0.01759694 0.0084466934 -0.017702192
0.016589804 0.0085335635 -0.018035725
0.028252186 0.0092146844 -0.026691042
0.026524702 0.009147197 -0.0262876
-0.016450685 0.0089235492 -0.020050585
-0.019537976 0.0087572709 -0.019303501
-0.017163558 0.0087125003 -0.009673804
-0.0063002519 0.0088837743 -0.023728684
-0.0063549858 0.0088857114 -0.023135066
-0.020397248 0.0094101503 -0.023343414
-0.021490987 0.0093184076 -0.022944152
-0.022330215 0.0090874583 -0.023366779
0.021789001 0.0091956556 -0.022493601
-0.018399054 0.009042589 -0.019283786
0.017851302 0.0086715259 -0.022524357
-0.021675006 0.0098927468 -0.019151658
0.015607813 0.0089135338 -0.022205621
0.014548546 0.008905936 -0.020860896
0.013579244 0.0089321081 -0.022189483
0.013700845 0.0088909008 -0.020756513
0.011253038 0.008596871 -0.016758919
-0.017482324 0.009079434 -0.020713717
-0.018398874 0.0089814365 -0.022134736
0.0016461816 0.0084465053 -0.015755251
0.0011193845 0.0088755079 -0.021463022
0.00067829713 0.0089499429 -0.022996128
0.00058089755 0.0090478435 -0.02421172
-0.016403995 0.008819133 -0.01703231
0.02050774 0.0090059116 -0.02566199
-0.0024765152 0.0091403238 -0.02249369
-0.0024475604 0.0089761 -0.024810851
-0.0053435937 0.009239208 -0.022843733
-0.0055704676 0.0087706856 -0.024458662
-0.0063779484 0.0087383278 -0.024304107
-0.016939985 0.008716289 -0.011122704
0.016127037 0.0085040424 -0.016558319
0.0075500961 0.0092342757 -0.0232324
0.0066788401 0.0088386629 -0.025138661
0.0055966992 0.0089478642 -0.024961248
-0.014480677 0.008292105 -0.010625571
-0.013878081 0.0089688301 -0.021521434
-0.014215594 0.0091267861 -0.022193283
-0.015624922 0.0091708638 -0.022363767
-0.016185327 0.0091816913 -0.022403464
0.020598283 0.011189111 -0.020908043
-0.019376341 0.0089845844 -0.022140652
-0.02007696 0.0091455933 -0.022212982
-0.02059439 0.0091546848 -0.021013916
-0.015510928 0.0087455325 -0.016717851
0.028269684 0.0089318007 -0.026696555
-0.014645615 0.0090307407 -0.020535573
-0.015093205 0.0091025829 -0.020840481
0.0018259697 0.0089203827 -0.022907317
0.025598409 0.0088344067 -0.026106521
0.024673456 0.0087933708 -0.025874153
0.023558641 0.0087818615 -0.025755763
0.022705344 0.00878454 -0.025714666
-0.018476557 0.009028716 -0.01793617
0.01845208 0.0089101642 -0.021068692
-0.0093584899 0.0089057535 -0.024092957
-0.010363384 0.0088471435 -0.02408272
0.017593985 0.0086192079 -0.021034494
0.0041582063 0.0089444555 -0.020608306
0.0030201953 0.0089385454 -0.020544261
-0.0017028712 0.0087713972 -0.019676566
-0.0061945561 0.0088621303 -0.019956812
-0.0069560148 0.0086648036 -0.020343661
-0.023440463 0.011009879 -0.023531049
-0.026327064 0.010808686 -0.023887485
-0.0060910005 0.0085639842 -0.016074076
0.0095564369 0.0086018406 -0.025449872
0.01953542 0.0085563175 -0.025763094
-0.019511942 0.0089658741 -0.024260446
0.015888995 0.0084508769 -0.0092881322
-0.0063944831 0.0084938146 -0.024462044
0.00073028915 0.0088712592 -0.024665564
-0.024404379 0.0088337548 -0.023880944
0.010519395 0.0085640885 -0.01247789
-0.018601906 0.0087220594 -0.011135072
0.0055658687 0.0085708126 -0.02515617
0.012978183 0.0088411234 -0.021769896
0.011402456 0.008842133 -0.021704257
0.0025543943 0.0085330606 -0.024888575
0.0015980396 0.00851891 -0.024797007
0.0064399522 0.0089473426 -0.021955624
0.0055341218 0.0088609774 -0.0215507
0.004569551 0.0089751855 -0.022006735
0.0032228902 0.0090528801 -0.022293702
0.0025524665 0.0089279823 -0.021981344
-0.00033049285 0.0088129602 -0.022382408
-0.0018032603 0.0089938492 -0.02188389
-0.0035083406 0.0090155788 -0.021930858
-0.0093807764 0.0089605376 -0.02156119
-0.0099333497 0.0089413226 -0.021468312
-0.018499799 0.0089775063 -0.020763218
-0.019318448 0.0088197403 -0.020823494
-0.030039769 0.0084711611 -0.02414386
0.018120201 0.0084969122 -0.017948464
-0.0050359815 0.008797057 -0.024582073
-0.0073711425 0.0088005252 -0.024033383
-0.0084510818 0.0088818036 -0.024266303
0.028275991 0.0087364558 -0.027068615
0.027324578 0.0086309016 -0.026561141
0.026527131 0.0085992701 -0.026374981
-0.013265028 0.0088361986 -0.020962238
-0.023441443 0.0084282383 -0.023960456
-0.024404358 0.0084179472 -0.023915634
0.0045840554 0.008990461 -0.025102377
0.0025974549 0.0089973882 -0.023260742
-0.007356938 0.0084894989 -0.024421707
0.019472832 0.0095548648 -0.023934007
0.018495901 0.0091138594 -0.024042606
-0.0066551659 0.0086805746 -0.019160792
-0.0073493551 0.0086424612 -0.01898092
-0.0083510485 0.0086384676 -0.018943086
-0.00937034 0.0086696446 -0.019058153
-0.010407285 0.0087418482 -0.019351557
-0.011412635 0.0087547917 -0.01939024
-0.011242657 0.0086596441 -0.017701924
0.018303016 0.0085334629 -0.025598735
0.017617067 0.008521758 -0.025512531
0.016627518 0.008527033 -0.025481418
0.015619149 0.0085475165 -0.025513858
0.013533192 0.008538153 -0.025370017
0.012542391 0.0085489415 -0.025367022
0.0045934375 0.008573629 -0.02513063
0.00062256493 0.0085273683 -0.0247996
-0.0003635902 0.0085504055 -0.024863258
0.01740185 0.0082996394 -0.014350474
-0.0075840019 0.0087698549 -0.020780444
0.0095564332 0.0083303042 -0.025495872
0.019533699 0.0082846675 -0.025814354
0.014962027 0.0086062774 -0.014243498
0.010945523 0.0084600523 -0.012019649
0.010582356 0.0086058378 -0.014063343
0.0025653336 0.0086128656 -0.017829791
-0.0063960813 0.0082248282 -0.024518222
-0.00049895048 0.0087744929 -0.02098012
-0.0012020785 0.009027008 -0.023266569
-0.017811684 0.0088722389 -0.01040791
0.0045886058 0.0083072279 -0.025196955
0.0036284886 0.0084336717 -0.025100142
0.0025449246 0.0082720574 -0.024977803
0.0015936941 0.0082522184 -0.024863347
0.00061837025 0.0082608126 -0.02486594
-0.00036763027 0.0082841106 -0.024929568
-0.0013510324 0.0084422994 -0.024969026
-0.00578597 0.0090584755 -0.022058114
-0.0063602757 0.0087667275 -0.021780342
-0.0073066708 0.0087440908 -0.021907791
-0.012348447 0.0085393917 -0.017159358
-0.013358852 0.0085288845 -0.017098755
-0.0085390285 0.0082365125 -0.011860356
-0.004359778 0.0089519434 -0.024657413
0.028291902 0.0083729923 -0.026738159
0.027623856 0.0083486512 -0.02659066
-0.0068480503 0.0085634254 -0.017364487
-0.0073658861 0.0084536374 -0.016874
-0.0091665927 0.0082752835 -0.016059667
-0.0031672865 0.0086216629 -0.01232256
0.0032298639 0.0092188641 -0.024225071
0.015403291 0.0085007343 -0.013785496
0.022523792 0.0091362093 -0.025643662
-0.012387877 0.0086972639 -0.019125849
-0.013372251 0.0086571984 -0.018937901
-0.01071517 0.0083799623 -0.012468144
-0.019908229 0.0087159593 -0.009668991
-0.0083589461 0.0088921059 -0.021288231
0.0095592495 0.0080562234 -0.025531709
-0.019466791 0.0082448982 -0.024389774
-0.012386955 0.0087573566 -0.020637915
0.00061885081 0.0079886578 -0.024909392
0.0065993611 0.0090636481 -0.023077309
-0.024404313 0.0080018304 -0.023950338
-0.01740269 0.0090927891 -0.024180338
0.016739799 0.0081968307 -0.0091231912
-0.0063961111 0.0079533421 -0.024564207
0.0064912792 0.0086255223 -0.018018141
0.013008157 0.0084741563 -0.013564631
0.0048769768 0.0086352117 -0.018003777
-0.0043650735 0.0082816668 -0.024802789
-0.0051712971 0.0082503669 -0.024653345
-0.0073586348 0.0080850907 -0.024502143
-0.0084606893 0.0082203224 -0.024452522
0.004588617 0.0080358498 -0.02524294
0.021614986 0.0090140812 -0.025657713
-0.0094216373 0.008213982 -0.024406284
0.028288374 0.0078290217 -0.026840761
0.0095648933 0.00777952 -0.025557384
0.012596818 0.0089133326 -0.025114715
0.019541292 0.0077336803 -0.025886402
-0.019465951 0.0076972991 -0.024458736
0.024644634 0.008264631 -0.025936097
0.0064609814 0.0087929908 -0.020033255
-0.00036468357 0.0078734048 -0.024983287
-0.001352286 0.0079018436 -0.02506724
0.0058667101 0.0089539699 -0.023192883
0.020521699 0.0082824714 -0.025862589
0.024660314 0.0090751294 -0.025860921
0.016493434 0.0082538351 -0.012716979
0.015883027 0.0083677359 -0.013205126
0.0057752673 0.0084656589 -0.017292351
0.011501515 0.0084662624 -0.013468772
0.01106271 0.0090866871 -0.023971334
-0.0043626558 0.007735692 -0.024879396
-0.0053065363 0.0077034421 -0.024724618
-0.0063961335 0.0076818354 -0.024610206
-0.0073613785 0.0076825954 -0.024590194
-0.0084624439 0.0076805912 -0.024557188
0.028113255 0.007764522 -0.026565418
0.018463621 0.0087923072 -0.02550213
0.017679075 0.0087214597 -0.02395609
0.014632387 0.0090017542 -0.022539049
0.0055652168 0.008028429 -0.025250703
-0.015405694 0.0085765608 -0.0061032623
-0.014387721 0.0090621337 -0.024326012
-0.015346956 0.0090555586 -0.024285123
0.021542115 0.0082595665 -0.025828734
0.019542648 0.008824259 -0.025696576
0.018854188 0.0089506041 -0.025592327
0.018575503 0.00772091 -0.025778875
0.018017484 0.0077182129 -0.025736362
-0.0094234142 0.0076744221 -0.024511859
-0.020508435 0.0084667299 -0.014110759
0.004812805 0.0085363202 -0.016252562
0.0025912374 0.0085460916 -0.016224131
0.00049948134 0.0084050093 -0.015538335
-0.00039867684 0.0084975604 -0.017236367
-0.0004042238 0.0084264614 -0.01560761
-0.026327714 0.010120148 -0.023952529
-0.027425252 0.010132961 -0.024009496
-0.028385738 0.010136444 -0.024026752
-0.029347256 0.0098614097 -0.024057701
-0.019465569 0.0074236952 -0.024494514
-0.013469619 0.0089783799 -0.024223641
-0.0013522785 0.0074952878 -0.025136143
-0.010517793 0.0086548552 -0.017693207
0.019545184 0.0074580796 -0.025922433
-0.018366903 0.0081005208 -0.024386078
-0.011451988 0.0088791028 -0.021174759
-0.0073599666 0.0074085519 -0.024626032
-0.0057311822 0.0081549846 -0.024579376
-0.0024630968 0.0075069033 -0.0251486
-0.003416501 0.0074916296 -0.025059834
-0.0043622237 0.0074638911 -0.024922818
-0.0053049494 0.007429488 -0.02476044
-0.016461771 0.0091114007 -0.024507031
-0.0063961577 0.007410299 -0.024656206
-0.0084611233 0.0074065737 -0.024593025
0.0055646785 0.0074859746 -0.025345266
0.025766147 0.011753149 -0.025189698
-0.017396027 0.008734202 -0.016648099
-0.025379805 0.01164164 -0.016334012
0.012535615 0.0081462059 -0.025459021
0.011533843 0.0083040725 -0.025477916
-0.019464849 0.0071480907 -0.024522662
0.024573265 0.0073982067 -0.02599515
-0.014487938 0.008183226 -0.024577275
-0.014124219 0.0080091096 -0.024639115
-0.0013503134 0.0072216317 -0.025171921
0.019551883 0.0071804523 -0.025950864
0.023564858 0.0082304776 -0.025833115
0.028296622 0.0080971941 -0.02677422
0.027869029 0.0086443368 -0.02665475
-0.0034164377 0.0072206296 -0.025105774
-0.0043617785 0.0071920529 -0.024966225
-0.0053033289 0.0071554668 -0.024796262
-0.0063946359 0.0071361586 -0.024692044
-0.0073595662 0.007136371 -0.024669483
-0.0084608048 0.0071344189 -0.024636477
-0.029351801 0.008070711 -0.024236649
-0.030041102 0.0080566332 -0.024182305
-0.0064460095 0.0087598581 -0.020762563
-0.015415411 0.0081751756 -0.02455911
0.021549525 0.0074348189 -0.025949687
0.020534704 0.0074545778 -0.025967345
-0.027427074 0.0090293735 -0.02410914
0.016651174 0.008782601 -0.025364026
0.023584003 0.0072599389 -0.025948867
-0.011234776 0.0084379483 -0.0058760196
0.01162033 0.008912649 -0.025065988
-0.019464452 0.0068743266 -0.024558455
0.026516477 0.0088788196 -0.026354164
-0.0058473591 0.0071432628 -0.02473399
-0.0063945632 0.006864544 -0.024738058
-0.011480118 0.0088778958 -0.024191096
0.014562974 0.0083738193 -0.0091701001
-0.028389979 0.0080700554 -0.024230406
-0.0034163687 0.0069495998 -0.025151715
-0.004361324 0.0069201775 -0.025009647
-0.0053016823 0.0068813711 -0.0248321
-0.007358104 0.0068621971 -0.024705321
0.02255925 0.0082404986 -0.025811821
0.0055695418 0.0070736855 -0.025395229
-0.0054595843 0.0090475529 -0.020776391
0.022569994 0.0072760545 -0.025948435
0.021556975 0.0068832301 -0.026024431
0.010515587 0.0090553947 -0.025259778
0.0095817987 0.0091230422 -0.025266245
0.008581521 0.0088759921 -0.025373101
0.0076223146 0.0088648424 -0.025286376
0.0036464427 0.00895744 -0.024929315
0.0027818643 0.0088767391 -0.024678603
0.0013513602 0.0087558329 -0.02459763
-0.00034956634 0.0088045057 -0.024746075
-0.0013964549 0.0089476071 -0.024806708
-0.0034127701 0.0088413488 -0.024809867
-0.012441012 0.0088711157 -0.024145827
-0.016451318 0.0090751126 -0.024354294
-0.018310981 0.0089146029 -0.024055555
-0.020453889 0.0091063213 -0.024211541
-0.022556746 0.0090084895 -0.023669705
-0.023440953 0.0091036931 -0.023830131
-0.025367452 0.0088455603 -0.023929089
-0.026329095 0.0090094432 -0.024024248
-0.028387604 0.0090384204 -0.024149314
-0.029348213 0.009178482 -0.024148926
0.0065804292 0.0081932768 -0.025253788
-0.001566926 0.0091371331 -0.023724109
0.011547262 0.0073405802 -0.025594294
-0.020425897 0.0066045858 -0.024602696
-0.021385074 0.0065873973 -0.024529904
-0.01450373 0.0071278103 -0.024722219
-0.014259311 0.0072578005 -0.02473712
-0.0013520103 0.0066819787 -0.025273964
-0.0180573 0.0087387972 -0.015339151
-0.025368849 0.006463252 -0.024035782
0.018329388 0.0066035576 -0.025851101
0.018743036 0.0066094063 -0.025898233
0.028297892 0.0070996024 -0.026658937
0.028499505 0.0073470809 -0.026979707
-0.010386426 0.0080800243 -0.024417266
-0.011397004 0.0081011243 -0.024440005
-0.012353285 0.008101631 -0.024508059
-0.013431721 0.0081280284 -0.024559721
-0.016448561 0.0081156194 -0.02446793
-0.017405594 0.008100003 -0.024393603
-0.026330646 0.0080285557 -0.024057969
-0.027429162 0.0080559589 -0.024170771
-0.0034162905 0.0066785403 -0.02519764
-0.0043607932 0.0066482611 -0.025053069
-0.0053016227 0.0066098273 -0.024878114
-0.006392993 0.0065902844 -0.024773926
-0.00735984 0.0065938607 -0.024764031
-0.029354947 0.0071004927 -0.024316266
0.0065566134 0.0066489056 -0.025437891
0.00063105486 0.0084889885 -0.017228618
0.022596309 0.0065742657 -0.02599819
0.014536077 0.0090109315 -0.025129393
-0.022480633 0.0065470897 -0.024368063
0.0075106863 0.0072094202 -0.025452748
0.024671895 0.0055628046 -0.023311779
0.02355664 0.0056347735 -0.023518473
0.022729421 0.0056085028 -0.023363099
-0.00036326237 0.0065151267 -0.025208116
-0.0024611875 0.0065562464 -0.025300458
0.0045952611 0.0065361671 -0.02547051
0.010558469 0.0072175413 -0.025621906
0.016610714 0.0081303343 -0.025601462
0.023622489 0.0065497346 -0.025968924
-0.01543654 0.0071799085 -0.02469188
-0.014946047 0.0071916096 -0.024744689
0.02919413 0.0069777519 -0.026922002
-0.0012664255 0.0088481177 -0.021273792
0.0045952126 0.0072146319 -0.025353804
0.018895676 0.0063273422 -0.025919601
-0.020426659 0.0071529187 -0.024534494
-0.010487647 0.008924393 -0.021385625
-0.0073593725 0.0063215755 -0.024807513
-0.02042797 0.0081120096 -0.024416134
-0.021385258 0.008084204 -0.024296775
-0.024404302 0.0075873844 -0.023992732
-0.025367917 0.0080082789 -0.023975521
-0.026331957 0.0070519485 -0.02411741
-0.027430922 0.0070866384 -0.024255484
-0.028392343 0.0071011223 -0.024315089
-0.0268107 0.0049111582 -0.019164741
-0.0034144204 0.0064048134 -0.025233433
-0.0043590032 0.0063743182 -0.025088891
-0.0053014904 0.0063382573 -0.024924114
-0.0058433246 0.0064577013 -0.024823621
-0.0063944161 0.0063212439 -0.024830103
0.006567074 0.0063663498 -0.025443345
0.018481849 0.0063215047 -0.025872454
0.0025357809 0.0065180585 -0.025321275
0.0015877653 0.0064938553 -0.025192991
0.023351489 0.0038170032 -0.017623588
0.022686711 0.0037900694 -0.017479062
-0.024228599 0.0047004558 -0.018356353
-0.026241137 0.0048031397 -0.018749237
0.022235991 0.0054461919 -0.02270101
0.021148959 0.0043482892 -0.019535199
0.015576774 0.0089237653 -0.025390357
0.027654281 0.0080574639 -0.02656576
-0.0034125149 0.0061309971 -0.025269225
0.0054810066 0.0090575907 -0.023619726
0.025601128 0.0047470517 -0.021355003
0.011606121 0.0063357987 -0.025556862
0.02476027 0.0047197081 -0.021193445
-0.015489294 0.0063594729 -0.024800107
-0.01494363 0.0063709952 -0.024851978
0.029257579 0.0058561899 -0.02590318
0.004604049 0.0061193667 -0.025504008
-0.019463636 0.0063265599 -0.02463007
0.025177142 0.0059010051 -0.024662286
0.025039079 0.005801525 -0.024265572
-0.025694743 0.002779495 -0.012168452
-0.025984768 0.0032590069 -0.013995364
-0.0073589142 0.0060492493 -0.024850979
-0.008460626 0.0063196868 -0.024774507
0.029402999 0.0062606893 -0.026370302
0.028583178 0.0064194724 -0.026367933
0.027534185 0.0064336769 -0.026265964
-0.010385721 0.0071281344 -0.024571255
-0.01149273 0.007141903 -0.02460444
-0.012463046 0.0071607716 -0.02466166
-0.013430209 0.0071750358 -0.024702027
-0.016446263 0.0071578138 -0.024591833
-0.017403498 0.0071414597 -0.024516314
-0.01836515 0.0071422085 -0.024509415
-0.021385301 0.0071332268 -0.02445066
-0.022480739 0.0070935823 -0.024288729
-0.023441536 0.0070618726 -0.024160087
-0.024404289 0.0070324279 -0.024041638
-0.025368484 0.0070284754 -0.024024874
0.023667919 0.0040230341 -0.018437192
0.022129877 0.0040568374 -0.018472329
-0.023380749 0.0047538765 -0.01969476
0.021006631 0.0042316429 -0.019077703
-0.0024588611 0.0061466806 -0.025357947
0.0036307648 0.0086949728 -0.016915083
0.013666766 0.0081344582 -0.025466308
0.012542294 0.0073239729 -0.025576383
-0.011386552 0.008540865 -0.013181075
-0.0024614353 0.0081818774 -0.025024921
0.02857743 0.005558148 -0.02581507
0.027660767 0.0055034421 -0.025537252
0.027352134 0.0052389242 -0.02450031
0.026676847 0.0064284429 -0.026151866
0.02653295 0.0054872856 -0.024277538
0.026566671 0.0049417913 -0.022742346
-0.027639644 0.0050404407 -0.020784572
0.0025384296 0.0071934536 -0.025192305
0.0015909746 0.0071688555 -0.025060996
-0.027395295 0.0044491477 -0.018531173
0.024609772 0.0065526552 -0.026046261
-0.0034105871 0.00585711 -0.025305033
0.016392889 0.0045886151 -0.021323264
0.011948308 0.0057338513 -0.025450617
0.010659026 0.0064430237 -0.025558844
0.0095120203 0.0063395984 -0.025471479
-0.015486971 0.0058091879 -0.024861559
-0.014941956 0.0058235712 -0.024923548
0.028528841 0.0058643036 -0.025879979
0.025169646 0.0024097785 -0.01352632
-0.019888379 0.0085855722 -0.017277837
-0.018362965 0.0061814971 -0.024627134
-0.021384461 0.0060379617 -0.024596468
0.021552825 0.0066129379 -0.026083365
-0.025987852 0.0028411113 -0.013577476
0.024589026 0.0068402402 -0.026050627
-0.0084597282 0.0057750568 -0.02486144
0.023489336 0.0020364113 -0.011997417
0.020678336 0.0022923835 -0.012809992
0.020540914 0.0066313483 -0.02609247
0.019471133 0.0065342635 -0.026019469
0.013605947 0.0090264939 -0.025040269
-0.0274329 0.0065151528 -0.024238348
-0.02839746 0.0062377192 -0.024266943
0.025251107 0.00302222 -0.015871957
0.027307345 0.008914005 -0.026555613
-0.013568644 0.0062294006 -0.02487269
-0.021346955 0.0090232044 -0.023911029
0.024412213 0.0045514777 -0.020521864
0.025134182 0.001740519 -0.010967672
0.024479965 0.0017583482 -0.010995805
0.024791779 0.0015223324 -0.010113612
0.012587471 0.0061954074 -0.025613755
-0.010387403 0.0061817952 -0.024748132
0.014543606 0.0072815791 -0.025621995
0.027208099 0.0045504905 -0.022700012
0.013571525 0.00734758 -0.025591135
-0.013330285 0.0062792487 -0.024835035
0.026809389 0.0035481788 -0.019144803
0.0075264368 0.0081445146 -0.025342599
-0.024117263 0.0060976967 -0.022620767
-0.0034181792 0.0081715025 -0.024955198
0.018350611 0.0034058504 -0.018078893
-0.02248002 0.0080391988 -0.024108008
-0.023441516 0.0078823343 -0.024042338
0.0176859 0.0087454095 -0.025262892
0.02754814 0.0072940774 -0.026487917
0.0036218651 0.0078981407 -0.025221333
0.00253658 0.0078742132 -0.025084928
0.015637064 0.007307101 -0.025668159
-0.015620179 0.0055234842 -0.024851441
0.025238605 0.0025491379 -0.014658004
0.025636887 0.0030840114 -0.016526029
0.026026091 0.0050541572 -0.022569284
-0.021793855 0.0054670274 -0.024581239
-0.022198781 0.0053780191 -0.024245709
0.015624193 0.0081348605 -0.0255678
-0.025990749 0.0024292842 -0.013190299
-0.0083221216 0.0055039413 -0.024912879
0.029451048 0.0054114424 -0.02587238
0.028604524 0.0052652024 -0.025800899
0.027993249 0.0051978976 -0.025498971
0.024986895 0.0015458427 -0.011433899
0.019537462 0.008009214 -0.025850371
0.018607864 0.0082345046 -0.025701299
-0.02237108 0.0060301833 -0.024321198
-0.02274356 0.0056947581 -0.023825422
-0.023159308 0.00612453 -0.023831576
-0.02454064 0.0064004436 -0.023793295
-0.025925746 0.0062429346 -0.023181677
-0.027856894 0.0061152913 -0.023793802
0.023443317 -0.00026600808 -0.004486084
-0.00064418837 0.0055725165 -0.025388643
-0.0013478529 0.0055923872 -0.025440052
-0.002169596 0.0055846758 -0.025384635
0.018087478 0.0033772849 -0.017956212
-0.02389187 0.002680134 -0.012971848
-0.024790235 0.0028116405 -0.012291685
-0.025356228 0.0023319162 -0.011802241
0.00062260032 0.0071693696 -0.025029659
0.025451226 0.00071048364 -0.0082992315
0.024638409 0.00059401616 -0.007809177
0.02677455 0.0044646598 -0.021492496
0.0223021 0.00040245056 -0.0069484562
0.013545195 0.0062127039 -0.025729179
0.027972596 0.0048418753 -0.025246218
0.02789014 0.0048467442 -0.024709955
0.026867265 0.0040464327 -0.021324188
0.0050756093 0.0091828816 -0.024138212
0.026331669 0.0043661408 -0.021084666
0.023934236 0.0044721179 -0.020184964
-0.015546195 0.0084945783 -0.012917981
-0.026506882 0.0056136623 -0.020742923
0.0045910385 0.0077618994 -0.025278747
-0.027762385 0.005420249 -0.021679744
0.0015893932 0.0078497753 -0.024952725
-0.016029365 0.005512543 -0.02480498
0.025163123 0.0011732616 -0.010033831
0.028502339 0.0049629621 -0.025743142
0.02559047 0.0027015209 -0.015851423
0.025892446 0.0032547973 -0.017505825
0.022711506 -0.00052178651 -0.0047388524
0.014589211 0.0082979966 -0.025484979
-0.019462794 0.0057785474 -0.024701715
-0.023423834 0.0019784123 -0.011505023
-0.024546726 0.0022060163 -0.011653036
0.02934015 0.0049771629 -0.025860742
0.024447413 0.0011726096 -0.011198327
0.023444405 0.0015551113 -0.010768712
-0.02599133 0.0021138228 -0.013168529
-0.0013511609 0.0069518052 -0.025222942
0.024876123 0.0022827461 -0.013022691
-0.028698139 0.0054579899 -0.023468882
-0.028964518 0.0050105229 -0.02393648
0.025606902 0.0023936965 -0.0158602
-0.0024609491 0.0070975907 -0.025206059
0.027961908 0.0043826923 -0.024613231
0.026625438 0.003963355 -0.019562736
-0.023674391 0.00024234876 -0.0062188953
0.02402732 0.0041940324 -0.019118935
-0.022541814 0.0044157766 -0.020638093
0.017552407 0.0072580092 -0.025739521
0.016626494 0.0073002242 -0.025694266
0.0036822259 0.0091633163 -0.02278401
0.0024623703 0.0089499317 -0.024259001
0.016804008 0.0039589517 -0.020083189
-0.029358219 0.0061275624 -0.024392247
0.015585257 0.0063542835 -0.025724918
0.024484577 0.00083830208 -0.011147603
0.024430672 0.0012745857 -0.012177259
0.026007621 0.0022505559 -0.016509563
0.0039265957 0.0055596605 -0.025507852
0.02294605 -0.0001035817 -0.0067321211
-0.024148431 6.5639615e-06 -0.0065482259
0.008570822 0.0063074566 -0.025404602
-0.0093912296 0.0081359912 -0.012769908
-0.020425506 0.0060585439 -0.024681062
0.019538945 0.0096808039 -0.023859888
0.028524151 0.0046728216 -0.025741711
0.027978154 0.0045613162 -0.025282905
0.018583169 0.0071695857 -0.025850967
0.01802122 0.0074426457 -0.025772393
0.023506856 0.00103838 -0.0081902891
-0.024474932 0.0007497035 -0.0092856586
-0.02259318 0.0051183254 -0.023271009
0.02182796 0.0052170418 -0.021785274
0.006546041 0.0072029829 -0.025386453
0.0036257878 0.0072154477 -0.02531977
-0.028596966 0.0049515553 -0.022101954
0.015915601 0.0047468953 -0.021900341
-0.00036291219 0.0071928501 -0.025089756
0.026535427 0.0026329942 -0.017972469
0.025960537 0.0025042258 -0.017452866
-0.0094225779 0.0071297027 -0.024597093
-0.025394661 0.001549039 -0.011652529
-0.028967749 0.004709702 -0.023881301
0.00062365457 0.0062176697 -0.025188193
-0.024803273 0.0045868494 -0.01791878
-0.025381859 0.0045074746 -0.017613217
-0.027143029 0.003825862 -0.016155988
0.027513379 0.0040482618 -0.022776663
0.022768615 -0.00041916221 -0.0059540868
0.024374923 0.00055397674 -0.010082051
0.020547787 0.0068994053 -0.026025951
0.028009335 0.0042637847 -0.025258869
0.027980233 0.0040922053 -0.024619728
-0.023673298 -0.00010087714 -0.0061535239
0.027499961 0.0058821552 -0.025873363
-0.029480973 0.0047570951 -0.025102824
0.01448725 0.0062678643 -0.025756061
0.027988641 0.0040770881 -0.023471937
0.024406502 0.00022114441 -0.01004687
0.024465216 0.00079263374 -0.012161568
0.027732903 0.0093755815 -0.02657181
0.021994507 -0.0013876595 -0.0039688945
-0.027217936 0.0052676089 -0.020535022
0.024357038 0.00030849501 -0.0067120045
-0.024475833 0.0011148266 -0.0094584227
-0.024584157 0.0013496205 -0.011107624
0.025348129 0.00041846558 -0.0071874708
0.026546681 0.0023331307 -0.017995939
0.025965808 0.0022076294 -0.017491654
-0.0043562725 0.0059632547 -0.02514264
-0.0054353103 0.0059243329 -0.024964899
-0.0094235484 0.0061815828 -0.024767399
0.02482898 0.0015892796 -0.012936071
-0.011493597 0.0061942525 -0.024774268
-0.02478794 0.0016144663 -0.011314169
-0.025395047 0.001071468 -0.011625692
0.0015892759 0.0059489198 -0.025280014
0.027538175 0.0036084615 -0.022792205
0.022845222 -0.00072352961 -0.0064665079
0.022581218 -0.001327347 -0.0042244494
0.024521826 0.00050349161 -0.011096925
0.013483098 0.0053268932 -0.025611266
-0.026560796 0.0037276708 -0.015781254
0.028015057 0.003982909 -0.0252956
0.027985947 0.0038099922 -0.024656639
0.012802405 0.0054470487 -0.025489464
-0.026499534 0.0057669692 -0.021337181
0.0227923 -0.0011100993 -0.0056506842
0.026978241 0.0029963963 -0.018791944
-0.02198917 0.0042999424 -0.021299884
-0.023674458 0.0052368082 -0.020418689
-0.023402799 0.0054745525 -0.021333084
0.014128814 0.0055103041 -0.025798321
0.027543826 0.0033225305 -0.022829592
-0.02481745 0.0064633414 -0.024036646
0.024849156 0.00082686171 -0.012897983
0.00062092394 0.0077145547 -0.024945244
-0.025992436 0.0014845282 -0.013135299
0.027256174 0.0035843179 -0.021576881
0.023636634 -0.00026166812 -0.0070024133
0.023084024 -0.0006528534 -0.0067411661
-0.024469994 -0.00017650053 -0.0082412213
0.0075605828 0.0062081181 -0.025424927
0.0065918025 0.0059326775 -0.025416091
0.0055920687 0.0062349625 -0.025443882
0.0046115369 0.0058395304 -0.025519609
0.0036283564 0.0062629618 -0.025472522
0.0025373492 0.0059734099 -0.025408253
-0.00035787933 0.0059654005 -0.025274739
-0.0013473723 0.0061335824 -0.025343046
-0.0024541244 0.005868841 -0.025378525
-0.027676465 0.0042583719 -0.018933669
-0.025395293 0.00075729936 -0.011624768
-0.027431104 0.003040988 -0.016615137
0.026615808 0.0073243752 -0.026297182
0.022880232 -0.0010682642 -0.0064171404
0.022047779 -0.0017544292 -0.0038594306
-0.0063934419 0.00591233 -0.024894044
0.027979037 0.0035362653 -0.024723917
0.022814659 -0.0016046502 -0.0056681186
0.017727906 0.0047293417 -0.02080299
-0.028978523 0.0040671937 -0.023629248
-0.023107991 0.0049695857 -0.020517543
0.027335385 0.0028182082 -0.021509141
0.027553668 0.0030336566 -0.022856891
0.023839256 -0.00068388879 -0.0084789842
0.024063526 -0.00050203875 -0.0097471029
-0.027673282 0.0040206127 -0.019153774
-0.024143239 -0.001154907 -0.0058810562
-0.027923839 0.0044697933 -0.020837709
0.02668743 0.0035145581 -0.020995751
-0.02447403 0.00038357452 -0.0091130286
-0.023440659 0.0064945519 -0.024160787
0.024443379 -0.0004244782 -0.010052577
0.01764234 0.0064556152 -0.025790557
0.016570924 0.0064433329 -0.025761217
0.024398623 1.8142164e-05 -0.0056159794
0.026440205 0.0017171688 -0.017976567
0.026022905 0.0015799217 -0.017447799
-0.0058365185 0.0053598024 -0.024967164
-0.0077694505 0.0055008046 -0.02491416
-0.0081804469 0.0052245818 -0.02493386
0.025240315 0.00057286397 -0.013346583
0.024862828 0.00036324188 -0.012942865
-0.025395501 0.00044851005 -0.011644155
-0.023671808 -0.00061266124 -0.0060708076
0.0015920494 0.0054024458 -0.025361955
0.00081306696 0.005435776 -0.025352135
0.026765129 0.002732005 -0.020916492
0.017408213 0.0041072927 -0.019545004
0.027604999 0.0047924295 -0.023481756
0.023602711 0.0011540465 -0.0098684877
0.017599123 0.0081254765 -0.025635198
0.028046416 0.0036847889 -0.025271624
0.028086549 0.0031847842 -0.024518013
0.026792334 0.0022525676 -0.021046713
0.020412238 0.004347112 -0.019486919
0.020080501 0.0042608157 -0.01913543
0.02283963 -0.0019432567 -0.0056494325
-0.028582694 0.0037352853 -0.021497086
0.0025518667 0.0088242739 -0.020033449
0.020038923 0.0061066113 -0.025131255
-0.025993975 0.00068986043 -0.013071179
0.028104747 0.0029746443 -0.023757979
0.028005676 0.0032234639 -0.023583546
0.02406873 -0.00081505626 -0.0097880363
0.023139456 -0.0016439892 -0.0067448169
0.022902785 -0.001560647 -0.0064342767
-0.024465958 -0.00074061751 -0.0073699355
0.026542945 0.0032135621 -0.017962441
0.0025839582 0.0055657439 -0.025478676
0.025246141 0.00012621656 -0.013257965
0.01955585 0.0069046877 -0.025986925
-0.02554754 0.00014375523 -0.011678487
-0.0084594432 0.0068602748 -0.024672329
-0.027434036 0.0021344535 -0.016618177
0.025585698 0.0061035044 -0.025479123
0.027664995 0.0027755238 -0.023003668
-0.028384799 0.0044929758 -0.02129072
-0.026588883 0.0030105747 -0.015782356
0.026802143 0.0019597374 -0.021074533
-0.00083513744 0.0089168511 -0.022809044
-0.028039094 0.0035541952 -0.02091524
-0.029761471 0.0039006919 -0.02508834
0.023144597 -0.0019633807 -0.0067865849
0.025552114 0.0072699673 -0.026120022
-0.0054738857 0.0054140426 -0.025002673
-0.024207802 0.0036109947 -0.015338212
-0.023926735 0.0040186271 -0.016891941
0.026647134 0.0019756816 -0.018039688
0.026981933 0.0022684298 -0.018913373
0.026013909 0.0025407858 -0.016440138
-0.028757444 0.0028201379 -0.021750331
0.025273731 -0.00019717589 -0.013237298
0.024914647 -0.00013105199 -0.012881562
-0.025547797 -0.00016823411 -0.01168777
0.023722323 -0.0019045286 -0.0070318282
-0.02945058 0.005109977 -0.024571106
0.022152191 -0.0026489086 -0.0036772788
0.026820065 0.001660917 -0.021082118
0.024058284 -0.0014239252 -0.0099306256
0.025606269 0.0065505058 -0.026105866
-0.024497634 0.0033232458 -0.014241338
0.026103819 0.00070442632 -0.016522855
0.026584549 0.0011378117 -0.01811026
0.026915429 0.0014467426 -0.019241214
0.022626208 -0.0018460676 -0.004171595
-0.023669116 -0.0014738292 -0.0059130043
0.028202774 0.0024462305 -0.023984745
0.023806596 -0.0016124435 -0.0092460811
0.022822352 -0.0024040081 -0.0057883859
-0.023825824 -0.0021458901 -0.0058536232
-0.024302026 -0.0020463131 -0.0062021017
0.026032822 0.0017899051 -0.016522586
0.024944721 -0.00060879439 -0.01288107
0.024643848 -0.00043974072 -0.012328237
-0.025547929 -0.00046747178 -0.011742651
-0.027440144 0.0011741407 -0.016439199
0.025415694 0.00074667111 -0.01379928
0.024438078 -0.0013446771 -0.010235876
0.023149809 -0.0022828728 -0.0068283677
-0.001495298 0.0053351857 -0.02553381
0.026838085 0.0013618581 -0.021089733
-0.024301954 -0.0015730411 -0.006140247
0.025073996 0.0029293858 -0.015505791
-0.027953099 0.0022822097 -0.019837379
0.02857784 0.0040852763 -0.025716245
0.026063332 0.0011817552 -0.017121926
0.026039692 0.0006881468 -0.017564416
0.022677528 -0.0026916005 -0.0041579604
-0.023825811 -0.0024623089 -0.0058949888
-0.024141908 -0.0024796836 -0.0058337599
0.026799841 0.00095276907 -0.019641593
-0.028355209 0.0018897839 -0.021053582
0.024645763 -0.0010485239 -0.012434065
0.010537582 0.0081871878 -0.025533184
0.0085933041 0.0081863739 -0.025443569
-0.0073573571 0.0057748593 -0.024886861
-0.027440865 0.00058760867 -0.016515866
-0.023871485 0.0017632321 -0.010697663
-0.024787173 0.0004259795 -0.010997027
-0.023606922 0.0030427314 -0.014342442
0.025295874 -0.00066760555 -0.013259456
0.024950283 -0.00091592222 -0.012921244
0.024432881 -0.0016485043 -0.010307088
-0.00039672665 0.0089644231 -0.024228945
-0.026275042 0.0017579459 -0.015251681
-0.016443588 0.0061982684 -0.024712712
-0.01740112 0.0061813295 -0.024636582
0.026724337 0.0010507591 -0.021046206
0.025696186 0.0018526763 -0.015832081
-0.027958833 0.0016455986 -0.01968433
0.024534913 3.4343451e-05 -0.011142522
0.024569238 0.00028671697 -0.012259379
0.022477826 -0.00084745511 -0.0042581558
0.026091998 3.676489e-05 -0.015806839
0.026069233 0.00014064834 -0.01672253
0.0260194 0.00026410446 -0.017698571
-0.027681055 0.003348913 -0.018863574
0.017648255 0.0034961514 -0.018380985
0.025892792 0.0010419413 -0.015803367
0.026547959 0.0081768148 -0.026394829
0.025565343 0.0082455464 -0.026142493
0.024651343 -0.0013567172 -0.012474358
-0.024786651 -0.0013733096 -0.010791257
0.027307993 0.0014500134 -0.021435976
0.023155084 -0.0026024766 -0.0068701506
-0.027440708 0.00030294806 -0.01658459
0.010095438 0.0086680837 -0.01293613
0.024508113 -0.0014727823 -0.011497021
-0.027707634 0.00069792196 -0.017950073
0.023190783 -0.0029487796 -0.0068209767
-0.026647421 0.0020197518 -0.01588437
0.026730387 0.00076012313 -0.021084219
-0.027958807 0.0012246259 -0.019770876
0.025436314 -0.0010107011 -0.014288932
0.025647348 -0.00020695105 -0.01524578
0.026046412 -0.0004315041 -0.016891778
-0.02414134 -0.0031396262 -0.0058255345
0.021912241 -0.00099669024 -0.0041696578
-0.029362451 0.0029262416 -0.023664236
0.02282167 -0.0035408959 -0.0044974387
0.029425835 0.0022793673 -0.025697753
0.028923953 0.00228839 -0.025560573
-0.023204992 0.00030362234 -0.0064479113
-0.024149014 0.00034483895 -0.0065985173
-0.029442744 0.0042826645 -0.025310606
-0.023826065 -0.0027700327 -0.005966723
-0.027441604 6.146729e-07 -0.016592607
-0.024785221 -0.0010746457 -0.010169432
0.021597391 0.0019987747 -0.012944356
0.024511157 -0.0019337349 -0.011573046
0.024074761 -0.0023638345 -0.01005353
-0.023352664 0.0040038228 -0.017598286
0.025492763 -0.00030474737 -0.013997227
0.0016666725 0.0088867322 -0.024166241
0.02335616 -0.0032670833 -0.0068786144
0.02674255 0.0004648678 -0.021107092
-0.027959231 0.00093806908 -0.019808337
0.028272508 0.0029623024 -0.024962172
0.029652039 0.0017279349 -0.025703251
0.025400424 -0.0014318228 -0.014469936
-0.027697835 0.001978334 -0.018223703
0.020803964 0.0023885928 -0.014372662
0.026117845 -0.00042851642 -0.015820473
0.029404139 0.0042458139 -0.025838315
-0.026691908 -4.6085566e-05 -0.016131893
-0.027441455 -0.00028410926 -0.016661331
-0.027152646 -8.7667257e-05 -0.016289607
0.029264661 0.0016971864 -0.025564909
0.02449538 -0.0022260956 -0.011674255
0.026740273 0.00041968748 -0.019900203
0.024535609 -0.00073083118 -0.011279315
0.028570509 0.0015774556 -0.025094345
0.024397423 -0.0024844818 -0.010405824
0.024080405 -0.0026773587 -0.010094523
-0.025092283 7.9967082e-05 -0.011451289
0.023392083 -0.0036142208 -0.0068295598
0.023273708 -0.0039433353 -0.0056910962
0.028699478 0.0032435916 -0.025570542
-0.024637034 -0.0020133667 -0.011851713
0.025586741 0.00074219331 -0.015221611
0.023109173 -0.00098860636 -0.0067220926
0.029310571 0.0013876297 -0.025510952
0.029704897 0.0014139786 -0.02563414
-0.025994284 0.00023942813 -0.013130069
0.025324604 -0.0020499788 -0.013432354
0.025361704 -0.001700107 -0.014630973
0.025675436 -0.0011580996 -0.015432119
-0.024463542 -0.0023185499 -0.0069619566
0.026005888 0.00188547 -0.017439336
-0.029584084 0.0020608045 -0.023541465
-0.027205832 0.0031206124 -0.01600869
0.024501162 -0.002536457 -0.011714846
-0.024146644 -0.00053957105 -0.0063361228
-0.029356644 0.0035712607 -0.024927288
-0.027153794 -0.0006852746 -0.016336232
0.028590044 0.0012853667 -0.025101066
0.024412906 -0.0028635599 -0.010591894
0.026156461 -0.0010528527 -0.015828639
-0.026732007 0.00098655745 -0.016082332
-0.026275653 0.00087461248 -0.015377671
0.0095838252 0.0072187744 -0.025581703
0.008619817 0.0072108358 -0.025506839
-0.014947977 0.0078749992 -0.024655342
0.023648078 -0.0012674145 -0.0069421083
-0.025092456 -0.00037592277 -0.011510894
0.025336152 -0.0023615658 -0.013457358
0.025356548 -0.0019954257 -0.014701068
-0.027150903 0.00095239282 -0.016193002
-0.01246161 0.0062079057 -0.024809003
0.025999272 -0.00015975907 -0.017832711
-0.023825511 -0.0031042919 -0.0059474111
-0.024141928 -0.0027963258 -0.0058751553
0.026615316 -0.00063754246 -0.018355563
0.025995897 -0.00074260682 -0.017950922
-0.02768638 0.0025676452 -0.018729448
-0.027148973 0.0019949973 -0.016111821
0.026517952 0.0059441291 -0.025597528
0.029368682 0.0032073371 -0.02575466
-0.026714092 -0.00087499991 -0.016212106
-0.027154602 -0.00098888204 -0.016344428
0.02406347 -0.0011195056 -0.0098593235
0.026672142 -0.00024976209 -0.020208135
0.024066446 -0.0018937699 -0.009992063
-0.027961189 0.00034963712 -0.01983276
0.02646214 0.0052479617 -0.023347914
0.025328441 0.0017363876 -0.013709113
0.023818409 -0.0012891851 -0.0086525828
-0.02478382 -0.00061079115 -0.0095575303
-0.025996126 -0.00042593479 -0.012986064
0.024438201 -0.00011212006 -0.010011733
-0.014394387 0.0062349737 -0.024881154
-0.024145808 -0.0032605343 -0.0065343529
-0.029219985 0.00096005201 -0.023126826
0.026360421 -0.0012580939 -0.018323407
0.02598892 -0.0013224855 -0.018079221
-0.026279187 -0.0011156909 -0.015401602
-0.026715508 -0.0013424642 -0.01618658
0.024445975 -0.00088887289 -0.010129049
0.024426581 -0.0033541955 -0.011128604
0.026145032 -0.0017863549 -0.015998036
0.027999895 0.0035081096 -0.023546323
0.02846135 0.0021117367 -0.024996817
0.026626369 -0.0015222766 -0.018492237
0.023733655 -0.0023861565 -0.007084325
0.024483865 -0.0032461993 -0.012217119
0.024859054 -0.0030890144 -0.013126448
0.023947457 0.00022192672 -0.0097231418
0.026000889 -0.00098504499 -0.017121583
-0.029284842 0.00052975491 -0.023387715
0.025995208 -0.0016201623 -0.018118143
-0.026284371 -0.002018366 -0.014968336
0.024465872 -0.0020425431 -0.010442659
-0.02468539 -0.0017974488 -0.011151373
0.025283528 0.001884412 -0.015096739
-0.026717054 -0.0016698502 -0.016119137
0.024485527 -0.0028286465 -0.011816025
0.023971351 -0.0031890981 -0.010192752
-0.028314618 -4.6804547e-05 -0.021154583
-0.025997255 -0.0014962964 -0.013065606
0.027667781 0.0024916567 -0.023048669
0.025681136 -0.0020561628 -0.015584558
-0.026279228 -0.000109341 -0.015159786
0.024968961 -0.001536496 -0.012981415
0.023044409 -0.0032635592 -0.0062948763
0.026760807 0.00016488507 -0.021114841
0.027350077 0.0023806244 -0.021550626
0.023821456 -0.00087289885 -0.0095641911
0.023773165 0.00012097135 -0.0090351701
-0.029223582 0.00023715943 -0.023142576
-0.027709028 0.00010784715 -0.017995715
0.025360132 -0.0024476424 -0.014775947
0.024348719 0.00088224933 -0.010102093
-0.026285151 -0.0023349561 -0.014946744
0.02599 -0.0019085966 -0.018187344
-0.028360102 -0.00039558485 -0.021305099
0.028161252 0.0026552342 -0.023673847
-0.029695265 0.0010130107 -0.023548335
0.028165156 0.00096836686 -0.023978397
0.02381842 -0.0028350689 -0.009535104
-0.029837683 0.00030431524 -0.023605317
0.025965771 -0.0018399991 -0.017380297
-0.027708814 0.0012498386 -0.017772913
-0.028766727 -0.00018358603 -0.022001266
0.025951663 -0.0024168342 -0.01752919
0.029409828 0.00091384724 -0.02550374
0.028562782 0.00085690245 -0.025085628
0.024397416 -0.0031581186 -0.010693401
0.023898857 -0.0035834201 -0.010322958
0.027681956 0.0019178204 -0.023118451
0.028186353 0.0019162409 -0.023935869
0.025267871 -0.0030526184 -0.013631597
0.025356224 -0.0031735413 -0.014469206
0.025740279 -0.0029295385 -0.015694022
-0.027709479 -0.00075260922 -0.018150195
-0.025993016 -0.0028938614 -0.014138237
0.028009193 0.00073001161 -0.023657545
0.023027787 -0.0035385154 -0.0053385347
0.025991397 -0.0024948902 -0.018295497
0.024316145 -0.0035324357 -0.01052171
0.026885455 -0.0011969693 -0.018568248
-0.028360721 -0.00095995888 -0.02139464
0.023796482 -0.0020688958 -0.0093608797
-0.025369069 -0.0015694499 -0.011895612
-0.028360842 -0.0012398772 -0.021446988
-0.027442548 -0.0007336922 -0.0166886
0.028143177 2.5443733e-06 -0.024217516
0.028006928 2.8531998e-05 -0.023796499
0.023620514 -0.0034484975 -0.0096591115
0.024660038 -0.0025784075 -0.01267609
0.02606258 -0.0032024495 -0.016498044
0.029416608 -0.00063382462 -0.025638908
0.024654461 -0.0018147267 -0.012549996
0.026167275 -0.0028440617 -0.016136348
0.025989765 -0.0029323585 -0.018384188
-0.025434703 -0.0025067739 -0.012182698
-0.027977763 -0.0022774376 -0.019567162
-0.024489187 -0.0020462498 -0.012801275
-0.02569814 -0.0029541291 -0.01291804
0.027663736 -0.0010803379 -0.023416847
0.026663711 -0.0033045821 -0.018733189
-0.02771043 -0.0017629601 -0.018311173
0.025309211 -0.0014333166 -0.013362229
0.025336662 -0.0026641153 -0.013512656
0.026966171 -0.0033276342 -0.01917769
0.026627818 -0.002950415 -0.020844653
0.028548239 -0.0015753098 -0.025385216
0.027401133 0.0017621033 -0.021663055
-0.026668996 -0.0027556606 -0.016255915
-0.027284993 -0.0030039139 -0.016495138
-0.024790514 -0.0023018904 -0.012471944
-0.025997212 -0.0025138818 -0.013332531
0.029439064 -0.001484897 -0.02575019
0.025852008 -0.0027754121 -0.01787518
0.029386183 0.00022246689 -0.025547907
0.028512551 0.00012334809 -0.025144696
0.024990199 -0.0024623685 -0.013091981
0.027377428 -0.0030032508 -0.021703273
0.026894918 -0.0030922256 -0.02138339
0.026636129 -0.001968082 -0.01855053
0.027478697 0.00068554655 -0.021924689
0.023837892 -0.0030172132 -0.0089100301
0.028101349 -0.0022946447 -0.02400586
0.02768735 -0.0021125488 -0.023408085
0.025996463 -0.0022064336 -0.018226281
-0.029434621 -0.0017625391 -0.023521781
0.029433658 -0.001758974 -0.025817513
0.028552523 -0.0018572919 -0.025429964
-0.028764449 0.0017796569 -0.021692082
-0.02772961 -0.0029261969 -0.01751031
0.028096223 -0.0025721528 -0.024073631
0.027212547 0.00069799274 -0.02142781
0.023809368 -0.0031132102 -0.007275492
-0.025472166 -0.00084481761 -0.011799991
-0.027456334 -0.0037130825 -0.016479582
0.029431479 -0.0012010746 -0.025713071
0.028107418 -0.0009518005 -0.024491847
0.027998479 -0.00093320385 -0.024155319
-0.028769111 0.00076097623 -0.02172026
-0.027739737 -0.0035205744 -0.017083988
0.026645975 -0.0027060769 -0.018665418
-0.02909882 0.0018979907 -0.023104131
0.027230157 -0.00028010085 -0.021485627
0.027512649 -0.0028983727 -0.022524565
-0.029428698 -0.00019938499 -0.023384392
-0.027711846 -0.003349334 -0.018573686
0.0238213 -0.00020234659 -0.0084474981
0.029449241 -0.0023271032 -0.025891811
0.028577385 -0.002434019 -0.02548179
-0.02903254 0.00094982609 -0.022356689
-0.027323306 -0.0019459799 -0.016509771
-0.027962083 -0.00050535053 -0.019965529
0.02677753 -0.00042045489 -0.021180913
0.023920005 -0.0036813579 -0.0077684671
0.028529933 -0.00086479262 -0.025292277
0.027450161 -0.00036217272 -0.022038519
0.026601037 0.00024943426 -0.018229067
0.029437033 -0.0020396635 -0.025864735
0.028135998 -0.0019545332 -0.024615109
0.028039945 -0.0018247552 -0.024070337
-0.028765272 -0.00072148815 -0.022166088
-0.029031707 0.0013719387 -0.022301495
0.028671933 -0.0027746595 -0.025537506
-0.028378386 0.00066273287 -0.021175712
0.02722518 -0.0014650486 -0.021564931
0.026807195 -0.001302585 -0.021270022
0.029498314 -0.0027822293 -0.025862157
-0.02943206 -0.001052998 -0.023454621
0.026631108 -0.00079428032 -0.020421013
-0.029274514 -0.0023782812 -0.024324462
0.028553678 -0.0021368749 -0.025482267
-0.028171955 -0.0024286248 -0.021256194
0.026649443 -0.001528699 -0.020511806
0.029547641 -0.0032381378 -0.025832593
0.029014302 -0.0032729246 -0.025678769
-0.029222408 -0.0021259598 -0.025971606
0.026146179 -0.0023812838 -0.016107306
-0.027961489 -0.0013391525 -0.02016905
0.02670555 -0.0024375059 -0.020536214
0.029406244 -0.0035190322 -0.025869086
0.028069841 -0.0029733814 -0.024220556
0.026860712 -0.0023478679 -0.021329328
-0.029082697 -0.0023718588 -0.026098475
-0.028608132 -0.0022359267 -0.022305831
-0.029477883 -0.0021847226 -0.023724809
-0.02872007 -0.0026834719 -0.024281234
-0.029664848 -0.0028716698 -0.024424031
0.027762117 -0.0028367899 -0.023591086
0.027326463 -0.002390299 -0.021717563
-0.028743677 -0.0024091974 -0.023331806
-0.027299793 -0.0012427531 -0.016519129
