# .PCD v0.7 - Point Cloud Data file format
VERSION 0.7
FIELDS x y z
SIZE 4 4 4
TYPE F F F
COUNT 1 1 1
WIDTH 1233
HEIGHT 1
VIEWPOINT 0 0 0 1 0 0 0
POINTS 1233
DATA ascii
-0.018428797 0.026778948 0.009595871
0.02185539 0.026575923 0.0090232342
0.020925179 0.021598965 0.0076280534
-0.0055789985 0.023618985 -0.00062977523
0.0074829031 0.02353543 -0.00075665861
0.009473959 0.023894642 -0.00081326813
0.02355187 0.026512904 0.010686249
0.024133608 0.026729397 0.010962412
-0.019487577 0.026482224 0.011324212
-0.018507192 0.026557961 0.011803165
0.011462934 0.024868609 -0.00091477484
0.026820157 0.026951279 0.014156222
0.014424221 0.026093978 -0.00093039125
0.027110329 0.02758019 0.014905855
-0.017280014 0.027544471 0.012094691
-0.017563494 0.027322179 0.011657387
-0.021301677 0.026159689 0.013375342
0.0064530838 0.026157036 -0.00061023235
0.021151328 0.026997495 0.0087525249
0.009454635 0.025759764 -0.00072347373
0.012449245 0.025606854 -0.00091737509
0.01044847 0.026124928 -0.00075079501
0.011448461 0.026113592 -0.00082888454
0.012444736 0.026104037 -0.00089135021
0.013434573 0.026099229 -0.00090696663
0.015411549 0.026090508 -0.00093819946
0.016151832 0.026087906 -0.00094601512
-0.018265536 0.026980292 0.0058788806
-0.016707791 0.025628755 0.010829657
-0.0035853907 0.025605483 -0.00056535751
0.010456988 0.025501007 -0.00079960376
0.011458006 0.02548904 -0.00089135021
-0.0084255878 0.02627643 -0.00053735822
-0.0066067707 0.024533015 -0.000640966
-0.017559072 0.027823366 0.012063459
-0.01690763 0.027709236 0.010938987
-0.010417501 0.023406902 -0.00062977523
0.0064505395 0.026406366 -0.00060242414
-0.00056676939 0.025585819 -0.00053020567
0.02089986 0.027219921 0.0082840025
0.021605827 0.027158558 0.0088417679
0.0024512801 0.026307832 -0.00058291852
0.003446687 0.026304401 -0.00055167824
0.0044426583 0.026300527 -0.00052823126
0.0054462049 0.026292089 -0.00055557489
0.0074537396 0.026272759 -0.00064538419
0.0084517226 0.026265632 -0.00066880882
0.009447271 0.026259556 -0.00068442523
-0.018387357 0.026991267 0.012000993
0.013433026 0.02634741 -0.00089915842
-0.018364122 0.027579505 0.011738598
-0.017793769 0.02781128 0.011907279
-0.016896827 0.027373876 0.011797965
0.016151238 0.026335116 -0.00094601512
-0.0065664221 0.025610354 -0.00059128553
-0.017494509 0.027174752 0.0052229464
-0.018538026 0.026882404 0.010751575
-0.018606579 0.027414644 0.0095438212
-0.02073844 0.026380479 0.013281628
0.0134377 0.025849689 -0.00093039125
-0.020527972 0.0273058 0.013369083
0.0034421738 0.026679121 -0.00053995848
-0.0025725923 0.025596688 -0.00057511777
-0.017199324 0.026476439 0.00056889653
0.023529725 0.027431283 0.010480851
-0.014792258 0.02740984 0.0052541792
-0.01134737 0.023797186 -0.00053474307
-0.016534211 0.026755333 0.00091248006
0.021551169 0.027531579 0.0087447166
0.0044383649 0.026675161 -0.0005165264
0.005440155 0.026667641 -0.00053214282
0.0064454526 0.026657339 -0.00057899952
0.0074500572 0.026646584 -0.00063365698
0.024246218 0.026393764 0.011011869
0.013429873 0.026597228 -0.00087573379
-0.018541085 0.027433546 0.010741159
-0.0084008183 0.025394322 -0.00059463829
-0.0073890183 0.025761796 -0.00057899952
0.020901656 0.02748036 0.008221522
-0.018516565 0.027895842 0.0098145157
-0.016393123 0.02782508 0.0093459934
0.026700402 0.026284462 0.013531506
0.022342972 0.027297547 0.0090961158
-0.019166624 0.027456343 0.010907754
0.016241606 0.025298392 -0.0010240972
-0.0025582593 0.024596542 -0.00060439855
0.00045944378 0.024576921 -0.00059659034
0.01043961 0.026626341 -0.000696145
0.011439307 0.026615325 -0.00076641887
0.012436783 0.026604857 -0.00083408505
0.013426722 0.026847202 -0.00085230917
-0.015366836 0.026992263 -0.0017112717
-0.014940759 0.026619487 -0.0029294491
-0.018407574 0.028247014 0.012016609
-0.0055346489 0.020872148 -0.00073127449
-0.016365955 0.028088368 0.00925228
-0.010451159 0.02441493 -0.00054778159
-0.0074935909 0.024757933 -0.00062844902
0.020906489 0.027731132 0.0080653429
0.021552645 0.0277937 0.0086900443
0.0024441648 0.026808009 -0.000563398
0.0034391042 0.026929054 -0.00053215027
0.004435461 0.026925039 -0.00050871819
0.0054347832 0.026918966 -0.00050871819
0.0064391326 0.02690926 -0.00054775923
0.007445259 0.026897505 -0.00061023235
-0.018435588 0.027560657 0.012125924
-0.018495465 0.028218176 0.011709437
-0.017710956 0.02827643 0.011928096
-0.017541965 0.028095813 0.012000993
-0.016152101 0.026603967 -0.0023880377
-0.015628761 0.02681143 -0.0025733635
-0.0094636176 0.026416793 -0.00048921257
-0.019086218 0.027281985 0.0090336353
-0.016140239 0.026411796 -0.0052408576
-0.016289843 0.026465278 -0.0034292117
-0.016511088 0.026524574 -0.00063886493
0.014420395 0.026591297 -0.00090435892
0.022334414 0.027875233 0.0095021725
0.023392821 0.027985297 0.010595411
0.024066424 0.027470496 0.010886937
-0.01940939 0.027247675 0.011626169
-0.010506393 0.020654293 -0.00069092959
-0.015808834 0.027008809 -0.0040851533
-0.016011851 0.027140401 -0.0028045103
0.0064365156 0.027158946 -0.00053995103
-0.00057716854 0.026585069 -0.0005165413
-0.015976047 0.027464002 0.00041271746
-0.013092389 0.027211584 0.00078754127
0.021422368 0.028049573 0.008575514
-0.018225787 0.0283526 0.0089399368
0.0024400763 0.027182678 -0.00055557489
0.0034374502 0.027178273 -0.00053215027
0.0044324957 0.027175006 -0.00050090998
0.0054307263 0.027169641 -0.00049310178
0.012429381 0.027105737 -0.00078202784
0.013425115 0.027095724 -0.00084450096
0.014416309 0.027089261 -0.00087573379
0.015405704 0.027083922 -0.00089915842
0.016144667 0.027083542 -0.000883542
-0.018362598 0.028649572 0.011865631
-0.017538158 0.028605767 0.011532456
-0.015513053 0.026696816 -0.0034760684
-0.010514883 0.026435757 -0.00040332228
0.020908279 0.027990971 0.0080028772
-0.014832338 0.027817735 0.0053635016
-0.016369304 0.028361157 0.00925228
-0.0084369909 0.024658307 -0.0006358996
-0.0036180038 0.02736243 -0.00049309433
0.010431589 0.02725134 -0.0006531924
0.011428699 0.027242618 -0.000696145
0.012425093 0.02735701 -0.00075079501
0.013420375 0.027347628 -0.00080545247
0.0064313579 0.027410377 -0.0005165264
-0.015634587 0.027189132 -0.0014405772
-0.0045900904 0.026592011 -0.00052851439
-0.0036027748 0.026608467 -0.00052826107
-0.016108295 0.02756596 -0.0010865703
-0.016054114 0.027253978 -0.0041163862
0.023615744 0.028324805 0.010814041
0.024066161 0.028291255 0.010928586
0.00042338856 0.027326241 -0.00051651895
-0.016110906 0.027720153 0.00041271746
-0.012599034 0.027637325 3.7893653e-05
0.020907022 0.028260466 0.0080341101
0.021422438 0.028315892 0.0085651129
0.0024383105 0.027432019 -0.00055557489
0.0034343656 0.027428374 -0.00052434206
0.0044281818 0.027425893 -0.00048529357
0.014413409 0.027339397 -0.00085230917
0.015403064 0.027333962 -0.00087573379
0.01614167 0.027334403 -0.00085230917
0.016148545 0.026708398 -0.00092258304
-0.015912967 0.027284123 -0.0038040355
-0.011558009 0.027317781 -0.00027445704
0.021941669 0.028237233 0.0090961158
0.022284577 0.028258197 0.0097312331
-0.019676967 0.025477082 0.012047842
-0.011376569 0.024430277 -0.00045927614
-0.016247584 0.027840834 0.0015684217
-0.0025884528 0.026598604 -0.00054193288
0.020558663 0.028116256 0.0066597611
-0.0034999065 0.027738979 -0.0004722774
0.011423545 0.027618367 -0.00066489726
0.012419145 0.027610155 -0.00070393831
0.013415669 0.027599759 -0.00076641142
-0.016027624 0.027947303 0.00016283989
0.006427465 0.027661126 -0.00050090998
0.0074359328 0.027399609 -0.00056599826
-0.015218372 0.028517803 0.0056914687
-0.016701134 0.028405428 0.004442066
-0.0094390865 0.025533779 -0.00054257363
0.00041554682 0.027703337 -0.00049310178
-0.0064151343 0.026408002 -0.00053267926
-0.0074336696 0.027401067 -0.00047554821
-0.016041005 0.027642867 -0.0027420372
-0.015956139 0.027425922 -0.0024296865
-0.012311934 0.027531516 -0.00013910234
0.021696299 0.028550752 0.0082631856
0.022352189 0.028589465 0.0086275935
0.0024350416 0.027682267 -0.00054776669
-0.0055654775 0.022868611 -0.00066100061
0.021701418 0.023401994 0.0091046244
-0.016511304 0.028261896 0.0030989498
-0.0015818272 0.026591569 -0.00053020567
-0.0055765305 0.025568828 -0.00056006014
-0.0045996662 0.025614409 -0.0005575493
-0.017246706 0.027029917 0.0037236512
-0.016479319 0.02786334 0.0030208603
-0.0015692282 0.025591193 -0.00055169314
0.00044428743 0.025576536 -0.00055559725
0.0014532004 0.025691751 -0.00058422238
0.020684902 0.028392971 0.0067847073
-0.0044044703 0.02760054 -0.00048009306
-0.0035073012 0.027991707 -0.00045145303
-0.0026080962 0.027603487 -0.00049506873
0.027509827 0.027483009 0.013875097
-0.015762532 0.028788965 0.0056810603
-0.014943125 0.028249182 0.0056914687
-0.015901001 0.028159482 -0.00021198392
-0.015812563 0.028051341 -0.0012115091
-0.0074073803 0.026392201 -0.00053410977
0.015408538 0.026587181 -0.00091737509
0.0014314651 0.027565587 -0.00054192543
-0.0055242293 0.026458984 -0.00052434206
-0.015963631 0.028260607 0.0007250756
-0.012994794 0.028191868 0.00044395775
-0.0074505378 0.028032608 -0.00043843687
-0.011470506 0.027843807 -0.00027444959
0.00041192211 0.027954038 -0.00048529357
-0.015726907 0.027432058 0.0081590563
0.016213495 0.027732279 -0.0008366853
-0.016002538 0.028438374 0.002380535
0.021599026 0.024526665 0.009154126
0.021609258 0.028632864 0.0065738633
0.015790015 0.025340557 -0.0010240972
0.022454364 0.028486125 0.01018934
-0.018418467 0.028901037 0.011594921
-0.017886406 0.028862143 0.011282578
-0.012349347 0.026679296 -0.00013165921
-0.016959315 0.028737891 0.01018934
-0.016372701 0.028634019 0.00925228
0.014403182 0.028092522 -0.00076641142
0.015395174 0.028085049 -0.00080545247
-0.011475144 0.028222134 -0.00027444959
-0.017152669 0.02846005 0.0061756223
-0.0084387977 0.026780766 -0.00050871819
0.026529979 0.025754411 0.013156682
-0.015243521 0.028359432 -0.00061804801
-0.013046457 0.028374771 -0.00021198392
-0.013549222 0.028463241 0.0005376637
-0.0095082168 0.028184922 -0.00040329248
-0.015974177 0.027670145 -0.0036478639
-0.017244456 0.02662709 0.0021931306
-0.0094904769 0.027427079 -0.00043455511
-0.014632674 0.0285764 0.0014434829
-0.013446705 0.028261248 0.0010374263
-0.001611039 0.028223705 -0.00046186894
0.02118702 0.028472934 0.0075343549
-0.016050475 0.02871008 0.0049105883
0.015399132 0.027709335 -0.00084059685
0.021775963 0.028741954 0.0051917061
-0.0024975128 0.028232813 -0.00045145303
0.0084295906 0.028139364 -0.00057899952
-0.015503446 0.027900938 -0.0070524961
-0.01150771 0.026609499 -0.00027446449
-0.016201375 0.028250244 0.0018026829
-0.015948569 0.027709249 -0.0044287443
-0.016572213 0.026806077 -0.0012115091
0.020887181 0.028516978 0.00091248006
0.021142418 0.028498968 0.00075630844
0.02222852 0.028686251 0.0024117678
0.021537161 0.028662011 0.0044732988
0.021183496 0.028547361 0.0034425408
-0.013153827 0.028620202 -0.000290066
0.020675711 0.027894609 0.0070658177
-0.016053768 0.028539423 0.0033175945
0.019295437 0.028736779 0.0028282478
0.019009782 0.02855364 0.0034737736
-0.0025047362 0.028485654 -0.00043063611
0.022251774 0.028693104 0.0071282983
-0.017672544 0.028890576 0.0089399368
0.013404548 0.028230216 -0.00067661703
0.0044183303 0.02842572 -0.00046708435
0.0054150894 0.028421417 -0.00044625998
-0.016003655 0.028124766 -0.002866976
0.0074229278 0.028401084 -0.00051653385
-0.015876425 0.027491905 -0.0053189397
-0.015501162 0.027699228 -0.0067089126
-0.015517695 0.02791813 -0.0090203136
-0.015375705 0.028021734 -0.0080832615
0.021935828 0.028554255 -0.00093039125
0.002420418 0.028436301 -0.00050091743
0.019153345 0.02881809 0.0058476478
0.019055139 0.028959066 0.0025367141
-0.016757397 0.026399076 0.010601088
-0.015943529 0.028588168 0.0037861243
-0.014429549 0.028511677 0.0032551214
-0.017359676 0.028277777 -0.0060842037
-0.015655382 0.028188212 -0.0066464394
-0.016255306 0.028457258 -0.003249608
-0.01555538 0.028437205 -0.0026341379
-0.014455086 0.028508758 -0.0025624335
-0.013808141 0.028539404 -0.0022110417
0.011412821 0.028371256 -0.00059983879
0.018555714 0.028689841 0.0024013668
-0.017260959 0.028932359 0.0093876421
-0.0023843516 0.02873686 -0.00041501224
0.00043227896 0.026576009 -0.00053215772
0.0014446098 0.026564961 -0.00057121366
-0.017239621 0.028474972 -0.0056094229
0.0074129682 0.028905122 -0.00046967715
0.0084242839 0.028639484 -0.0005607903
-0.015936041 0.027762588 -0.0015863329
0.0094414074 0.026758723 -0.00065709651
0.019306893 0.028692549 0.0062953532
-0.0015445407 0.028701233 -0.00044000894
-0.013329403 0.02905032 -0.00096163154
-0.012180826 0.029132571 -0.00011827797
-0.011496102 0.029109241 -0.00024321675
-0.010575393 0.029090349 -0.00030568987
-0.009533694 0.029072091 -0.00035254657
-0.0084973704 0.029055193 -0.00039158762
-0.0074725877 0.029042443 -0.00039939582
-0.016441369 0.028838754 0.0085963458
0.01982142 0.028535623 -0.0032105669
-0.015578313 0.028886724 -0.0026545823
-0.01445757 0.028880246 -0.0025702417
-0.014025224 0.028944438 -0.0019611567
-0.015965575 0.027723841 -0.00075860322
-0.015568493 0.027874278 -0.011456661
0.0084460098 0.026764631 -0.00064538419
-0.015751192 0.028408598 -0.0075210258
0.021364722 0.028601697 0.0016621277
-0.015798854 0.028374955 -0.0084997341
0.008415252 0.029143069 -0.0005165264
0.018111227 0.029321272 0.0012873039
-0.0074625742 0.028537802 -0.00041501969
0.0024086256 0.029189564 -0.00046967715
-0.0044411737 0.028433207 -0.00042618066
0.01241398 0.027862702 -0.00066489726
-0.0064145345 0.027390784 -0.00047554821
-0.0054206997 0.027405158 -0.00048478693
0.020955218 0.028629132 0.0065348223
-0.0015980713 0.027594723 -0.00049506873
-0.00058977678 0.027586319 -0.00049506873
0.019836547 0.028737361 -0.0035541505
-0.016185215 0.028802898 -0.0034604445
-0.014463751 0.029129582 -0.0025624335
-0.015904078 0.028323371 -0.009629406
-0.002394598 0.029241057 -0.00039158762
-0.015651057 0.028822957 -0.0073648468
-0.016165247 0.029291276 -0.0024609268
-0.016109692 0.029481847 -0.0018986836
-0.015885016 0.029489625 -0.0018049777
-0.015673811 0.028711723 -0.0083019063
0.0084115975 0.029394329 -0.00050090998
-0.015469195 0.028229628 -0.0018362105
-0.013462799 0.028662905 -0.0015461743
0.0084381029 0.027513387 -0.00061611086
0.019066039 0.029313844 0.0023024529
-0.010535499 0.027445067 -0.000372082
0.019659752 0.02870867 0.00038148463
-0.016233115 0.029187817 -0.0033433139
-0.015495716 0.029205594 -0.0024671704
-0.014559118 0.029366897 -0.0026670769
0.022468096 0.028709397 -0.0027472377
0.022329681 0.028431058 -0.0019923896
-0.015693942 0.028994299 -0.0079270825
0.012404992 0.028490912 -0.00060439855
-0.016226811 0.029684588 -0.0023047477
-0.0084560271 0.027412135 -0.0004716441
0.016311064 0.029313706 -0.00059127063
-0.0044282917 0.029389445 -0.000372082
0.013410152 0.027852971 -0.00071956217
-0.00054831803 0.029446926 -0.000411883
-0.0054191649 0.028388826 -0.00043065101
-0.0033582859 0.028566897 -0.00041725487
-0.0023903642 0.028989363 -0.00039939582
0.018148717 0.029225338 -0.0035541505
-0.016236247 0.029557757 -0.0033511221
-0.014554312 0.029612076 -0.0026920587
-0.01483343 0.028473269 0.00047519803
0.020931121 0.02844635 0.0072844625
-0.018023049 0.028645061 0.0091585815
0.013398051 0.028732618 -0.00062976778
0.020775525 0.029180288 -0.0028982162
0.0024301838 0.027933467 -0.00053214282
0.0034303274 0.027803294 -0.00051651895
0.0044250544 0.027800351 -0.00048138201
0.011405489 0.028873993 -0.00055557489
-0.01238724 0.028521959 -0.00017655641
0.018210638 0.029858194 -0.00046186894
-0.015885437 0.029863324 -0.0018205941
-0.014065908 0.029580198 -0.0018674433
-0.013819626 0.029462066 -0.001315631
0.019509679 0.029201373 -0.001742512
-0.010558685 0.028456612 -0.000334993
0.020776222 0.029542075 -0.0029294491
-0.006441677 0.028401408 -0.00041307509
-0.015815007 0.027934462 -0.0023047477
0.01816318 0.029378813 0.00038149208
0.019138118 0.029766338 0.0008187741
-0.0064663868 0.029412754 -0.00036232173
-0.01276747 0.030174349 5.351007e-05
0.017850067 0.029105686 -0.0064277947
0.018083215 0.029109061 -0.0063965619
0.021460921 0.02861584 -0.0026594773
0.0054246206 0.027670013 -0.00047489256
0.0064247437 0.027911145 -0.00049310178
0.0074281096 0.027901068 -0.00053214282
0.0094337501 0.027507365 -0.00062587112
0.01042547 0.027751628 -0.00062195957
0.011418878 0.027870206 -0.00063365698
0.019864352 0.028903373 -0.0041788593
0.014407951 0.027716201 -0.00080545992
-0.015785968 0.02918509 -0.0073492378
-0.015973071 0.028322544 -0.0033198893
0.019341288 0.028879069 0.0018495396
-0.016121181 0.029859329 -0.0018830672
0.020777062 0.029781889 -0.0029606819
-0.018762408 0.028422631 0.010938987
-0.0034297612 0.030136826 -0.00033692271
-0.00039189123 0.030229989 -0.00035254657
0.0023920704 0.029697934 -0.00040460378
-0.015968507 0.028691571 -0.0064902604
-0.016033424 0.027887408 -0.00277327
-0.016290585 0.030204246 -0.0021485686
-0.015194813 0.030116305 -0.0027108043
0.011399891 0.029499508 -0.00053215772
0.018184828 0.030163515 -2.4572015e-05
0.01921889 0.030057121 -0.00083669275
-0.008512402 0.029562667 -0.00036036223
0.021499099 0.029435448 -0.0028013736
-0.014077293 0.030330259 -0.0018674508
-0.013602322 0.030300811 -0.001492627
0.017861351 0.030047493 -0.0028357431
0.019321701 0.030032102 -0.0029294491
0.0207779 0.030021641 -0.0029919222
0.021500161 0.030038789 -0.0028544813
-0.0034413617 0.030517992 -0.00030568987
-0.010596113 0.029600894 -0.00025882572
0.013387837 0.029488029 -0.00055559725
-0.00039933994 0.030483998 -0.0003291145
-0.0054465421 0.029401034 -0.00036622584
-0.0034494903 0.029432777 -0.00037486851
-0.0023644194 0.029662978 -0.00035774708
-0.0014141519 0.02963379 -0.00038482994
-0.01624983 0.030345941 -0.0029919222
-0.016475724 0.030156307 -0.0035385415
0.018775258 0.02927354 0.0030364767
-0.012700604 0.030581379 6.9133937e-05
-0.0085396934 0.030326895 -0.00029789656
-0.01578865 0.028946646 -0.0083331391
0.0094110528 0.029509645 -0.00053216517
-0.0095758419 0.030344479 -0.00026404113
0.022152185 0.028802678 0.005738318
-0.0075178873 0.030315179 -0.00029008836
-0.0064925123 0.0303012 -0.00030309707
0.012391383 0.029496955 -0.0005165413
0.019087717 0.029640593 0.0018495396
-0.016263144 0.030488666 -0.001875259
-0.015886428 0.030486153 -0.001846619
-0.014083175 0.030705519 -0.0018674508
-0.013519851 0.030727372 -0.0016331971
0.021501046 0.03027793 -0.0028919652
0.0034199581 0.028555103 -0.00048921257
-0.0095507298 0.02958075 -0.00031611323
0.020779878 0.030257188 -0.0030543879
0.020115539 0.030067515 -0.00449121
0.014420113 0.029500248 -0.00060336292
-0.016004855 0.027726827 -0.0042725652
0.0064147562 0.028538952 -0.00045407563
0.0034023989 0.02956119 -0.00043455511
-0.015808215 0.029353205 -0.0069587901
0.016936198 0.03067527 3.7893653e-05
0.018571671 0.030394364 0.00047519058
-0.01266397 0.030940343 0.00010036677
-0.012751067 0.029537382 3.0077994e-05
0.007390026 0.030414941 -0.0003785789
-0.016764598 0.029847648 -0.0050534457
-0.016371736 0.029546522 -0.0044716895
-0.016195303 0.029788993 -0.0034760684
0.015390241 0.028586041 -0.00076381117
-0.00060677715 0.028591003 -0.00045602769
0.00040104054 0.028582215 -0.00045797974
0.0014115497 0.028571293 -0.00048140436
0.0024120696 0.02893866 -0.00047748536
0.0044112112 0.028927466 -0.00044624507
0.0054091923 0.028922424 -0.00043062866
-0.016358892 0.030976087 -0.0019923896
-0.014076659 0.030951511 -0.0018986836
-0.013513444 0.030973729 -0.0016644299
0.010396088 0.030506749 -0.00049506873
0.016937632 0.030921489 6.6608191e-06
0.014581151 0.030466989 -0.0004857704
-0.0065062735 0.030808959 -0.00027445704
-0.0054756254 0.030415945 -0.00029790401
-0.0044534337 0.030402131 -0.00031547248
-0.0034441147 0.030769523 -0.00030568987
-0.0024505984 0.030406518 -0.0003098771
-0.0013771206 0.030566948 -0.00031686574
0.0025663581 0.030619267 -0.00032355636
0.0034334492 0.030536676 -0.00035255402
-0.012535645 0.031191446 9.2566013e-05
-0.011450699 0.031154972 -6.3620508e-05
-0.010520978 0.031130422 -0.00014951825
0.017866662 0.028838199 -0.0066776723
0.01810313 0.028833751 -0.0067089126
0.0063889846 0.030547375 -0.00037403405
-0.016605193 0.030665837 -0.0034396276
-0.015297471 0.030665364 -0.0025992468
-0.01447081 0.03049162 -0.0026034266
-0.01363798 0.027772278 0.0024742484
0.0094223069 0.028507803 -0.00057706982
0.010416885 0.02850242 -0.00058097392
0.018206138 0.02934543 -0.0045224428
0.019872542 0.029480506 -0.0043818802
0.020115919 0.029826842 -0.00449121
0.014396344 0.028595582 -0.00070915371
-0.015936216 0.030385237 -0.0073336214
0.016254555 0.028461041 -0.00075080246
0.019441171 0.028882233 -0.00027445704
-0.014562471 0.02986205 -0.0026795715
0.018598223 0.030363172 0.0015371889
-0.014070204 0.031197444 -0.0019299239
-0.013623348 0.031216949 -0.0017321035
0.0084055495 0.029771985 -0.0004735738
-0.015392767 0.027690895 -0.0085778162
-0.016212 0.028731858 -0.0046161488
-0.016197441 0.029922036 -0.0023984537
-0.015365602 0.029763479 -0.0025702417
0.01693479 0.031176217 3.7893653e-05
-0.012546958 0.03144883 0.00011599064
0.018021466 0.02994749 -0.0054282695
0.0045022089 0.031190872 -0.00034733862
0.018109165 0.029428884 -0.0028982162
-0.016281405 0.031194661 -0.0022214577
-0.015386725 0.031132273 -0.0025754496
-0.010402812 0.031385086 -0.00012608618
0.008378936 0.031163439 -0.00034473836
0.021502053 0.030637741 -0.0029388145
-0.015908094 0.030731276 -0.0074273199
-0.012194263 0.02964128 -9.7453594e-05
-0.016367616 0.031477381 -0.0019923896
-0.013592789 0.031452827 -0.0018362105
0.0064022224 0.029542118 -0.00041502714
0.0074036401 0.029533587 -0.00043260306
0.0026009567 0.031344868 -0.00025492907
0.017925832 0.029670827 -0.0038665086
0.019593567 0.029950052 -0.0035541505
-0.012555851 0.031705294 0.00013160706
-0.007489277 0.029550493 -0.00036036223
-0.013760341 0.028156161 0.0024273917
-0.011868013 0.031677868 6.6608191e-06
0.017470486 0.030412365 -0.00052433461
-0.016239027 0.031426366 -0.002351597
-0.015427386 0.031396303 -0.0024713352
-0.014449013 0.031266153 -0.0024956316
0.007570887 0.031315938 -0.00031461567
0.0085010976 0.031414017 -0.00033692271
-0.016078236 0.030943539 -0.0076459646
-0.015947191 0.030984182 -0.0073336139
0.013475358 0.030512251 -0.00049146265
0.018611642 0.031757906 0.0012352467
-0.014725445 0.02873981 0.0029271543
-0.0055094194 0.031435449 -0.00021390617
-0.0044875294 0.031421658 -0.00022561848
0.017319981 0.031647723 -0.00016513467
0.018253366 0.031795185 0.00089687109
0.017348653 0.031167891 -0.001221925
0.010406639 0.029503666 -0.00053802133
0.018154655 0.030659985 -0.0037103295
0.01933974 0.030226339 -0.0033042729
0.019773059 0.030378774 -0.0044822767
0.020230014 0.030563202 -0.0043870807
0.017797004 0.031692725 0.00016283989
-0.012567239 0.031963024 0.00015503168
-0.011881651 0.031936318 3.7893653e-05
-0.015834453 0.028082473 -0.0054595023
0.015596014 0.031376518 -0.00035515428
0.016546916 0.03141167 -0.0002432242
0.015500914 0.029470503 -0.00063714385
-0.00038612075 0.029977147 -0.00036816299
0.00044230558 0.029590394 -0.00039550662
0.0014143009 0.029555241 -0.00040982664
0.0044042673 0.029553849 -0.00043259561
0.0054036006 0.029547922 -0.00042283535
0.011382512 0.031504124 -0.00046774
0.028176071 0.026279135 0.012813106
-0.0034886673 0.032046422 -0.00018075109
0.019143067 0.032007702 0.00063136965
0.021505188 0.031352106 -0.0030668825
0.020694394 0.030750632 -0.0033667386
0.02223064 0.030991562 -0.003023155
-0.016230995 0.030802805 -0.0023437887
0.018764738 0.032017447 0.00069383532
-0.013003429 0.032242954 0.00028777868
-0.012456955 0.032222703 0.00020448118
-0.011497339 0.032184552 3.7893653e-05
0.013616174 0.031497814 -0.00043649971
0.014606333 0.031498671 -0.00040136278
0.015590967 0.03188229 -0.00031349808
0.017681342 0.031921629 6.6608191e-06
-0.0045102332 0.032060783 -0.00016513467
0.018191423 0.030455142 -0.0043194145
-0.016144747 0.031334255 -0.0077084377
-0.01595976 0.031346027 -0.0073179975
0.016355317 0.029859003 -0.00049310178
0.017959096 0.029123057 -0.00036816299
0.01932577 0.029481292 -0.00047748536
0.011499322 0.032133762 -0.00043062866
0.018764187 0.032269605 0.00069383532
0.01912868 0.03230061 0.00091248006
0.0094711697 0.031518489 -0.00038275868
0.012500178 0.031499997 -0.00045718253
-0.0024779439 0.032163136 -0.00016513467
0.021728825 0.028658193 0.0021618903
-0.00045961142 0.032146771 -0.00012608618
0.02150692 0.03170827 -0.0031356066
-0.0162408 0.028620441 -0.0050534457
0.0076090973 0.032183919 -0.00025102496
0.0086144786 0.032171402 -0.00029007345
0.0096202418 0.032157052 -0.00034473836
0.017422609 0.032194261 0.00015243143
-0.010413015 0.031767353 -0.00011046976
-0.013017589 0.032502528 0.00031901151
-0.012477485 0.032485064 0.00025654584
-0.011518201 0.032446757 9.2566013e-05
0.0043891799 0.030560017 -0.00038965046
0.012618672 0.03212801 -0.00043062866
-0.016091971 0.0316609 -0.0076459646
-0.015937747 0.031693961 -0.0073960871
0.011622428 0.032383271 -0.00043062866
0.010569501 0.032287158 -0.00039492548
-0.0094698947 0.032412861 -0.00010890514
-0.0095256921 0.031462569 -0.00018312782
-0.016087649 0.028694216 -0.0085049421
0.0076062009 0.03243595 -0.00024321675
0.0086084716 0.032426737 -0.00025883317
0.0096146083 0.032412186 -0.00031349808
-0.016361142 0.031624518 -0.0027420372
-0.015488574 0.031793378 -0.0023151562
-0.014457306 0.031773906 -0.0023297369
-0.013794875 0.031930696 -0.0020236298
-0.017457591 0.028811708 0.010845289
0.0036074296 0.031584851 -0.00027250499
0.01261745 0.032378133 -0.00043062866
0.017422598 0.032443851 0.00014201552
0.021381203 0.031001035 -0.0029606819
-0.016129704 0.031962395 -0.0072242916
0.011617527 0.032638218 -0.00039939582
0.0065522306 0.031528924 -0.00030744076
-0.0095233601 0.028691953 -0.00037205964
-0.009415349 0.032901492 -5.5804849e-05
-0.0085632149 0.032463111 -0.00012271851
0.014600848 0.032376889 -0.0003785789
-0.0075583141 0.031463608 -0.0001963377
0.022473179 0.032204606 -0.0030752122
0.01976753 0.031421047 -0.0034604445
0.020206584 0.031372916 -0.0042680949
0.020634588 0.03157289 -0.0035159662
0.015606547 0.030490085 -0.00045017153
0.016504146 0.030492898 -0.00033452362
0.018937899 0.030391648 -0.00018075109
-0.013046084 0.03302234 0.00038148463
0.0025882889 0.031853296 -0.00021198392
0.021506466 0.031953245 -0.0031293556
-0.00040805712 0.030863781 -0.00030568987
0.00060713291 0.030600853 -0.00032328069
0.0016118083 0.030593567 -0.00030961633
0.005390916 0.030552451 -0.00038965046
0.0073804893 0.030920766 -0.00033692271
0.0083900001 0.03053144 -0.00039551407
0.0093950657 0.03051774 -0.00045407563
0.011613471 0.032892197 -0.0003759712
0.01851904 0.033008181 0.00056889653
0.018348606 0.030770682 -0.0028982162
0.021585219 0.030990716 -0.0030335709
-0.0084816832 0.028422862 -0.0004208833
0.016573455 0.032522954 -0.00018855929
0.022468859 0.029434614 -0.0028018951
0.01558886 0.032507513 -0.00031547248
-0.0075978804 0.032488782 -0.0001026392
-0.016206136 0.032183219 -0.0073648468
-0.015981851 0.032188132 -0.0073023811
-0.015408581 0.032581966 -0.0025858581
-0.014432294 0.032506667 -0.0024406239
-0.013804724 0.032804731 -0.0020392463
0.0015629157 0.032500364 -0.0001521036
0.016578175 0.031891286 -0.00022760034
0.017314211 0.031909216 -8.7037683e-05
0.01139123 0.030501077 -0.00049897283
0.012383191 0.03049865 -0.00048140436
-0.016358195 0.032435562 -0.0073023736
-0.016473351 0.031423882 -0.0033120811
-0.0014777966 0.03144161 -0.00022982061
0.022470485 0.030444559 -0.0029029995
-0.013031812 0.032762326 0.00035025179
-0.013534663 0.032518346 -0.0019111782
-0.0055771489 0.033230163 -4.0195882e-05
0.017537996 0.033214945 0.00025654584
0.0086201876 0.031792168 -0.00031349808
0.01982227 0.032164343 -0.0033667386
0.020096198 0.032292314 -0.0041267946
-0.01612795 0.032737248 -0.0024921596
-0.00048645586 0.033166692 -5.1908195e-05
-0.016287794 0.032367181 -0.0018986836
0.0075915251 0.033198774 -0.00018075109
-0.016322209 0.032658428 -0.0074117035
-0.014473325 0.033268817 -0.0023609698
0.0015836284 0.031611014 -0.00021390617
0.010612475 0.032779153 -0.0003330186
0.017536839 0.033467848 0.00026435405
0.0096076783 0.032793541 -0.00027836114
-0.0045915954 0.033320636 -4.1604042e-05
-0.013522381 0.031791855 -0.0019111782
-0.015946018 0.0264243 -0.0050846785
0.020093538 0.032783214 -0.0040851533
-0.012434931 0.032810841 0.0003112033
-0.011544799 0.03283833 0.00015893579
-0.0106795 0.032761134 1.1861324e-05
-0.0014743656 0.033252485 -5.8934093e-05
-0.0016449317 0.033567697 6.6608191e-06
0.012611872 0.032758787 -0.00039548427
0.013608369 0.032502942 -0.00040136278
0.014597176 0.032880109 -0.00036035478
0.017545544 0.032821935 0.00015243143
0.018635252 0.032782245 0.00074589998
-0.016256517 0.033326507 -0.0026920587
-0.015500097 0.033238403 -0.002568014
-0.015928192 0.032371998 -0.0018205941
-0.0085596088 0.030837834 -0.00025102496
0.0075884853 0.03345136 -0.00017294288
-0.016209176 0.032898623 -0.0073960871
0.018692892 0.031706758 0.0020838082
0.011602973 0.033404041 -0.00030830503
0.012603069 0.033393335 -0.00034213811
0.013599087 0.033387572 -0.00034734607
0.017184854 0.032916985 -5.5804849e-05
-0.016398361 0.033658326 -0.0025025681
-0.015354468 0.033649717 -0.0024296865
-0.014493151 0.033650223 -0.0023234785
-0.013816616 0.033183031 -0.0020236298
0.020093095 0.033025667 -0.0040851533
0.021507788 0.033160914 -0.0032168105
0.022473887 0.033172514 -0.0031376779
-0.015904667 0.033732608 -0.0019611567
0.010408124 0.031489048 -0.00043481588
-0.010523247 0.034218248 0.00013160706
0.011591811 0.033917483 -0.00023540854
-0.0035665482 0.034102369 3.7893653e-05
0.019550152 0.029582987 -0.0026170984
0.0046153776 0.031697966 -0.00030049682
0.020554259 0.033225741 -0.0035853907
-0.016403364 0.033908829 -0.0025025681
-0.015520787 0.033917904 -0.0023359731
-0.01448934 0.033896577 -0.0023484752
-0.0095087606 0.033676635 2.3700297e-05
-0.008419117 0.033911474 6.6608191e-06
-0.0073751081 0.033789396 2.0042062e-05
-0.0064617563 0.033662934 1.8365681e-05
0.0045481808 0.034003437 -2.4572015e-05
-0.013061425 0.033536579 0.00040230155
-0.012546053 0.033427309 0.00035025924
-0.011533501 0.033554498 0.00020524114
-0.0045870636 0.034115754 3.7893653e-05
0.0085901376 0.033568349 -0.00018267334
0.009593891 0.033557214 -0.00021000206
0.010597225 0.033545338 -0.0002451539
0.012592491 0.033906937 -0.00026664138
0.013591889 0.033896863 -0.00029788166
0.014592444 0.033510048 -0.00033694506
0.018486947 0.033480644 0.00050926954
-0.013670182 0.033574525 -0.0019064918
-0.016491866 0.033312093 -0.0034666955
-0.0075328629 0.030823696 -0.00025883317
0.0055317692 0.031569798 -0.00032861531
0.019859919 0.03252054 -0.004220508
-0.016079141 0.033302896 -0.0070993528
-0.016412335 0.032491148 -0.0033589303
0.018046744 0.030661855 -0.0018986836
0.0045876894 0.032594148 -0.00018267334
0.0180429 0.030611992 -0.0058030859
0.020435713 0.033581257 -0.0036478639
0.021507805 0.033524979 -0.0032324269
-0.014394363 0.034158342 -0.0022656992
-0.013835 0.034186501 -0.0020236298
-0.010494785 0.033572152 7.109344e-05
0.007578725 0.033836104 -0.00012608618
-0.01641692 0.034182318 -0.0023594126
-0.015402565 0.034168757 -0.0023203641
-0.013620162 0.034202475 -0.0018986836
-0.0085819867 0.031476326 -0.00020219386
0.0075711925 0.034218743 -9.4853342e-05
0.021506596 0.032559451 -0.0031574443
0.020554923 0.032497335 -0.0035723746
-0.016104145 0.033672366 -0.0070524961
-0.016475627 0.033451483 -0.0046473891
0.012583511 0.034294464 -0.00020027161
0.0055968761 0.032581188 -0.00021392107
-0.008445384 0.034430534 7.173419e-05
-0.016472196 0.031613778 -0.0043246225
0.0066013224 0.032571547 -0.00022561848
-0.0083982293 0.033396307 -4.0180981e-05
-0.0025547668 0.034345381 5.351752e-05
-0.016256468 0.031855866 -0.0019611567
0.015585894 0.033507816 -0.00032523274
0.016572412 0.033520732 -0.00021979213
-0.016587326 0.034180038 -0.0034396276
-0.013829282 0.034432366 -0.0020548627
-0.0025376454 0.033747811 1.1861324e-05
-0.0015244912 0.033821601 2.2277236e-05
-0.00047254004 0.032656111 -9.0949237e-05
0.0005232729 0.032414075 -0.00012450665
0.00053287856 0.033745393 6.6608191e-06
0.0075646248 0.0344758 -6.3620508e-05
0.0085757747 0.034333296 -0.00011827797
0.0095789209 0.034323666 -0.00013389438
0.01058277 0.034311954 -0.00016513467
0.011583428 0.034303289 -0.00018075109
0.013583251 0.034284845 -0.00022760034
0.017900361 0.03437002 0.00039710104
0.018511683 0.034283336 0.00064957887
-0.016335351 0.034450416 -0.0022422746
-0.015541548 0.034424707 -0.0023047403
-0.016123133 0.033909239 -0.0063340887
-0.016109319 0.03391359 -0.0070524961
-0.013113732 0.028902486 -2.4572015e-05
0.018459879 0.030350531 0.0022305995
-0.015913697 0.034733914 -0.0019923896
0.022473682 0.033660553 -0.0031446293
0.0085675698 0.034717545 -7.9236925e-05
0.019108113 0.032613248 0.0013185441
0.019626664 0.031706467 -0.0026066899
0.0065760892 0.033594247 -0.00011435151
0.014582121 0.03439977 -0.00026404858
-0.016390478 0.032399405 -0.0048243925
-0.016366383 0.03259635 -0.0054204613
-0.007421216 0.034543641 8.0853701e-05
-0.0092991572 0.033258762 -3.0823052e-05
0.021507334 0.03413472 -0.0032417923
0.022473652 0.034147646 -0.0031585023
-0.016524496 0.034440823 -0.0038665086
-0.013092974 0.034439877 0.00045176595
-0.012425309 0.034420308 0.0004010126
-0.011504261 0.034461785 0.00027842075
-0.010496935 0.034686096 0.00019096583
-0.0094935317 0.034582622 0.0001238063
-0.0084725525 0.034950808 0.00013941526
-0.0064219218 0.0345551 8.5808337e-05
-0.0035361275 0.033329315 -4.798919e-05
-0.0035557281 0.033844035 6.6608191e-06
0.020091303 0.033273216 -0.0040539205
0.0095732482 0.034705121 -0.00011046976
0.010574637 0.034697112 -0.00011827797
0.011575875 0.034688286 -0.00013389438
0.012576126 0.034679953 -0.0001495108
0.013576096 0.034670796 -0.00017294288
0.017900219 0.034746025 0.00038148463
0.018509271 0.034792513 0.00067040324
-0.016513957 0.034608513 -0.0028357431
-0.01526027 0.034656476 -0.0023880303
0.021507462 0.033891179 -0.0032355487
0.02054858 0.033853814 -0.0034708604
-0.016317246 0.034249302 -0.0065058768
-0.016313685 0.032482281 -0.0065839663
-0.0095956232 0.030855589 -0.00021979213
0.015579143 0.034516789 -0.00029009581
0.022713436 0.031366233 -0.0029606819
-0.00043233112 0.031503707 -0.00022237748
0.016571812 0.034517858 -0.00026078522
0.017517667 0.030499313 -0.0012739897
-0.0045730285 0.034608983 9.4689429e-05
0.0086032245 0.032806024 -0.00023931265
-0.016102975 0.034149513 -0.0070837364
0.017895743 0.035009038 0.00044395775
0.018509034 0.035044253 0.00066259503
-0.016518394 0.034683496 -0.0038977414
-0.016524864 0.034861416 -0.0028201267
-0.015268957 0.034909118 -0.0023776218
-0.015918853 0.03498574 -0.0019923896
0.0071690865 0.035000227 3.7893653e-05
-0.016397694 0.03452738 -0.0063028559
-0.015848583 0.034380093 -0.0071149692
0.012566768 0.035193902 -8.7045133e-05
-0.014439734 0.034634925 -0.0023047552
0.016571088 0.035142027 -0.00028226525
-0.012456471 0.035324324 0.00044915825
-0.01151148 0.0352895 0.00033984333
-0.010630699 0.035311576 0.00025655329
-0.0095277373 0.035359867 0.00019799173
-0.0084886607 0.035339043 0.0001745671
-0.0074543972 0.035320144 0.00015895069
-0.0064235646 0.035302486 0.00014722347
0.022473499 0.03451404 -0.0031637177
0.01789126 0.035272412 0.00050642341
0.018509194 0.035294715 0.00064697862
-0.015433809 0.035178121 -0.0022891313
0.0086844228 0.035226531 -4.5388937e-05
-0.015853899 0.03462141 -0.0071149692
-0.00053975359 0.033634447 -2.4579465e-05
-0.013119197 0.03546878 0.00047519058
-0.013601938 0.034691073 -0.0019819811
0.0085624065 0.034973536 -5.5804849e-05
-0.01547152 0.033981089 -0.0094576105
0.0015460886 0.033369876 -6.8284571e-05
0.016444463 0.035396919 -0.00026404113
-0.0054059289 0.035418678 0.00017065555
-0.0074679572 0.035707079 0.00018626451
-0.016563224 0.035196353 -0.0038040355
-0.012466727 0.035837397 0.0004517585
-0.011527015 0.035804916 0.00036066025
-0.010600975 0.035778895 0.00030339509
-0.0095467698 0.035750244 0.00024092942
-0.0085070785 0.035729051 0.00021749735
-0.0064376425 0.03568979 0.00017845631
0.011571713 0.034943927 -0.00011046976
0.0064936206 0.034641616 1.5579164e-05
0.0075091589 0.034908134 6.6682696e-06
0.022392441 0.031637415 -0.0030578598
0.021507079 0.034622382 -0.0032521933
0.022473549 0.034878787 -0.0031793341
-0.013826041 0.034803774 -0.0020860955
-0.015422506 0.035421137 -0.0023359805
0.0014614798 0.034528974 4.3101609e-05
0.0086796694 0.035482418 -2.4564564e-05
-0.0056833252 0.03378848 1.1861324e-05
-0.0044986159 0.033805594 6.6608191e-06
0.01457523 0.034910861 -0.00021198392
-0.0055464227 0.03245908 -0.00012020767
0.0095684584 0.034960963 -8.7045133e-05
0.0013923422 0.033786763 6.6608191e-06
0.0025194921 0.033470504 -8.2224607e-05
-0.0065303985 0.031448055 -0.00021390617
-0.0054295212 0.035938717 0.00023311377
0.017884893 0.035541553 0.00060012937
0.018385982 0.03566492 0.0005897209
-0.0085201543 0.03598981 0.00024873763
-0.00037941523 0.03380597 6.6608191e-06
0.010569191 0.034954179 -8.7045133e-05
0.012571456 0.034936812 -0.00011827797
0.013571812 0.034927551 -0.00014170259
0.021505741 0.03511608 -0.0032293051
0.022473617 0.035122015 -0.0031897426
-0.016545942 0.035433661 -0.0038665086
-0.015427774 0.035672426 -0.0023359805
0.020510538 0.034572352 -0.0035515651
-0.016106466 0.035223261 -0.0064590275
-0.011422923 0.03051351 -0.00012411177
-0.010498838 0.030492023 -0.0001937449
0.015565333 0.035542853 -0.00016900897
0.0024664123 0.036086872 0.00020968914
0.011562108 0.035582628 -5.9694052e-05
0.0034997836 0.034179229 -3.8459897e-05
-0.012177179 0.030448899 -5.0604343e-05
-0.0033989772 0.036173645 0.00028777868
0.0025976654 0.032589413 -0.00016406924
-0.013143821 0.036244188 0.00050642341
-0.012480086 0.03622568 0.00047128648
-0.011411717 0.036191214 0.00038539618
-0.010492126 0.036168747 0.00035025924
-0.0095693488 0.036143269 0.00029559433
-0.0085332822 0.0362508 0.00027997047
-0.0074933115 0.036228314 0.00024873763
-0.0064621661 0.036210626 0.00024092197
0.0065297596 0.035393242 8.8661909e-05
0.0075358264 0.035509057 7.6942146e-05
-0.015663618 0.034767702 -0.0076459646
0.021505434 0.035361126 -0.0032293051
0.022473661 0.035365287 -0.003200151
-0.016473474 0.035621267 -0.0024248809
-0.015430445 0.035922404 -0.0023437887
0.0055052061 0.036047701 0.00016283989
-0.016569195 0.034953412 -0.0037728027
0.017851047 0.030280281 -0.0064902604
-0.016387271 0.035252377 -0.0019611567
-0.01439842 0.035526376 -0.0023340359
-0.013702149 0.035549611 -0.0021173358
-0.011385528 0.031638153 -4.6439469e-05
0.0076841768 0.034793824 -4.0188432e-05
-0.0064766053 0.036472812 0.00027997047
0.01643287 0.035798963 -0.00012349337
0.016917437 0.035957135 6.9133937e-05
-0.013676742 0.029588249 -0.00071174651
-0.016228655 0.031322245 -0.008364372
0.0024892259 0.035438571 0.00012575835
0.0035090912 0.035419274 7.4997544e-05
0.011508914 0.036225319 6.6682696e-06
0.011679289 0.036218617 -2.4572015e-05
0.0045781229 0.034598153 1.3589859e-05
-0.010514604 0.036562257 0.00040230155
0.00358296 0.034666609 6.6533685e-06
-0.004529519 0.032573618 -0.00011306256
0.018745579 0.03257256 0.0010374263
-0.0034100618 0.036434002 0.00031901151
-0.013161359 0.03663525 0.0005376637
-0.012500992 0.036618542 0.00051423907
-0.011432005 0.036583472 0.00042833388
-0.0095919985 0.036536817 0.00035024434
-0.0085486416 0.036513451 0.00031901151
-0.0075124744 0.036493544 0.00030339509
-0.016553963 0.030354448 -0.0051940009
-0.015622014 0.034521259 -0.0090827867
0.0095878532 0.035511274 -4.3787062e-05
0.010560255 0.035591144 -4.7981739e-05
0.012552606 0.035966534 6.6608191e-06
0.012559704 0.035579991 -4.0195882e-05
0.013561808 0.035569206 -7.1406364e-05
0.014564077 0.035556108 -0.00011825562
-0.016456863 0.03619156 -0.0023672208
-0.015435899 0.036173888 -0.0023437887
-0.016517187 0.036156166 -0.0039914474
-0.015647555 0.034484275 -0.0087454468
0.016592056 0.036362965 0.00011375546
-0.0054553282 0.036461279 0.00030340999
0.018378656 0.036316358 0.0006903559
-0.0035864115 0.034618475 9.2566013e-05
0.004517613 0.035409626 7.6949596e-05
-0.0094730426 0.036794372 0.00037106872
-0.0025153998 0.033264667 -5.8934093e-05
0.018521994 0.029636091 0.0025651082
-0.010397336 0.036821019 0.00042833388
-0.003506681 0.032558486 -0.00013127923
0.0045626219 0.033490289 -8.1829727e-05
-0.0054944176 0.034513455 6.6906214e-05
-0.0025703683 0.034858815 9.2551112e-05
-0.0014261585 0.034417428 1.5176833e-05
-0.00051850453 0.034443635 3.0100346e-05
0.00049032085 0.034435954 5.3524971e-05
0.005493233 0.036436927 0.00021360815
0.006505521 0.036297403 0.00019409508
0.0075168721 0.036283005 0.00016284734
0.008495748 0.036287792 0.00010605156
0.00954259 0.036370181 3.3982098e-05
0.010547973 0.036358718 1.0557473e-05
-0.016445534 0.036413386 -0.0025338009
-0.016468143 0.036510013 -0.0019923896
0.019855827 0.03566489 -0.0042725652
0.020088818 0.035573803 -0.0041007698
0.020514742 0.035406247 -0.0036190376
-0.016537489 0.036287233 -0.0046473891
-0.010310745 0.032407839 -5.2683055e-05
-0.015249154 0.034341887 -0.010082312
-0.0065702368 0.032473266 -0.00011435151
0.018371277 0.036843427 0.00079795718
-0.0025963858 0.035506554 0.0001687035
-0.011483097 0.028727431 -0.00026925653
0.0054773316 0.036830958 0.00028777868
-0.0094927754 0.037060194 0.00042312592
0.0055232588 0.03540219 8.8661909e-05
-0.0034653451 0.03140695 -0.00024710596
-0.0024531148 0.031397343 -0.00023539364
-0.013171541 0.037149593 0.0005376637
-0.012535596 0.037147086 0.00059232116
-0.011475345 0.037117034 0.0005376637
-0.0085773822 0.037038118 0.00038929284
-0.0075445417 0.037020657 0.00038929284
-0.0066404995 0.03700443 0.00038148463
0.0064911824 0.036815681 0.00025654584
0.0075044669 0.036799513 0.00021749735
0.0085182041 0.036781017 0.00016283989
0.009534128 0.036757316 7.6934695e-05
0.010541998 0.036742792 3.7893653e-05
0.011546428 0.0366068 2.2269785e-05
0.014552855 0.036202624 -2.4572015e-05
0.01454688 0.036589716 2.2269785e-05
0.015586864 0.036544424 3.0942261e-05
0.01653314 0.036734439 0.00017064065
0.017518293 0.036571674 0.00040647388
0.018348031 0.031014994 -0.0028982162
0.020211648 0.035924483 -0.0041788518
0.020557567 0.035992678 -0.0038040355
-0.016629959 0.03621085 -0.0050846785
0.0024742689 0.034621045 2.7477741e-05
0.0055170432 0.03455691 1.9147992e-05
0.022473758 0.032686926 -0.0031168684
0.02150557 0.035725493 -0.0032480434
0.022473024 0.03573595 -0.0031845346
0.017513856 0.037035909 0.00045176595
0.018499115 0.037086532 0.00074069202
-0.0024204701 0.037201881 0.00041271746
-0.011521121 0.029621923 -0.00018421561
0.005465826 0.037095029 0.00034243613
-0.0015688576 0.035486631 0.00012966245
-0.0085929167 0.03730157 0.00042833388
-0.01652872 0.035670802 -0.0039289743
-0.016259687 0.034824755 -0.001992397
0.0044200532 0.034256838 -2.4564564e-05
-0.0024901349 0.032671709 -0.00013779849
-0.01318677 0.037412826 0.00056889653
-0.012557929 0.037414722 0.00064697862
-0.00054916553 0.0354716 0.00011599809
0.00046173669 0.035462853 0.00013551861
0.0014741383 0.035452306 0.00014137477
0.0064839218 0.037075207 0.00028777868
0.0074988063 0.037057403 0.00024092942
0.0085139964 0.037037246 0.00017845631
0.0095281266 0.037016187 0.00010817498
0.010411073 0.037002385 6.9133937e-05
0.014541578 0.03697582 6.1325729e-05
0.015539135 0.036975462 8.4750354e-05
0.016406963 0.036988232 0.00017324835
-0.0034286361 0.036826462 0.00037367642
-0.0024414826 0.036581647 0.00030340999
0.020707691 0.036207188 -0.0035229251
-0.016423492 0.03386825 -0.0019611567
-0.016582651 0.036558524 -0.0038352758
-0.016566155 0.036546338 -0.0045849159
-0.015951084 0.036498819 -0.0019923896
-0.016348703 0.035552405 -0.0052955151
-0.0075681936 0.037416425 0.00045176595
-0.0085618701 0.036774937 0.00035025179
-0.0014743619 0.032409206 -0.00012996793
-0.0074806083 0.035967577 0.00021749735
-0.0064478312 0.035948705 0.00020188093
0.0054556355 0.037357964 0.00038929284
0.0064754877 0.037336446 0.00032681972
0.007491976 0.037316971 0.00027216226
0.0085086673 0.037295114 0.00020188093
0.0095221056 0.037275292 0.00013941526
0.010530777 0.037260443 0.00010036677
0.011532553 0.037254974 0.00010817498
0.013536394 0.037241261 0.00010036677
0.014536859 0.037235957 0.00010036677
0.01553428 0.037237071 0.00013159961
0.016599804 0.037206609 0.00026278943
0.0195565 0.032119516 -0.0028513595
0.020213855 0.036276501 -0.0042491406
0.020670403 0.036516238 -0.0036166236
-0.00059986115 0.036518909 0.00029169768
-0.016410248 0.03728617 -0.0025702417
-0.016563809 0.036541704 -0.0052877069
-0.016109442 0.036183357 -0.0071930587
-0.0075001437 0.033311881 -3.3505261e-05
-0.015394157 0.036689639 -0.0023956075
-0.016462849 0.031521507 -0.0052720979
-0.006545132 0.037531815 0.00047519058
-0.01647024 0.035947919 -0.0044599771
-0.0044473223 0.035574008 0.00020300597
-0.0015634969 0.036495097 0.00029225647
0.00042162836 0.036502335 0.00027022511
0.0014365185 0.036490552 0.00027217716
0.019703576 0.036760107 -0.00363224
0.020669963 0.036761049 -0.0036166236
0.021506205 0.036452208 -0.0032979921
0.022450652 0.03645901 -0.0031963587
-0.016445795 0.036807951 -0.0024374872
0.0035569854 0.033498619 -8.7030232e-05
-0.0034654438 0.037486315 0.00048821419
-0.0024457853 0.03760118 0.00049862266
0.020213425 0.036640171 -0.0042569488
-0.0035645273 0.035485297 0.00018069893
0.012545 0.036604594 4.376471e-05
0.013545888 0.036597822 3.7908554e-05
-0.016511159 0.033394177 -0.0054126531
0.006632885 0.034286994 -3.0823052e-05
-0.0065786224 0.038062304 0.00056889653
0.0075994506 0.032816593 -0.00021588802
-0.0064550992 0.036823601 0.00033983588
-0.0054812934 0.036984667 0.00037367642
-0.0044424199 0.036581367 0.00034635514
0.019812103 0.037055794 -0.0033667386
0.020555753 0.03697012 -0.0038040355
-0.0022115316 0.03799447 0.00056889653
0.020214232 0.036877707 -0.0042881817
0.020782068 0.037047789 -0.0033979788
0.021505401 0.037065912 -0.0032980293
0.0084929336 0.035671957 2.0042062e-05
0.0094236974 0.035987183 6.6682696e-06
-0.014409708 0.036487862 -0.0024359301
-0.013716271 0.03657084 -0.0022665784
0.008498434 0.037685331 0.00025264919
-0.0065912846 0.038324997 0.00060012937
-0.013194641 0.037799142 0.00056889653
0.00060845166 0.031530861 -0.00023118407
-0.0055530388 0.038175832 0.00058060884
0.0016494319 0.034093574 -3.2380223e-05
-0.012515789 0.036881238 0.00054547191
-0.0053306539 0.033609103 -2.4572015e-05
0.00051058456 0.033261232 -3.8765371e-05
0.012515699 0.038034067 0.00024092942
0.019810125 0.037307426 -0.0033355057
0.020780485 0.037299342 -0.0033667386
0.021504864 0.037312802 -0.0032917783
0.022472167 0.03720659 -0.003200151
0.020214394 0.037118245 -0.0043037981
0.016506705 0.038183589 0.00046347827
0.0095125195 0.037665177 0.00019018352
-0.004531024 0.038291428 0.00060012937
-0.011451216 0.036848642 0.00047519058
-0.001417378 0.037581854 0.00047128648
-0.00042545237 0.037596341 0.00048352033
0.00052668713 0.037566341 0.00047935545
0.012525537 0.037539925 0.00017534196
0.013529735 0.037629846 0.00014722347
0.021503754 0.037563507 -0.0032667965
0.022471428 0.0375796 -0.0031793341
-0.0025362317 0.038317122 0.00062511861
0.020096391 0.037349869 -0.0043662712
0.010501869 0.038183205 0.00028388202
0.0024075247 0.037526958 0.00043614954
0.0094896285 0.03832652 0.00032683462
0.0024469271 0.036607847 0.00028258562
-0.01370394 0.037502799 -0.0023637414
-0.011518886 0.037652068 0.00064697862
-0.0017481502 0.034523237 -3.7066638e-05
0.0076163393 0.031803314 -0.00028226525
0.0025877915 0.034128159 -3.7960708e-05
0.01453047 0.037625208 0.00015112758
0.015526655 0.037630834 0.00020579994
0.018500032 0.037586424 0.00069644302
-0.0025113467 0.038794324 0.00070945919
0.0200972 0.03758727 -0.004397504
0.0034680385 0.036462747 0.00024289638
0.0044822451 0.036448777 0.00022336841
0.016516 0.037656449 0.00036197156
-0.010586316 0.039231427 0.00091248751
0.010483344 0.03867365 0.00040751696
0.0056777392 0.03424561 -2.4572015e-05
-0.00044604763 0.038496137 0.00064437836
0.00057201274 0.03848511 0.00065738708
0.0016192161 0.038512167 0.00066259503
0.019126676 0.037838295 0.00069383532
0.01351554 0.038410254 0.00024875253
0.017503537 0.037568897 0.0005871132
0.012503689 0.038558297 0.00032422692
-0.012580475 0.037810106 0.00069382787
-0.0014719125 0.038513433 0.00065999478
0.010912365 0.036998842 6.9133937e-05
0.011539533 0.036993183 6.1325729e-05
0.019701798 0.037495088 -0.00363224
0.020777527 0.037680242 -0.0033042729
